35	35	35	35	35	35	35	35	35	35	35	34	34	34	34	34	33	33	33	33	33	32	32	32	32	31	31	31	31	31	30	30	30	30	30	29	29	28	28	28	28	27	27	26	25	22	20	18	16	13	11	10	9	9	9	9	9	9	9	9	8	8	8	8	8	7	7	7	7	7	7	7	7	7	7	7	7	7	7	7	7	7	6	6	6	6	6	5	5	5	5	5	5	5	5	5	5	5	5	5	5	5	5	5	5	5	5	5	5	5	5	5	5	5	5	5	5	4	4	4	4	4	3	3	3	3	4	4	4	4	4	4	4	4	4	4	4	4	4	4	4	4	4	4	5	5	5	5	5	5	5	5	5	5	5	4	4	4	4	4	4	4	4	4	4	4	4	4	4	4	4	5	5	5	5	5	5	5	5	5	5	5	5	5	5	5	5	5	5	5	5	5	5	5	5	5	5	5	5	5	5	5	5	5	5	5	5	5	5	5	5	5	5	5	5	5	5	5	5	5	5	4	4	4	4	4	4	5	5	5	5	5	5	5	5	5	5	5	5	5	5	5	5	5	5	4	4	4	4	3	4	4	4	3	1	0	0	0	0	0	0	0	0	0	0	0	0	0	0	0	0	0	0	0	0	0	0	0	0	0	0	0	0	0	0	0	0	0	0	0	0	0	0	0	0	0	0	0	0	0	0	0	0	0	0	0	0	0	0	0	0	0	0	0	0	0	0	0	0	0	0	0	0	0	0	0	0	0	0	0	0	0	0	0	0	0	0	0	0	0	0	0	0	0	0	0	0	0	0	0	0	0	0	0	0	0	0	0	0	0	0	0	0	0	0	0	0	0	0	0	0	0	0	0	0	0	0	0	0	0	0	0	0	0	0	0	0	0	0	0	0	0	0	0	0	0	0	0	0	0	0	0	0	0	0	0	0	0	0	0	0	0	0	0	0	0	0	0	0	0	0	0	0	0	0	0	0	0	0	0	0	0	0	0	0	0	0	0	0	0	0	0	0	0	0	0	0	0	0	0	0	0	0	0	0	0	0	0	0	0	0	0	0	0	0	0	0	0	0	0	0	0	0	0	0	0	0	0	0	0	0	0	0	0	0	0	0	0	0	0	0	0	0	0	0	0	0	0	0	0	0	0	0	0	0	0	0	0	0	0	0	0	0	0	0	0	0	0	0	0	0	0	0	0	0	0	0	0	0	0	0	0	0	0	0	0	0	0	0	0	0	0	0	0	0	0	0	0	0	0	0	0	0	0	0	0	0	1	1	1	1	1	1	1	1	1	1	2	6	9	13	16	20	24	27	31	34	35	36	37	37	37	35	34	33	31	29	26	24	22	20	18	17	17	17	18	18	19	19	20	20	20	19	19	18	17	17	16	15	13	11	9	8	8	9	11	12	13	16	19	22	25	29	31	33	35	36	36	35	34	34	32	32	31	30	31	31	30	31	31	32	33	35	37	38	38	39	40	40	39	39	38	37	35	34	32	32	31	30	30	29	30	30	30	31	30	30	30	28	27	25	23	21	19	17	15	13	12	11	9	8	7	6	5	4	4	3	3	3	3	3	3	3	2	2	1	1	1	1	1	1	1	1	1	1	1	1	1	1	1	1	1	1	1	1	1	1	1	1	1	1	1	1	2	3	3	3	2	2	1	1	1	1	1	1	1	1	1	1	1	1	1	1	1	1	1	1	1	1	1	1	1	1	1	1	1	1	1	1	1	1	1	1	1	1	1	1	1	1	1	1	1	1	1	1	1	1	1	2	2	3	4	7	9	12	14	16	18	20	22	24	25	26	27	28	28	26	23	21	18	16	13	11	9	6	4	3	2	1	1	1	1	1	1	1	1	1	1	1	1	1	1	1	1	1	1	1	1	1	1	1	1	1	1	1	1	1	1	1	1	1	1	1	1	2	2	3	4	8	11	15	18	20	23	26	29	31	33	34	35	37	39	39	38	37	36	35	35	34	34	35	36	37	39	40	39	39	39	39	38	38	37	37	35	34	31	29	28	27	25	25	24	23	21	20	18	16	15	14	10	4	3	3	2	2	2	1	1	1	1	1	1	1	1	1	1	1	1	1	1	1	1	1	1	1	1	1	1	1	1	1	1	1	1	1	1	1	1	1	1	2	4	8	12	15	16	15	14	11	9	7	4	3	2	2	1	1	1	2	2	2	1	1	1	2	2	2	6	10	12	13	15	17	20	22	23	23	23	22	21	21	20	19	18	17	16	15	14	13	12	11	8	6	3	2	2	2	1	1	1
35	36	36	36	36	36	36	35	35	35	35	35	35	35	34	34	34	34	34	33	33	33	33	32	32	32	31	31	31	31	31	30	30	30	30	29	29	29	28	28	28	27	27	25	23	21	19	17	14	12	10	10	9	9	9	9	9	9	9	9	9	8	8	8	8	8	8	8	7	7	7	7	7	7	7	7	7	7	7	7	7	7	7	6	6	6	6	6	5	5	5	5	5	5	5	5	5	5	5	5	5	5	5	5	5	5	5	5	5	5	5	5	5	5	5	5	5	5	4	4	4	4	4	3	3	3	3	4	4	4	4	4	4	4	4	4	4	4	4	4	4	4	4	4	4	5	5	5	5	5	5	5	5	5	5	4	4	4	4	4	4	4	4	4	4	4	4	4	4	4	4	4	4	4	4	4	5	5	5	5	5	4	4	4	4	4	4	5	5	5	5	5	5	5	5	5	5	5	5	5	5	5	5	5	5	5	5	5	5	5	5	5	5	5	5	5	5	5	5	5	5	4	4	4	4	4	4	4	5	5	5	5	5	5	5	5	5	5	5	5	5	5	5	4	4	4	4	4	4	3	3	4	4	4	2	0	0	0	0	0	0	0	0	0	0	0	0	0	0	0	0	0	0	0	0	0	0	0	0	0	0	0	0	0	0	0	0	0	0	0	0	0	0	0	0	0	0	0	0	0	0	0	0	0	0	0	0	0	0	0	0	0	0	0	0	0	0	0	0	0	0	0	0	0	0	0	0	0	0	0	0	0	0	0	0	0	0	0	0	0	0	0	0	0	0	0	0	0	0	0	0	0	0	0	0	0	0	0	0	0	0	0	0	0	0	0	0	0	0	0	0	0	0	0	0	0	0	0	0	0	0	0	0	0	0	0	0	0	0	0	0	0	0	0	0	0	0	0	0	0	0	0	0	0	0	0	0	0	0	0	0	0	0	0	0	0	0	0	0	0	0	0	0	0	0	0	0	0	0	0	0	0	0	0	0	0	0	0	0	0	0	0	0	0	0	0	0	0	0	0	0	0	0	0	0	0	0	0	0	0	0	0	0	0	0	0	0	0	0	0	0	0	0	0	0	0	0	0	0	0	0	0	0	0	0	0	0	0	0	0	0	0	0	0	0	0	0	0	0	0	0	0	0	0	0	0	0	0	0	0	0	0	0	0	0	0	0	0	0	0	0	0	0	0	0	0	0	0	0	0	0	0	0	0	0	0	0	0	0	0	0	0	0	0	0	0	0	0	0	0	0	0	0	0	0	0	0	1	1	1	1	1	1	1	1	1	1	2	5	9	12	16	20	24	27	31	34	35	36	37	37	36	35	34	32	30	27	25	23	20	18	18	18	19	20	20	21	21	22	22	23	22	22	21	20	19	18	17	16	15	13	11	9	8	8	10	11	12	14	17	21	24	27	30	32	34	34	34	33	32	31	30	29	28	28	28	28	28	29	29	29	30	32	34	35	36	37	37	38	37	36	35	34	33	32	31	30	30	30	30	31	31	32	32	32	33	32	32	30	29	27	25	23	21	19	17	15	14	13	13	12	10	9	7	6	5	3	2	2	2	3	3	2	2	2	1	1	1	1	1	1	1	1	1	1	1	1	1	1	1	1	1	1	1	1	1	1	1	1	1	1	1	2	3	3	3	2	2	1	1	1	1	1	1	1	1	1	1	1	1	1	1	1	1	1	1	1	1	1	1	1	1	1	1	1	1	1	1	1	1	1	1	1	1	1	1	1	1	1	1	1	1	1	1	1	1	1	1	1	1	2	3	4	7	9	12	14	16	17	19	21	22	23	24	26	27	27	24	22	20	18	16	13	11	9	7	5	3	2	1	1	1	1	1	1	1	1	1	1	1	1	1	1	1	1	1	1	1	1	1	1	1	1	1	1	1	1	1	1	1	1	1	1	1	2	2	2	4	8	12	15	17	20	23	25	28	30	32	34	35	37	39	41	41	40	39	38	38	37	37	38	38	40	41	42	42	42	42	41	40	40	39	39	37	35	33	32	30	30	29	27	26	25	23	21	19	18	17	16	13	7	3	3	3	2	2	1	1	1	1	1	1	1	1	1	1	1	1	1	1	1	1	1	1	1	1	1	1	1	1	1	1	1	1	1	1	1	1	1	1	1	2	5	9	13	15	17	15	14	12	10	7	5	3	2	2	2	2	1	1	1	1	1	1	2	2	2	5	10	12	13	15	18	22	24	26	26	26	25	25	24	24	23	22	20	19	18	17	16	15	13	11	9	6	3	2	2	2	1	1
36	36	36	36	36	36	36	36	36	36	36	36	36	35	35	35	35	34	34	34	34	33	33	33	32	32	32	32	31	31	31	31	30	30	30	29	29	29	28	28	28	27	26	25	22	20	18	16	13	11	10	10	10	10	9	9	9	9	9	9	9	8	8	8	8	8	8	8	8	8	7	7	7	7	7	7	7	7	7	7	7	7	7	6	6	6	6	6	6	5	5	5	5	5	5	5	5	5	5	5	5	5	5	5	5	5	5	5	5	5	5	5	5	5	5	5	5	5	5	5	4	4	4	4	3	3	3	3	4	4	4	4	4	4	4	4	4	4	4	4	4	4	4	4	4	4	4	5	5	5	5	5	5	5	5	5	4	4	4	4	4	4	4	4	4	4	4	4	4	4	4	4	4	4	4	4	4	4	4	4	4	4	4	4	4	4	4	4	4	5	5	5	5	5	5	5	5	5	5	5	5	5	5	5	5	5	5	5	5	5	5	5	5	5	5	5	5	5	5	5	4	4	4	4	4	4	4	5	5	5	5	5	5	5	5	5	5	5	5	5	5	5	5	4	4	4	4	4	4	3	3	4	4	4	3	1	0	0	0	0	0	0	0	0	0	0	0	0	0	0	0	0	0	0	0	0	0	0	0	0	0	0	0	0	0	0	0	0	0	0	0	0	0	0	0	0	0	0	0	0	0	0	0	0	0	0	0	0	0	0	0	0	0	0	0	0	0	0	0	0	0	0	0	0	0	0	0	0	0	0	0	0	0	0	0	0	0	0	0	0	0	0	0	0	0	0	0	0	0	0	0	0	0	0	0	0	0	0	0	0	0	0	0	0	0	0	0	0	0	0	0	0	0	0	0	0	0	0	0	0	0	0	0	0	0	0	0	0	0	0	0	0	0	0	0	0	0	0	0	0	0	0	0	0	0	0	0	0	0	0	0	0	0	0	0	0	0	0	0	0	0	0	0	0	0	0	0	0	0	0	0	0	0	0	0	0	0	0	0	0	0	0	0	0	0	0	0	0	0	0	0	0	0	0	0	0	0	0	0	0	0	0	0	0	0	0	0	0	0	0	0	0	0	0	0	0	0	0	0	0	0	0	0	0	0	0	0	0	0	0	0	0	0	0	0	0	0	0	0	0	0	0	0	0	0	0	0	0	0	0	0	0	0	0	0	0	0	0	0	0	0	0	0	0	0	0	0	0	0	0	0	0	0	0	0	0	0	0	0	0	0	0	0	0	0	0	0	0	0	0	0	0	0	0	0	0	0	1	1	1	1	1	1	1	1	1	1	2	4	8	11	15	19	22	27	31	33	35	36	37	36	35	34	33	31	29	26	24	21	19	19	20	21	21	22	23	23	24	24	25	25	24	24	23	22	21	20	19	18	16	15	13	11	9	8	9	10	11	13	16	19	22	25	28	30	32	32	31	30	29	28	27	26	25	25	25	25	26	26	26	27	27	29	31	33	34	35	35	35	35	34	33	32	31	30	29	29	30	31	31	32	33	33	34	34	34	34	33	32	31	29	27	25	23	21	19	18	16	16	15	15	14	13	11	10	7	4	2	1	2	2	2	2	2	1	1	1	1	1	1	1	1	1	1	1	1	1	1	1	1	1	1	1	1	1	1	1	1	1	1	1	2	3	3	3	2	1	1	1	1	1	1	1	1	1	1	1	1	1	1	1	1	1	1	1	1	1	1	1	1	1	1	1	1	1	1	1	1	1	1	1	1	1	1	1	1	1	1	1	1	1	1	1	1	1	1	1	1	1	1	1	2	3	5	7	9	11	13	15	16	18	19	21	22	24	27	28	27	25	23	22	20	17	14	12	10	8	6	3	2	1	1	1	1	1	1	1	1	1	1	1	1	1	1	1	1	1	1	1	1	1	1	1	1	1	1	1	1	1	1	1	1	1	1	1	2	2	4	8	12	15	17	19	22	24	27	29	31	33	34	37	39	42	43	42	42	41	40	40	40	40	41	42	43	44	45	45	44	44	42	42	41	40	39	37	35	34	33	32	31	30	29	27	25	23	21	20	18	17	14	9	4	3	3	2	2	2	1	1	1	1	1	1	1	1	1	1	1	1	1	1	1	1	1	1	1	1	1	1	1	1	1	1	1	1	1	1	1	1	1	1	1	2	6	9	12	16	17	16	14	13	11	9	6	4	2	2	2	1	1	1	1	1	1	2	2	2	5	10	12	13	16	19	23	26	27	28	29	29	28	28	27	26	25	23	22	20	19	18	17	16	14	11	8	5	3	2	2	2	1
37	36	36	37	37	37	37	37	36	36	36	36	36	36	36	35	35	35	35	35	34	34	33	33	33	33	32	32	32	31	31	31	31	30	30	30	29	29	28	28	28	27	25	23	21	19	17	15	12	11	10	10	10	10	10	9	9	9	9	9	9	9	9	8	8	8	8	8	8	8	8	8	7	7	7	7	7	7	7	7	7	7	7	6	6	6	6	6	6	6	6	5	5	5	5	5	5	5	5	5	5	5	5	5	5	5	5	5	5	5	5	5	5	5	5	5	5	5	5	5	5	4	4	4	4	4	3	3	4	4	4	4	4	4	4	4	4	4	4	4	4	4	4	4	4	4	4	4	4	5	5	5	5	5	5	5	4	4	4	4	4	4	4	4	4	4	4	4	4	4	4	4	4	4	4	4	4	4	4	4	4	4	4	4	4	4	4	4	4	4	4	4	5	5	5	5	5	5	5	5	5	5	5	5	5	5	5	5	5	5	5	5	5	5	5	5	4	4	4	4	4	4	4	4	4	4	4	5	5	5	5	5	5	5	5	5	5	5	5	5	5	5	5	4	4	4	4	4	3	3	3	3	3	4	3	1	0	0	0	0	0	0	0	0	0	0	0	0	0	0	0	0	0	0	0	0	0	0	0	0	0	0	0	0	0	0	0	0	0	0	0	0	0	0	0	0	0	0	0	0	0	0	0	0	0	0	0	0	0	0	0	0	0	0	0	0	0	0	0	0	0	0	0	0	0	0	0	0	0	0	0	0	0	0	0	0	0	0	0	0	0	0	0	0	0	0	0	0	0	0	0	0	0	0	0	0	0	0	0	0	0	0	0	0	0	0	0	0	0	0	0	0	0	0	0	0	0	0	0	0	0	0	0	0	0	0	0	0	0	0	0	0	0	0	0	0	0	0	0	0	0	0	0	0	0	0	0	0	0	0	0	0	0	0	0	0	0	0	0	0	0	0	0	0	0	0	0	0	0	0	0	0	0	0	0	0	0	0	0	0	0	0	0	0	0	0	0	0	0	0	0	0	0	0	0	0	0	0	0	0	0	0	0	0	0	0	0	0	0	0	0	0	0	0	0	0	0	0	0	0	0	0	0	0	0	0	0	0	0	0	0	0	0	0	0	0	0	0	0	0	0	0	0	0	0	0	0	0	0	0	0	0	0	0	0	0	0	0	0	0	0	0	0	0	0	0	0	0	0	0	0	0	0	0	0	0	0	0	0	0	0	0	0	0	0	0	0	0	0	0	0	0	0	0	0	0	0	1	1	1	1	1	1	1	1	1	1	2	3	7	10	13	17	21	25	29	33	34	36	36	35	34	34	32	30	28	25	22	20	20	21	22	23	24	24	25	25	26	26	27	27	26	26	25	24	23	22	21	20	18	16	14	13	11	9	8	9	10	12	14	17	20	23	25	28	29	29	28	26	26	25	24	23	22	22	22	22	23	23	23	23	24	26	28	30	32	33	33	33	32	31	30	30	29	28	28	29	30	31	32	33	34	35	35	36	36	35	35	34	33	31	29	27	25	23	21	20	18	18	17	17	17	16	15	13	11	8	5	2	1	2	2	2	1	1	1	1	1	1	1	1	1	1	1	1	1	1	1	1	1	1	1	1	1	1	1	1	1	1	2	2	3	3	3	2	1	1	1	1	1	1	1	1	1	1	1	1	1	1	1	1	1	1	1	1	1	1	1	1	1	1	1	1	1	1	1	1	1	1	1	1	1	1	1	1	1	1	1	1	1	1	1	1	1	1	1	1	1	1	1	1	1	2	3	5	7	9	11	12	14	16	17	19	21	23	26	28	29	28	28	26	24	21	18	16	14	12	10	7	3	2	1	1	1	1	1	1	1	1	1	1	1	1	1	1	1	1	1	1	1	1	1	1	1	1	1	1	1	1	1	1	1	1	1	2	2	2	4	8	12	15	17	19	21	23	26	28	30	32	34	36	39	41	44	45	45	44	43	43	43	43	44	45	46	47	47	48	47	46	45	44	43	42	41	39	37	36	35	35	34	32	31	29	27	25	23	22	20	18	15	11	5	3	2	2	2	1	1	1	1	1	1	1	1	1	1	1	1	1	1	1	1	1	1	1	1	1	1	1	1	1	1	1	1	1	1	1	1	1	1	1	1	2	3	6	10	14	17	17	16	15	14	12	10	7	4	2	2	2	1	1	1	1	1	2	2	2	5	9	12	13	16	20	23	26	28	30	32	32	32	31	30	29	27	26	24	23	22	21	20	18	16	14	11	9	6	3	2	2	2
37	37	37	37	37	37	37	37	37	37	37	37	37	36	36	36	36	35	35	35	35	34	34	34	33	33	33	32	32	32	31	31	31	30	30	30	29	29	28	28	27	26	24	22	20	18	16	14	12	11	10	10	10	10	10	10	9	9	9	9	9	9	9	9	9	8	8	8	8	8	8	8	8	8	7	7	7	7	7	7	7	7	7	6	6	6	6	6	6	6	6	6	5	5	5	5	5	5	5	5	5	5	5	5	5	5	5	5	5	5	5	5	5	5	5	5	5	5	5	5	5	5	5	4	4	4	4	4	4	4	4	4	4	4	4	4	4	4	4	4	4	4	4	4	4	4	4	4	4	4	5	5	5	5	5	5	4	4	4	4	4	4	4	4	4	4	4	4	4	4	4	4	4	4	4	4	4	4	4	4	4	4	4	4	4	4	4	4	4	4	4	4	5	5	5	5	5	5	5	5	5	5	5	5	5	5	5	5	5	5	5	5	5	5	5	5	5	4	4	4	4	4	4	4	4	4	4	5	5	5	5	5	5	5	5	5	5	5	5	5	5	5	5	4	4	4	4	4	3	3	3	3	3	3	3	2	0	0	0	0	0	0	0	0	0	0	0	0	0	0	0	0	0	0	0	0	0	0	0	0	0	0	0	0	0	0	0	0	0	0	0	0	0	0	0	0	0	0	0	0	0	0	0	0	0	0	0	0	0	0	0	0	0	0	0	0	0	0	0	0	0	0	0	0	0	0	0	0	0	0	0	0	0	0	0	0	0	0	0	0	0	0	0	0	0	0	0	0	0	0	0	0	0	0	0	0	0	0	0	0	0	0	0	0	0	0	0	0	0	0	0	0	0	0	0	0	0	0	0	0	0	0	0	0	0	0	0	0	0	0	0	0	0	0	0	0	0	0	0	0	0	0	0	0	0	0	0	0	0	0	0	0	0	0	0	0	0	0	0	0	0	0	0	0	0	0	0	0	0	0	0	0	0	0	0	0	0	0	0	0	0	0	0	0	0	0	0	0	0	0	0	0	0	0	0	0	0	0	0	0	0	0	0	0	0	0	0	0	0	0	0	0	0	0	0	0	0	0	0	0	0	0	0	0	0	0	0	0	0	0	0	0	0	0	0	0	0	0	0	0	0	0	0	0	0	0	0	0	0	0	0	0	0	0	0	0	0	0	0	0	0	0	0	0	0	0	0	0	0	0	0	0	0	0	0	0	0	0	0	0	0	0	0	0	0	0	0	0	0	0	0	0	0	0	0	0	0	1	1	1	1	1	1	1	1	1	1	1	2	5	9	12	16	20	24	28	32	34	35	35	35	34	33	32	29	27	24	22	21	22	23	24	25	26	27	27	28	28	29	29	29	28	28	27	26	25	24	23	21	20	18	16	14	12	10	8	8	10	11	13	15	18	21	23	25	26	25	24	23	22	22	21	20	19	19	19	19	19	19	20	20	21	23	24	27	29	30	30	30	29	28	28	27	27	27	27	28	30	31	32	33	34	36	37	37	37	36	36	35	34	33	31	29	27	25	23	22	20	20	20	20	20	19	18	16	14	12	9	5	3	1	1	1	1	1	1	1	1	1	1	1	1	1	1	1	1	1	1	1	1	1	1	1	1	1	1	1	1	2	3	3	3	3	2	1	1	1	1	1	1	1	1	1	1	1	1	1	1	1	1	1	0	1	1	1	1	1	1	1	1	1	1	1	1	1	1	1	1	1	1	1	1	1	1	1	1	1	1	1	1	1	1	1	1	1	1	1	1	1	1	1	1	2	2	4	6	8	9	11	12	14	15	17	20	22	25	28	31	32	32	31	29	25	22	20	17	15	13	10	6	2	1	1	1	1	1	1	1	1	1	1	1	1	1	1	1	1	1	1	1	1	1	1	1	1	1	1	1	1	1	1	1	1	1	2	2	2	5	9	12	15	17	19	21	23	25	27	29	31	33	36	38	41	43	46	47	47	46	46	46	46	46	47	48	49	50	50	50	48	47	46	45	44	43	41	40	38	37	36	35	33	32	30	28	26	24	22	20	18	15	11	7	4	3	2	2	1	1	1	1	1	1	1	1	1	1	1	1	1	1	1	1	1	1	1	1	1	1	1	1	1	1	1	1	1	1	1	1	1	1	1	1	2	3	5	8	12	16	18	18	17	16	15	13	10	7	3	2	2	1	1	1	1	1	2	2	2	4	9	12	13	16	19	23	26	28	31	33	35	35	34	33	31	30	28	27	25	24	22	21	19	18	16	14	11	9	6	4	2	2
38	38	38	38	37	37	38	38	38	37	37	37	37	37	37	36	36	36	36	35	35	35	34	34	34	33	33	33	32	32	32	31	31	31	30	30	29	29	28	28	27	26	24	21	20	18	15	13	11	11	11	11	10	10	10	10	10	10	9	9	9	9	9	9	9	9	8	8	8	8	8	8	8	8	8	7	7	7	7	7	7	7	7	7	6	6	6	6	6	6	6	6	6	5	5	5	5	5	5	5	5	5	5	5	5	5	5	5	5	5	5	5	5	5	5	5	5	5	5	5	5	5	5	5	4	4	4	4	4	4	4	4	4	4	4	4	4	4	4	4	4	4	4	4	4	4	4	4	4	4	4	5	5	5	5	5	5	4	4	4	4	4	4	4	4	4	4	4	4	4	4	4	4	4	5	5	5	5	5	5	4	4	4	4	4	4	4	4	4	4	4	4	5	5	5	5	5	5	5	5	5	5	5	5	5	5	5	5	5	5	5	5	5	5	5	5	5	5	4	4	4	4	4	4	4	4	4	5	5	5	5	5	5	5	5	5	5	5	5	5	5	5	5	5	4	4	4	4	3	3	3	3	3	3	3	3	1	0	0	0	0	0	0	0	0	0	0	0	0	0	0	0	0	0	0	0	0	0	0	0	0	0	0	0	0	0	0	0	0	0	0	0	0	0	0	0	0	0	0	0	0	0	0	0	0	0	0	0	0	0	0	0	0	0	0	0	0	0	0	0	0	0	0	0	0	0	0	0	0	0	0	0	0	0	0	0	0	0	0	0	0	0	0	0	0	0	0	0	0	0	0	0	0	0	0	0	0	0	0	0	0	0	0	0	0	0	0	0	0	0	0	0	0	0	0	0	0	0	0	0	0	0	0	0	0	0	0	0	0	0	0	0	0	0	0	0	0	0	0	0	0	0	0	0	0	0	0	0	0	0	0	0	0	0	0	0	0	0	0	0	0	0	0	0	0	0	0	0	0	0	0	0	0	0	0	0	0	0	0	0	0	0	0	0	0	0	0	0	0	0	0	0	0	0	0	0	0	0	0	0	0	0	0	0	0	0	0	0	0	0	0	0	0	0	0	0	0	0	0	0	0	0	0	0	0	0	0	0	0	0	0	0	0	0	0	0	0	0	0	0	0	0	0	0	0	0	0	0	0	0	0	0	0	0	0	0	0	0	0	0	0	0	0	0	0	0	0	0	0	0	0	0	0	0	0	0	0	0	0	0	0	0	0	0	0	0	0	0	0	0	0	0	0	0	0	0	0	1	1	1	1	1	1	1	1	1	1	1	2	4	8	11	15	19	23	27	31	33	35	35	34	34	33	31	29	26	23	22	23	24	25	26	27	28	29	29	30	30	31	31	31	30	30	29	28	27	26	24	23	21	19	17	15	13	11	9	8	9	11	12	14	17	19	21	22	22	21	21	20	19	18	17	17	16	16	15	15	16	16	16	17	18	19	20	22	24	26	26	26	26	25	25	25	25	25	26	27	29	30	32	34	35	36	38	39	39	38	37	36	35	34	32	31	29	27	25	23	23	23	23	23	22	22	21	19	17	15	12	9	6	2	1	1	1	1	1	1	1	1	1	1	1	1	1	1	1	1	1	1	1	1	1	1	1	1	1	1	2	3	3	3	2	2	1	1	1	1	1	1	1	1	1	1	1	1	1	1	1	1	1	0	0	0	1	1	1	1	1	1	1	1	1	1	1	1	1	1	1	1	1	1	1	1	1	1	1	1	1	1	1	1	1	1	1	1	1	1	1	1	1	1	1	1	2	3	4	6	8	10	12	13	14	16	19	22	25	28	31	34	35	34	32	29	26	23	19	16	14	12	8	4	2	1	1	1	1	1	1	1	1	1	1	1	1	1	1	1	1	1	1	1	1	1	1	1	1	1	1	1	1	1	1	1	1	2	2	3	5	9	12	15	17	18	20	22	24	26	29	31	33	35	38	40	43	46	48	49	49	49	48	48	49	50	51	52	53	53	52	51	49	48	47	45	44	42	41	39	38	36	35	33	31	29	27	25	23	21	19	17	14	11	8	5	3	2	2	1	1	1	1	1	1	1	1	1	1	1	1	1	1	1	1	1	1	1	1	1	1	1	1	1	1	1	1	1	1	1	1	1	1	1	1	2	2	4	8	12	16	19	20	19	18	17	16	13	9	5	2	2	1	1	1	1	1	2	2	2	4	8	11	13	15	19	22	25	28	31	34	36	37	37	35	34	32	31	29	27	25	24	22	21	19	17	16	14	12	9	6	4	3
39	39	39	38	38	38	38	38	38	38	38	38	38	37	37	37	37	37	36	36	36	35	35	34	34	34	34	33	33	33	32	32	31	31	30	30	29	29	28	28	27	25	23	21	19	17	15	13	11	11	11	11	11	10	10	10	10	10	10	9	9	9	9	9	9	9	9	8	8	8	8	8	8	8	8	7	7	7	7	7	7	7	7	7	7	6	6	6	6	6	6	6	6	6	6	5	5	5	5	5	5	5	5	5	5	5	5	5	5	5	5	5	5	5	5	5	5	5	5	5	5	5	5	5	5	4	4	4	4	4	4	4	4	4	4	4	4	4	4	4	4	4	4	4	4	4	4	4	4	4	4	5	5	5	5	5	5	5	4	4	4	4	4	4	4	4	4	4	4	5	5	5	5	5	5	5	5	5	5	5	5	5	5	4	4	4	4	4	4	4	4	5	5	5	5	5	5	5	5	5	5	5	5	5	5	5	5	5	5	5	5	5	5	5	5	5	5	5	4	4	4	4	4	4	4	4	5	5	5	5	5	5	5	5	5	5	5	5	5	5	6	6	6	5	5	4	4	4	3	3	3	3	3	3	3	3	2	0	0	0	0	0	0	0	0	0	0	0	0	0	0	0	0	0	0	0	0	0	0	0	0	0	0	0	0	0	0	0	0	0	0	0	0	0	0	0	0	0	0	0	0	0	0	0	0	0	0	0	0	0	0	0	0	0	0	0	0	0	0	0	0	0	0	0	0	0	0	0	0	0	0	0	0	0	0	0	0	0	0	0	0	0	0	0	0	0	0	0	0	0	0	0	0	0	0	0	0	0	0	0	0	0	0	0	0	0	0	0	0	0	0	0	0	0	0	0	0	0	0	0	0	0	0	0	0	0	0	0	0	0	0	0	0	0	0	0	0	0	0	0	0	0	0	0	0	0	0	0	0	0	0	0	0	0	0	0	0	0	0	0	0	0	0	0	0	0	0	0	0	0	0	0	0	0	0	0	0	0	0	0	0	0	0	0	0	0	0	0	0	0	0	0	0	0	0	0	0	0	0	0	0	0	0	0	0	0	0	0	0	0	0	0	0	0	0	0	0	0	0	0	0	0	0	0	0	0	0	0	0	0	0	0	0	0	0	0	0	0	0	0	0	0	0	0	0	0	0	0	0	0	0	0	0	0	0	0	0	0	0	0	0	0	0	0	0	0	0	0	0	0	0	0	0	0	0	0	0	0	0	0	0	0	0	0	0	0	0	0	0	0	0	0	0	0	0	0	0	1	1	1	1	1	1	1	1	1	1	1	1	3	7	10	14	18	22	26	30	33	34	34	34	33	32	30	28	25	23	23	24	26	27	28	29	30	31	32	32	33	33	33	32	32	31	31	30	29	27	26	25	23	21	19	17	14	12	11	9	9	10	12	13	15	16	17	18	18	17	17	17	16	15	14	14	13	12	12	12	13	13	13	14	14	15	16	17	19	21	22	23	23	22	22	22	22	23	24	25	27	29	32	34	35	36	38	39	40	39	38	37	36	35	34	32	30	28	26	25	25	25	26	25	25	24	23	22	20	18	15	13	9	5	2	1	1	1	1	1	1	1	1	1	1	1	1	1	1	1	1	1	1	1	1	1	1	1	2	2	3	3	3	2	1	1	1	1	1	1	1	1	1	1	1	1	1	1	1	1	1	1	0	0	0	0	0	1	1	1	1	1	1	1	1	1	1	1	1	1	1	1	1	1	1	1	1	1	1	1	1	1	1	1	1	1	1	1	1	1	1	1	1	1	1	1	2	2	3	5	7	9	11	12	14	16	19	22	25	28	31	34	36	36	35	32	29	25	21	17	14	12	8	4	2	1	1	1	1	1	1	1	1	1	1	1	1	1	1	1	1	1	1	1	1	1	1	1	1	1	1	1	1	1	1	1	1	2	2	3	6	9	11	14	16	17	19	21	24	26	28	31	33	35	38	40	43	46	49	51	51	51	51	51	52	52	53	54	55	55	54	52	51	49	47	45	43	41	39	37	36	35	33	32	29	27	25	23	21	19	17	16	13	11	8	6	3	2	2	1	1	1	1	1	1	1	1	1	1	1	1	1	1	1	1	1	1	1	1	1	1	1	1	1	1	1	1	1	1	1	1	1	1	1	1	2	2	5	9	13	17	19	21	20	20	19	17	15	11	6	3	2	1	1	1	1	1	1	2	2	3	7	10	12	15	18	22	25	28	31	34	36	37	39	38	36	35	33	32	30	27	25	24	22	20	19	18	16	14	12	10	7	5
40	40	40	39	39	39	39	39	39	38	38	38	38	38	38	38	37	37	37	36	36	36	35	35	35	34	34	34	33	33	33	32	32	31	31	30	29	29	28	27	26	25	23	21	19	17	15	13	11	11	11	11	11	11	11	10	10	10	10	10	9	9	9	9	9	9	9	9	8	8	8	8	8	8	8	7	7	7	7	7	7	7	7	7	7	7	6	6	6	6	6	6	6	6	6	6	6	5	5	5	5	5	5	5	5	5	5	5	5	5	5	5	5	5	5	5	5	5	5	5	5	5	5	5	5	4	4	4	4	4	4	4	4	4	4	4	4	4	4	4	4	4	4	4	4	4	4	4	4	4	4	5	5	5	5	5	5	5	4	4	4	4	4	4	4	4	4	5	5	5	5	5	5	5	5	5	5	5	5	5	5	5	5	5	5	5	4	4	4	5	5	5	5	5	5	5	5	5	5	5	5	5	5	5	5	5	5	5	5	5	5	5	5	5	5	5	5	5	4	4	4	4	4	4	4	4	5	5	5	5	5	5	5	5	5	5	5	5	5	5	6	6	6	6	5	5	4	4	3	3	3	3	3	3	3	3	3	1	0	0	0	0	0	0	0	0	0	0	0	0	0	0	0	0	0	0	0	0	0	0	0	0	0	0	0	0	0	0	0	0	0	0	0	0	0	0	0	0	0	0	0	0	0	0	0	0	0	0	0	0	0	0	0	0	0	0	0	0	0	0	0	0	0	0	0	0	0	0	0	0	0	0	0	0	0	0	0	0	0	0	0	0	0	0	0	0	0	0	0	0	0	0	0	0	0	0	0	0	0	0	0	0	0	0	0	0	0	0	0	0	0	0	0	0	0	0	0	0	0	0	0	0	0	0	0	0	0	0	0	0	0	0	0	0	0	0	0	0	0	0	0	0	0	0	0	0	0	0	0	0	0	0	0	0	0	0	0	0	0	0	0	0	0	0	0	0	0	0	0	0	0	0	0	0	0	0	0	0	0	0	0	0	0	0	0	0	0	0	0	0	0	0	0	0	0	0	0	0	0	0	0	0	0	0	0	0	0	0	0	0	0	0	0	0	0	0	0	0	0	0	0	0	0	0	0	0	0	0	0	0	0	0	0	0	0	0	0	0	0	0	0	0	0	0	0	0	0	0	0	0	0	0	0	0	0	0	0	0	0	0	0	0	0	0	0	0	0	0	0	0	0	0	0	0	0	0	0	0	0	0	0	0	0	0	0	0	0	0	0	0	0	0	0	0	0	0	0	1	1	1	1	1	1	1	1	1	1	1	1	3	6	10	14	18	21	25	28	31	33	33	33	32	31	29	27	25	24	25	26	27	29	30	32	33	33	34	35	36	36	35	35	34	33	33	32	31	29	28	26	24	22	20	18	15	13	11	10	10	10	11	12	13	13	14	14	14	14	13	13	12	11	11	10	10	9	9	9	10	10	10	10	11	11	12	13	14	17	18	19	20	20	20	20	20	21	22	23	25	28	31	34	35	36	38	40	41	41	40	38	37	36	35	33	31	29	28	27	27	28	28	28	28	27	26	23	21	19	17	15	12	9	4	1	1	1	1	1	1	1	1	1	1	1	1	1	1	1	1	1	1	1	1	1	1	2	3	4	3	3	2	1	1	1	1	1	1	1	1	1	1	1	1	1	1	1	1	1	1	0	0	0	0	0	0	0	1	1	1	1	1	1	1	1	1	1	1	1	1	1	1	1	1	1	1	1	1	1	1	1	1	1	1	1	1	1	1	1	1	1	1	1	1	1	2	2	3	4	7	8	10	12	13	16	18	21	24	28	31	34	36	37	36	33	30	26	22	17	14	11	8	5	2	1	1	1	1	1	1	1	1	1	1	1	1	1	1	1	1	1	1	1	1	1	1	1	1	1	1	1	1	1	1	1	1	2	2	4	6	9	11	13	14	16	18	21	23	26	28	30	33	35	38	41	43	46	49	51	53	54	54	55	55	56	56	56	57	56	55	53	51	48	46	43	41	39	36	35	34	33	32	30	28	25	23	21	18	17	15	14	12	10	8	5	3	2	2	1	1	1	1	1	1	1	1	1	1	1	1	1	1	1	1	1	1	1	1	1	1	1	1	1	1	1	1	1	1	1	1	1	1	1	1	2	3	6	10	14	17	20	21	21	21	20	18	16	12	7	3	2	1	1	1	1	1	1	2	2	3	5	8	11	15	18	21	24	27	30	33	36	37	39	40	39	38	36	35	33	30	28	25	23	22	21	20	18	17	15	14	12	9
41	41	40	40	40	40	39	39	39	39	39	39	39	39	38	38	38	37	37	37	36	36	36	35	35	35	35	34	34	33	33	33	32	32	31	30	30	29	28	27	26	24	23	21	19	17	14	13	11	11	11	11	11	11	11	10	10	10	10	10	10	9	9	9	9	9	9	9	8	8	8	8	8	8	8	7	7	7	7	7	7	7	7	7	7	7	7	6	6	6	6	6	6	6	6	6	6	6	6	5	5	5	5	5	5	5	5	5	5	5	5	5	5	5	5	5	5	5	5	5	5	5	5	5	5	4	4	4	4	4	4	4	4	4	4	4	4	4	4	4	4	4	4	4	4	4	4	4	4	4	4	5	5	5	5	5	5	5	5	5	5	5	5	5	5	5	5	5	5	5	5	5	5	5	5	5	5	5	5	5	5	5	5	5	5	5	5	5	5	5	5	5	5	5	5	5	5	5	5	5	5	5	5	5	5	5	5	5	5	5	5	5	5	5	5	5	5	5	4	4	4	4	4	4	4	5	5	5	5	5	5	5	5	5	5	5	5	5	5	6	6	6	6	6	5	5	5	4	4	3	3	3	3	3	3	3	3	2	0	0	0	0	0	0	0	0	0	0	0	0	0	0	0	0	0	0	0	0	0	0	0	0	0	0	0	0	0	0	0	0	0	0	0	0	0	0	0	0	0	0	0	0	0	0	0	0	0	0	0	0	0	0	0	0	0	0	0	0	0	0	0	0	0	0	0	0	0	0	0	0	0	0	0	0	0	0	0	0	0	0	0	0	0	0	0	0	0	0	0	0	0	0	0	0	0	0	0	0	0	0	0	0	0	0	0	0	0	0	0	0	0	0	0	0	0	0	0	0	0	0	0	0	0	0	0	0	0	0	0	0	0	0	0	0	0	0	0	0	0	0	0	0	0	0	0	0	0	0	0	0	0	0	0	0	0	0	0	0	0	0	0	0	0	0	0	0	0	0	0	0	0	0	0	0	0	0	0	0	0	0	0	0	0	0	0	0	0	0	0	0	0	0	0	0	0	0	0	0	0	0	0	0	0	0	0	0	0	0	0	0	0	0	0	0	0	0	0	0	0	0	0	0	0	0	0	0	0	0	0	0	0	0	0	0	0	0	0	0	0	0	0	0	0	0	0	0	0	0	0	0	0	0	0	0	0	0	0	0	0	0	0	0	0	0	0	0	0	0	0	0	0	0	0	0	0	0	0	0	0	0	0	0	0	0	0	0	0	0	0	0	0	0	0	0	0	0	0	1	1	1	1	1	1	1	1	1	1	1	1	3	6	10	13	17	20	24	27	30	33	33	32	31	30	28	26	25	25	26	28	29	31	33	34	35	36	37	38	38	39	39	38	37	36	35	34	33	31	29	27	25	23	21	19	16	14	12	11	10	10	10	10	10	10	10	10	10	10	9	8	8	7	7	7	6	6	6	6	6	7	7	7	8	8	9	10	11	13	15	16	17	17	17	17	17	18	20	22	24	27	31	33	35	36	38	40	42	42	41	40	39	37	36	34	33	31	30	29	29	30	31	31	31	31	29	25	21	19	17	16	14	11	7	3	1	1	1	1	1	1	1	1	1	1	1	1	1	1	1	1	1	1	1	2	2	3	4	3	2	2	1	1	1	1	1	1	1	1	1	1	1	1	1	1	1	1	1	1	0	0	0	0	0	0	0	0	0	1	1	1	1	1	1	1	1	1	1	1	1	1	1	1	1	1	1	1	1	1	1	1	1	2	2	2	2	2	2	1	1	1	1	1	1	2	2	2	3	4	6	8	9	11	13	15	18	21	24	27	30	33	36	38	37	34	30	26	22	18	14	11	8	5	3	2	1	1	1	1	1	1	1	1	1	1	1	1	1	1	1	1	1	1	1	1	1	1	1	1	1	1	1	1	1	1	1	2	3	4	6	9	11	12	14	16	18	20	23	25	28	30	33	35	38	41	44	46	49	52	53	55	56	58	59	59	59	59	58	56	54	52	49	47	45	42	40	37	35	33	33	32	31	28	26	24	21	19	17	15	14	13	11	9	7	5	3	2	2	1	1	1	1	1	1	1	1	1	1	1	1	1	1	1	1	1	1	1	1	1	1	1	1	1	1	1	1	1	1	1	1	1	1	1	1	2	3	6	10	13	16	19	20	21	21	21	19	16	13	8	3	2	1	1	1	1	1	1	2	2	2	4	7	11	14	17	20	23	25	28	32	35	37	39	41	42	41	40	39	36	33	31	28	26	24	23	22	21	20	19	18	16	14
41	41	41	41	41	41	40	40	40	40	39	39	39	39	39	39	38	38	38	37	37	37	36	36	36	35	35	35	34	34	33	33	32	32	32	31	30	29	28	27	26	24	22	21	19	17	15	13	12	11	11	11	11	11	11	11	11	10	10	10	10	10	9	9	9	9	9	9	8	8	8	8	8	8	8	7	7	7	7	7	7	7	7	7	7	7	7	7	6	6	6	6	6	6	6	6	6	6	6	6	5	5	5	5	5	5	5	5	5	5	5	5	5	5	5	5	5	5	5	5	5	5	5	5	5	4	4	4	4	4	4	4	4	4	4	4	4	4	4	4	4	4	4	4	4	4	3	4	4	4	4	4	5	5	5	5	5	5	5	5	5	5	5	5	5	5	5	5	5	5	5	5	5	5	5	5	5	5	5	5	5	5	5	5	5	5	5	5	5	5	5	5	5	5	5	5	5	5	5	5	5	5	5	5	5	5	5	5	5	5	5	5	5	5	5	5	5	4	4	4	4	4	4	4	5	5	5	5	5	5	5	5	5	5	5	5	5	5	5	6	6	6	6	6	6	5	5	4	4	4	3	3	3	3	3	3	3	2	1	0	0	0	0	0	0	0	0	0	0	0	0	0	0	0	0	0	0	0	0	0	0	0	0	0	0	0	0	0	0	0	0	0	0	0	0	0	0	0	0	0	0	0	0	0	0	0	0	0	0	0	0	0	0	0	0	0	0	0	0	0	0	0	0	0	0	0	0	0	0	0	0	0	0	0	0	0	0	0	0	0	0	0	0	0	0	0	0	0	0	0	0	0	0	0	0	0	0	0	0	0	0	0	0	0	0	0	0	0	0	0	0	0	0	0	0	0	0	0	0	0	0	0	0	0	0	0	0	0	0	0	0	0	0	0	0	0	0	0	0	0	0	0	0	0	0	0	0	0	0	0	0	0	0	0	0	0	0	0	0	0	0	0	0	0	0	0	0	0	0	0	0	0	0	0	0	0	0	0	0	0	0	0	0	0	0	0	0	0	0	0	0	0	0	0	0	0	0	0	0	0	0	0	0	0	0	0	0	0	0	0	0	0	0	0	0	0	0	0	0	0	0	0	0	0	0	0	0	0	0	0	0	0	0	0	0	0	0	0	0	0	0	0	0	0	0	0	0	0	0	0	0	0	0	0	0	0	0	0	0	0	0	0	0	0	0	0	0	0	0	0	0	0	0	0	0	0	0	0	0	0	0	0	0	0	0	0	0	0	0	0	0	0	0	0	0	0	0	1	1	1	1	1	1	1	1	1	1	1	1	3	6	10	13	16	20	23	26	29	32	32	31	30	29	27	25	25	26	28	29	32	34	35	36	38	39	40	40	41	42	42	41	40	39	38	37	35	33	31	29	27	24	22	20	17	15	13	12	11	10	9	8	8	8	8	7	7	6	5	4	4	4	4	4	3	3	3	4	4	4	4	4	5	5	6	8	9	11	12	13	14	14	14	15	15	17	18	20	23	27	30	33	35	36	38	40	42	43	43	41	40	39	37	36	34	32	31	31	31	32	33	34	34	33	32	28	22	19	17	16	15	13	9	5	2	1	1	1	1	1	1	1	1	1	1	1	1	1	1	1	1	1	2	3	3	4	3	2	2	1	1	1	1	1	1	1	1	1	1	1	1	1	1	1	1	1	1	0	0	0	0	0	0	0	0	0	0	0	1	1	1	1	1	1	1	1	1	1	1	1	1	1	1	1	1	1	1	1	1	1	2	2	3	3	3	3	2	2	2	1	1	1	1	2	2	3	4	6	8	9	10	11	13	15	17	20	23	26	30	32	35	38	38	35	31	27	22	18	14	11	8	6	3	2	2	1	1	1	1	1	1	1	1	1	1	1	1	1	1	1	1	1	1	1	1	1	1	1	1	1	1	1	1	1	1	2	3	5	6	8	10	12	13	15	18	20	23	25	27	30	32	35	38	41	44	46	49	52	54	55	57	60	62	63	62	61	59	56	54	51	48	46	43	41	39	36	34	33	33	32	30	27	25	23	20	17	15	13	12	11	10	8	6	4	3	2	2	1	1	1	1	1	1	1	1	1	1	1	1	1	1	1	1	1	1	1	1	1	1	1	1	1	1	1	1	1	1	1	1	1	1	1	1	2	2	5	8	11	13	16	18	19	19	19	18	15	12	7	3	2	1	1	1	1	1	1	1	2	2	4	7	10	13	16	19	21	24	27	30	34	36	38	41	43	44	44	42	40	37	34	32	30	28	26	25	23	23	22	22	21	19
42	42	42	42	42	41	41	41	41	40	40	40	40	40	39	39	39	38	38	38	37	37	37	36	36	36	35	35	35	34	34	33	33	32	32	32	31	30	29	28	26	24	22	21	19	17	15	13	12	11	11	11	11	11	11	11	11	11	10	10	10	10	10	9	9	9	9	8	8	8	8	8	8	8	8	7	7	7	7	7	7	7	7	7	7	7	7	7	6	6	6	6	6	6	6	6	6	6	6	6	6	5	5	5	5	5	5	5	5	5	5	5	5	5	5	5	5	5	5	5	5	5	5	5	5	5	4	4	4	4	4	4	4	4	4	4	4	4	4	4	4	4	4	4	4	3	3	4	4	4	4	4	5	5	5	5	5	5	5	5	5	5	5	5	5	5	5	5	5	5	5	5	5	5	5	5	5	5	5	5	5	5	5	5	5	5	5	5	5	5	5	5	5	5	5	5	5	5	5	5	5	5	5	5	5	5	5	5	5	5	5	5	5	5	5	5	4	4	4	4	4	4	4	4	5	5	5	5	5	5	5	5	5	5	5	5	5	5	6	6	6	6	6	6	6	5	5	5	4	4	4	3	3	3	3	3	3	3	1	0	0	0	0	0	0	0	0	0	0	0	0	0	0	0	0	0	0	0	0	0	0	0	0	0	0	0	0	0	0	0	0	0	0	0	0	0	0	0	0	0	0	0	0	0	0	0	0	0	0	0	0	0	0	0	0	0	0	0	0	0	0	0	0	0	0	0	0	0	0	0	0	0	0	0	0	0	0	0	0	0	0	0	0	0	0	0	0	0	0	0	0	0	0	0	0	0	0	0	0	0	0	0	0	0	0	0	0	0	0	0	0	0	0	0	0	0	0	0	0	0	0	0	0	0	0	0	0	0	0	0	0	0	0	0	0	0	0	0	0	0	0	0	0	0	0	0	0	0	0	0	0	0	0	0	0	0	0	0	0	0	0	0	0	0	0	0	0	0	0	0	0	0	0	0	0	0	0	0	0	0	0	0	0	0	0	0	0	0	0	0	0	0	0	0	0	0	0	0	0	0	0	0	0	0	0	0	0	0	0	0	0	0	0	0	0	0	0	0	0	0	0	0	0	0	0	0	0	0	0	0	0	0	0	0	0	0	0	0	0	0	0	0	0	0	0	0	0	0	0	0	0	0	0	0	0	0	0	0	0	0	0	0	0	0	0	0	0	0	0	0	0	0	0	0	0	0	0	0	0	0	0	0	0	0	0	0	0	0	0	0	0	0	0	0	0	0	0	1	1	1	1	1	1	1	1	1	1	1	2	3	6	10	13	17	20	22	25	29	31	31	30	29	28	26	26	27	28	30	31	34	36	37	39	40	41	42	43	44	44	45	44	43	42	41	39	37	34	32	30	28	26	24	21	19	16	14	13	12	11	9	8	7	6	5	5	4	3	2	2	2	2	2	2	2	2	2	2	2	2	2	3	3	3	4	5	7	8	10	11	12	12	12	13	13	15	17	19	22	26	29	32	34	36	38	40	42	44	44	43	42	41	39	38	36	35	34	33	34	34	35	36	36	35	34	31	25	20	17	16	16	14	10	6	2	1	1	1	1	1	1	1	1	1	1	1	1	1	1	1	1	2	3	4	4	3	2	1	1	1	1	1	1	1	1	1	1	1	1	1	1	1	1	1	1	1	1	0	0	0	0	0	0	0	0	0	0	0	0	1	1	1	1	1	1	1	1	1	1	1	1	1	1	1	1	1	1	1	1	1	2	2	3	4	5	5	4	3	2	2	2	2	2	2	3	5	7	9	10	11	11	12	13	14	17	20	23	26	29	32	35	38	38	35	32	28	23	19	15	12	10	7	4	3	2	1	1	1	1	1	1	1	1	1	1	1	1	1	1	1	1	1	1	1	1	1	1	1	1	1	1	1	1	1	1	2	3	4	6	7	9	11	13	15	17	20	22	25	27	30	32	35	37	40	43	45	48	51	53	55	57	60	62	64	63	61	58	55	53	50	47	45	42	40	38	35	33	33	33	32	29	27	24	22	19	17	14	13	11	10	8	7	5	4	3	2	2	1	1	1	1	1	1	1	1	1	1	1	1	1	1	1	1	1	1	1	1	1	1	1	1	1	1	1	1	1	1	1	1	1	1	1	1	2	2	3	4	5	7	9	12	14	15	16	15	14	11	6	2	2	1	1	1	1	1	1	1	2	2	3	6	9	13	16	18	20	23	25	29	33	36	38	40	43	45	46	45	43	41	38	36	35	33	31	29	27	26	26	26	25	23
43	43	43	43	42	42	42	42	41	41	41	41	40	40	40	39	39	39	38	38	38	37	37	37	37	36	36	35	35	35	34	34	33	33	32	32	31	30	30	29	27	25	23	21	19	17	15	13	12	12	12	11	11	11	11	11	11	11	11	10	10	10	10	10	9	9	9	8	8	8	8	8	8	8	8	8	7	7	7	7	7	7	7	7	7	7	7	7	7	7	6	6	6	6	6	6	6	6	6	6	6	6	5	5	5	5	5	5	5	5	5	5	5	5	5	5	5	5	5	5	5	5	5	5	5	5	4	4	4	4	4	4	4	4	4	4	4	4	4	4	4	4	4	4	4	4	4	4	4	4	4	5	5	5	5	5	5	5	5	5	5	5	5	5	5	5	5	5	5	6	6	5	5	5	5	5	5	5	5	5	5	5	5	5	5	5	5	5	5	5	5	5	5	5	5	5	5	5	5	5	5	5	5	5	5	5	5	5	5	5	5	5	5	5	5	5	4	4	4	4	4	4	4	5	5	5	5	5	5	5	5	5	5	5	5	5	5	5	6	6	6	6	6	6	6	5	5	5	4	4	4	4	4	3	3	3	3	3	2	0	0	0	0	0	0	0	0	0	0	0	0	0	0	0	0	0	0	0	0	0	0	0	0	0	0	0	0	0	0	0	0	0	0	0	0	0	0	0	0	0	0	0	0	0	0	0	0	0	0	0	0	0	0	0	0	0	0	0	0	0	0	0	0	0	0	0	0	0	0	0	0	0	0	0	0	0	0	0	0	0	0	0	0	0	0	0	0	0	0	0	0	0	0	0	0	0	0	0	0	0	0	0	0	0	0	0	0	0	0	0	0	0	0	0	0	0	0	0	0	0	0	0	0	0	0	0	0	0	0	0	0	0	0	0	0	0	0	0	0	0	0	0	0	0	0	0	0	0	0	0	0	0	0	0	0	0	0	0	0	0	0	0	0	0	0	0	0	0	0	0	0	0	0	0	0	0	0	0	0	0	0	0	0	0	0	0	0	0	0	0	0	0	0	0	0	0	0	0	0	0	0	0	0	0	0	0	0	0	0	0	0	0	0	0	0	0	0	0	0	0	0	0	0	0	0	0	0	0	0	0	0	0	0	0	0	0	0	0	0	0	0	0	0	0	0	0	0	0	0	0	0	0	0	0	0	0	0	0	0	0	0	0	0	0	0	0	0	0	0	0	0	0	0	0	0	0	0	0	0	0	0	0	0	0	0	0	0	0	0	0	0	0	0	0	0	0	0	1	1	1	1	1	1	1	1	1	1	1	1	3	6	9	13	17	20	23	26	28	30	30	29	28	27	26	27	28	29	31	33	35	37	39	41	42	44	45	46	47	47	48	47	46	45	44	41	39	36	34	32	30	27	25	23	20	18	15	14	12	11	10	9	8	6	5	3	3	2	2	2	2	2	2	2	2	2	2	2	2	2	2	2	2	2	2	3	5	6	8	9	10	10	10	11	12	13	15	18	21	24	27	30	33	35	37	39	41	44	46	45	44	43	41	40	39	37	37	36	36	37	37	38	38	37	35	33	28	22	18	17	16	14	9	5	3	1	1	1	1	1	1	1	1	1	1	1	1	1	1	1	2	3	4	4	3	2	1	1	1	1	1	1	1	1	1	1	1	1	1	1	1	1	1	1	1	0	0	0	0	0	0	0	0	0	0	0	0	0	0	0	1	1	1	1	1	1	1	1	1	1	1	1	1	1	1	1	1	1	1	1	2	2	3	5	6	7	6	5	4	3	3	3	4	5	6	8	10	12	13	13	13	13	13	15	17	20	24	27	30	33	35	38	38	35	32	29	25	21	17	13	11	8	6	4	2	1	1	1	1	1	1	1	1	1	1	1	1	1	1	1	1	1	1	1	1	1	1	1	1	1	1	1	1	1	1	1	2	3	4	6	7	10	12	14	17	19	22	24	27	30	32	35	37	39	42	44	47	50	53	55	57	60	62	65	64	61	58	55	52	49	47	44	42	40	38	35	34	33	33	31	28	26	23	21	19	16	14	12	11	10	8	7	6	4	3	3	2	1	1	1	1	1	1	1	1	1	1	1	1	1	1	1	1	1	1	1	1	1	1	1	1	1	1	1	1	1	1	1	1	1	1	1	1	2	2	2	2	2	2	2	4	7	10	11	12	11	8	4	2	2	1	1	1	1	1	1	1	2	2	3	5	9	12	15	17	19	22	24	27	31	35	38	40	43	45	47	47	46	44	43	41	40	38	36	33	31	30	30	30	28	25
44	44	44	43	43	43	43	42	42	42	42	41	41	41	40	40	40	39	39	39	38	38	38	37	37	37	36	36	35	35	34	34	33	33	32	32	32	31	30	29	28	25	23	21	19	17	15	13	12	12	12	12	11	11	11	11	11	11	11	11	10	10	10	10	9	9	9	9	8	8	8	8	8	8	8	8	7	7	7	7	7	7	7	7	7	7	7	7	7	7	6	6	6	6	6	6	6	6	6	6	6	6	5	5	6	6	6	5	5	5	5	5	5	5	5	5	5	5	5	5	5	5	5	5	5	5	5	4	4	4	4	4	4	4	4	4	4	4	4	4	4	4	4	4	4	4	4	4	4	4	5	5	5	5	5	5	5	5	5	5	5	5	5	5	5	5	5	5	5	6	6	5	5	5	5	5	5	5	5	5	5	5	5	5	5	5	5	5	5	5	5	5	5	5	5	5	5	5	5	5	5	5	5	5	5	5	5	5	5	5	5	5	5	5	5	4	4	4	4	4	4	4	4	5	5	5	5	5	5	5	5	5	5	5	5	5	5	5	6	6	6	6	6	6	6	5	5	5	4	4	4	4	4	4	3	3	3	3	2	1	0	0	0	0	0	0	0	0	0	0	0	0	0	0	0	0	0	0	0	0	0	0	0	0	0	0	0	0	0	0	0	0	0	0	0	0	0	0	0	0	0	0	0	0	0	0	0	0	0	0	0	0	0	0	0	0	0	0	0	0	0	0	0	0	0	0	0	0	0	0	0	0	0	0	0	0	0	0	0	0	0	0	0	0	0	0	0	0	0	0	0	0	0	0	0	0	0	0	0	0	0	0	0	0	0	0	0	0	0	0	0	0	0	0	0	0	0	0	0	0	0	0	0	0	0	0	0	0	0	0	0	0	0	0	0	0	0	0	0	0	0	0	0	0	0	0	0	0	0	0	0	0	0	0	0	0	0	0	0	0	0	0	0	0	0	0	0	0	0	0	0	0	0	0	0	0	0	0	0	0	0	0	0	0	0	0	0	0	0	0	0	0	0	0	0	0	0	0	0	0	0	0	0	0	0	0	0	0	0	0	0	0	0	0	0	0	0	0	0	0	0	0	0	0	0	0	0	0	0	0	0	0	0	0	0	0	0	0	0	0	0	0	0	0	0	0	0	0	0	0	0	0	0	0	0	0	0	0	0	0	0	0	0	0	0	0	0	0	0	0	0	0	0	0	0	0	0	0	0	0	0	0	0	0	0	0	0	0	0	0	0	0	0	0	0	0	0	1	1	1	1	1	1	1	1	1	1	1	1	2	5	9	13	17	21	25	27	29	30	29	28	27	27	27	28	29	31	33	35	36	38	40	42	44	46	47	48	49	50	51	50	49	48	46	43	41	38	36	34	31	29	26	24	22	19	17	15	13	12	11	10	9	8	6	4	3	2	2	2	1	1	1	1	1	1	1	2	2	2	2	2	2	2	2	2	3	4	6	7	8	9	9	10	11	12	14	17	20	23	26	29	32	34	36	38	41	43	46	47	46	45	44	43	42	40	40	39	39	39	40	40	40	38	36	35	31	25	20	17	16	13	9	5	3	2	1	1	1	1	1	1	1	1	1	1	1	1	2	2	3	4	3	2	2	1	1	1	1	1	1	1	1	1	1	1	1	1	1	1	1	1	1	1	1	0	0	0	0	0	0	0	0	0	0	0	0	0	0	0	0	1	1	1	1	1	1	1	1	1	1	1	1	1	1	1	1	1	1	1	1	2	3	5	6	8	9	8	7	7	7	7	8	8	9	11	13	15	15	16	15	15	15	16	18	21	24	27	30	33	35	37	37	36	33	30	26	22	18	15	12	9	7	5	4	2	2	2	1	1	1	1	1	1	1	1	1	1	1	1	1	1	1	1	1	1	1	1	1	1	1	1	1	1	1	1	1	2	3	4	6	8	11	13	16	19	21	24	27	29	32	34	37	39	42	44	47	49	52	54	57	60	62	65	65	62	59	56	53	50	47	45	43	41	38	36	34	33	32	30	28	25	23	21	19	16	14	13	12	11	9	8	7	5	4	3	2	1	1	1	1	1	1	1	1	1	1	1	1	1	1	1	1	1	1	1	1	1	1	1	1	1	1	1	1	1	1	1	1	1	1	1	1	1	2	2	2	1	2	2	2	3	4	5	6	6	4	2	2	1	1	1	1	1	1	1	1	1	2	2	4	7	11	14	16	19	21	23	26	30	34	36	39	42	44	47	48	48	47	46	45	44	43	41	38	36	34	33	32	29	26
45	45	44	44	44	44	44	43	43	43	42	42	42	41	41	40	40	40	39	39	39	38	38	38	37	37	37	36	35	35	34	34	34	33	33	32	32	31	31	29	27	25	23	21	19	17	15	13	12	12	12	12	12	11	11	11	11	11	11	11	11	10	10	10	10	9	9	9	9	8	8	8	8	8	8	8	8	7	7	7	7	7	7	7	7	7	7	7	7	7	7	6	6	6	6	6	6	6	6	6	6	6	6	5	6	6	6	6	6	6	5	5	5	5	5	5	5	5	5	5	5	5	5	5	5	5	5	5	5	5	5	4	4	4	4	4	4	4	4	4	4	4	4	4	4	4	4	4	4	5	5	5	5	5	5	5	5	5	5	5	5	5	5	5	5	5	5	5	5	5	5	5	5	5	5	5	5	5	5	5	5	5	5	5	5	5	5	5	5	5	5	5	5	5	5	5	5	5	5	5	5	5	5	5	5	5	5	5	5	5	5	5	5	5	4	4	4	5	5	5	4	4	5	5	5	5	5	5	5	5	5	5	5	5	5	5	5	5	6	6	6	6	6	6	5	5	5	5	5	4	4	4	4	4	4	3	3	3	2	1	0	0	0	0	0	0	0	0	0	0	0	0	0	0	0	0	0	0	0	0	0	0	0	0	0	0	0	0	0	0	0	0	0	0	0	0	0	0	0	0	0	0	0	0	0	0	0	0	0	0	0	0	0	0	0	0	0	0	0	0	0	0	0	0	0	0	0	0	0	0	0	0	0	0	0	0	0	0	0	0	0	0	0	0	0	0	0	0	0	0	0	0	0	0	0	0	0	0	0	0	0	0	0	0	0	0	0	0	0	0	0	0	0	0	0	0	0	0	0	0	0	0	0	0	0	0	0	0	0	0	0	0	0	0	0	0	0	0	0	0	0	0	0	0	0	0	0	0	0	0	0	0	0	0	0	0	0	0	0	0	0	0	0	0	0	0	0	0	0	0	0	0	0	0	0	0	0	0	0	0	0	0	0	0	0	0	0	0	0	0	0	0	0	0	0	0	0	0	0	0	0	0	0	0	0	0	0	0	0	0	0	0	0	0	0	0	0	0	0	0	0	0	0	0	0	0	0	0	0	0	0	0	0	0	0	0	0	0	0	0	0	0	0	0	0	0	0	0	0	0	0	0	0	0	0	0	0	0	0	0	0	0	0	0	0	0	0	0	0	0	0	0	0	0	0	0	0	0	0	0	0	0	0	0	0	0	0	0	0	0	0	0	0	0	0	0	0	1	1	1	1	1	1	1	1	1	1	1	1	2	5	9	13	17	21	25	27	29	29	29	28	27	27	28	29	31	32	34	36	37	39	41	43	45	47	49	51	52	53	53	53	52	50	48	45	43	40	38	35	33	30	28	26	23	21	18	16	15	13	12	11	10	9	7	4	3	2	2	2	1	1	1	1	1	1	1	1	1	1	1	1	1	2	2	2	2	3	4	6	6	7	8	9	10	11	13	15	18	22	25	28	31	33	36	38	40	42	45	47	49	48	47	46	45	43	43	42	42	42	43	43	42	40	38	36	33	28	24	20	16	13	9	6	4	3	2	1	1	1	1	1	1	1	1	1	1	2	2	3	4	3	2	1	1	1	1	1	1	1	1	1	1	1	1	1	1	1	1	1	1	1	1	1	0	0	0	0	0	0	0	0	0	0	0	0	0	0	0	0	0	0	1	1	1	1	1	1	1	1	1	1	1	1	1	1	1	1	1	1	1	2	3	4	6	8	10	11	11	11	12	12	12	12	13	14	16	17	18	18	18	18	18	19	20	22	25	28	31	33	34	36	36	35	33	31	28	24	20	16	13	11	10	8	6	5	4	3	3	2	2	2	1	1	1	1	1	1	1	1	1	1	1	1	1	1	1	1	1	1	1	1	1	1	1	1	1	2	2	3	4	6	9	12	15	18	21	23	26	29	32	34	37	39	42	45	47	50	52	55	57	60	63	66	66	64	60	57	54	51	49	47	44	42	39	37	35	33	32	29	27	25	23	21	19	17	15	14	13	12	11	9	8	7	5	3	2	1	1	1	1	1	1	1	1	1	1	1	1	1	1	1	1	1	1	1	1	1	1	1	1	1	1	1	1	1	1	1	1	1	1	1	1	1	1	1	1	1	1	2	2	2	2	2	2	2	2	2	2	1	1	1	1	1	1	1	1	1	2	2	3	6	9	13	15	18	20	23	26	29	32	35	38	40	43	45	46	47	48	48	48	47	46	44	42	40	37	35	34	31	29
46	46	45	45	45	45	44	44	43	43	43	42	42	42	41	41	41	40	40	39	39	39	39	38	38	38	37	37	36	35	34	34	33	33	33	32	32	31	31	29	27	25	23	21	18	16	14	13	12	12	12	12	12	12	11	11	11	11	11	11	11	11	10	10	10	10	9	9	9	8	8	8	8	8	8	8	8	8	7	7	7	7	7	7	7	7	7	7	7	7	7	6	6	6	7	6	6	6	6	6	6	6	6	6	6	6	6	6	6	6	6	5	5	5	5	5	5	5	5	5	5	5	5	5	5	5	5	5	5	5	5	4	4	4	4	4	4	4	4	4	4	4	4	4	4	4	4	4	4	4	5	5	5	5	5	5	5	5	5	5	5	5	5	5	5	5	5	5	5	5	5	5	5	5	5	5	5	5	5	5	5	6	6	6	5	5	5	5	5	5	5	5	5	5	5	5	5	5	5	5	5	5	5	5	5	5	5	5	5	5	5	5	5	5	4	4	5	5	5	5	5	5	5	5	5	5	5	5	5	5	5	5	5	5	5	5	5	6	6	6	6	6	6	6	5	5	5	5	5	4	4	4	4	4	4	3	3	3	3	1	0	0	0	0	0	0	0	0	0	0	0	0	0	0	0	0	0	0	0	0	0	0	0	0	0	0	0	0	0	0	0	0	0	0	0	0	0	0	0	0	0	0	0	0	0	0	0	0	0	0	0	0	0	0	0	0	0	0	0	0	0	0	0	0	0	0	0	0	0	0	0	0	0	0	0	0	0	0	0	0	0	0	0	0	0	0	0	0	0	0	0	0	0	0	0	0	0	0	0	0	0	0	0	0	0	0	0	0	0	0	0	0	0	0	0	0	0	0	0	0	0	0	0	0	0	0	0	0	0	0	0	0	0	0	0	0	0	0	0	0	0	0	0	0	0	0	0	0	0	0	0	0	0	0	0	0	0	0	0	0	0	0	0	0	0	0	0	0	0	0	0	0	0	0	0	0	0	0	0	0	0	0	0	0	0	0	0	0	0	0	0	0	0	0	0	0	0	0	0	0	0	0	0	0	0	0	0	0	0	0	0	0	0	0	0	0	0	0	0	0	0	0	0	0	0	0	0	0	0	0	0	0	0	0	0	0	0	0	0	0	0	0	0	0	0	0	0	0	0	0	0	0	0	0	0	0	0	0	0	0	0	0	0	0	0	0	0	0	0	0	0	0	0	0	0	0	0	0	0	0	0	0	0	0	0	0	0	0	0	0	0	0	0	0	0	0	0	1	1	1	1	1	1	1	1	1	1	1	1	2	4	8	12	16	20	23	25	28	29	28	27	27	28	29	30	32	33	35	36	38	40	41	43	46	49	51	53	54	55	55	55	54	52	50	47	44	42	39	37	34	32	29	27	24	22	20	18	16	15	13	12	11	10	8	6	5	3	2	2	1	1	1	1	1	1	1	1	1	1	1	1	1	1	2	2	2	2	3	4	5	6	7	8	10	11	12	14	17	20	23	26	29	32	34	36	39	41	44	47	50	50	50	49	48	46	46	46	46	46	46	45	44	42	40	38	34	30	26	21	17	13	9	6	4	3	2	1	1	1	1	1	1	1	1	1	2	3	3	4	3	2	1	1	1	1	1	1	1	1	1	1	1	1	1	1	1	1	1	1	1	1	1	0	0	0	0	0	0	0	0	0	0	0	0	0	0	0	0	0	0	0	0	1	1	1	1	1	1	1	1	1	1	1	1	1	1	1	1	1	1	1	2	3	5	7	10	12	13	14	15	16	15	16	16	17	19	20	20	21	21	21	21	22	22	23	25	28	31	32	33	33	34	33	32	31	29	26	23	19	16	14	12	11	10	9	8	7	6	5	4	3	2	2	1	1	1	1	1	1	1	1	1	1	1	1	1	1	1	1	1	1	1	1	1	1	1	1	2	2	3	5	8	11	14	17	20	23	26	29	32	34	37	40	43	46	48	51	53	56	58	61	63	66	67	65	62	59	55	52	50	48	45	43	40	38	36	34	32	30	28	27	25	23	21	19	17	16	14	13	12	11	9	8	6	4	2	2	2	2	2	1	1	1	1	1	1	1	1	1	1	1	1	1	1	1	1	1	1	1	1	1	1	1	1	1	1	1	1	1	1	1	1	1	1	1	1	1	1	1	1	1	2	2	2	2	2	2	2	1	1	1	1	1	1	1	1	1	1	2	3	4	8	12	14	17	20	23	26	29	31	34	36	38	40	42	43	45	47	48	49	49	48	47	45	43	41	38	36	34	33
46	46	46	46	45	45	45	44	44	44	43	43	42	42	42	41	41	41	40	40	40	39	39	39	38	38	38	37	36	35	34	33	33	33	33	32	32	31	31	29	27	25	23	21	18	16	14	13	12	12	12	12	12	12	12	11	11	11	11	11	11	11	11	10	10	10	9	9	9	9	8	8	8	8	8	8	8	8	8	7	7	7	7	7	7	7	7	7	7	7	7	6	6	6	7	7	7	6	6	6	6	6	6	6	6	6	6	6	6	6	6	6	5	5	5	5	5	5	5	5	5	5	5	5	5	5	4	4	4	4	4	4	4	4	4	4	4	4	4	4	4	4	4	4	4	4	4	4	4	4	4	4	5	5	5	5	5	5	5	5	5	5	5	5	5	5	5	5	5	5	5	5	5	5	5	5	5	5	5	6	6	6	6	6	6	5	5	5	5	5	5	5	5	5	5	5	5	5	5	5	5	5	5	5	5	5	5	5	5	5	5	5	5	5	5	5	5	5	5	5	5	5	5	5	5	5	5	5	5	5	5	5	5	5	5	5	5	6	6	6	6	6	6	6	5	5	5	5	5	5	4	4	4	4	4	4	3	3	3	2	1	0	0	0	0	0	0	0	0	0	0	0	0	0	0	0	0	0	0	0	0	0	0	0	0	0	0	0	0	0	0	0	0	0	0	0	0	0	0	0	0	0	0	0	0	0	0	0	0	0	0	0	0	0	0	0	0	0	0	0	0	0	0	0	0	0	0	0	0	0	0	0	0	0	0	0	0	0	0	0	0	0	0	0	0	0	0	0	0	0	0	0	0	0	0	0	0	0	0	0	0	0	0	0	0	0	0	0	0	0	0	0	0	0	0	0	0	0	0	0	0	0	0	0	0	0	0	0	0	0	0	0	0	0	0	0	0	0	0	0	0	0	0	0	0	0	0	0	0	0	0	0	0	0	0	0	0	0	0	0	0	0	0	0	0	0	0	0	0	0	0	0	0	0	0	0	0	0	0	0	0	0	0	0	0	0	0	0	0	0	0	0	0	0	0	0	0	0	0	0	0	0	0	0	0	0	0	0	0	0	0	0	0	0	0	0	0	0	0	0	0	0	0	0	0	0	0	0	0	0	0	0	0	0	0	0	0	0	0	0	0	0	0	0	0	0	0	0	0	0	0	0	0	0	0	0	0	0	0	0	0	0	0	0	0	0	0	0	0	0	0	0	0	0	0	0	0	0	0	0	0	0	0	0	0	0	0	0	0	0	0	0	0	0	0	0	0	1	1	1	1	1	1	1	1	1	1	1	1	2	4	7	11	15	18	21	23	26	28	28	28	28	29	30	31	32	34	35	37	39	41	42	44	47	50	52	54	56	57	57	56	55	54	51	48	46	43	40	38	35	33	30	28	26	23	21	19	18	16	14	13	12	11	10	8	7	5	4	2	1	1	1	1	1	1	1	1	1	1	1	1	1	1	1	2	2	2	2	3	4	5	6	8	9	10	12	13	16	19	22	25	28	30	33	35	37	40	43	47	50	52	52	52	51	50	49	49	48	48	48	48	46	45	43	40	35	31	26	22	17	13	10	6	5	4	2	1	1	2	2	2	2	2	2	2	3	4	3	3	2	1	1	1	1	1	1	1	1	1	1	1	1	1	1	1	1	1	1	1	1	1	0	0	0	0	0	0	0	0	0	0	0	0	0	0	0	0	0	0	0	0	0	0	1	1	1	1	1	1	1	1	1	1	1	1	1	1	1	1	1	1	2	3	5	7	10	12	14	16	18	18	19	19	19	20	22	23	23	23	24	24	24	25	25	25	26	29	30	31	31	31	31	31	31	31	29	28	25	22	19	18	16	15	15	14	14	12	11	9	7	6	4	3	2	2	1	1	1	1	1	1	1	1	1	1	1	1	1	1	1	1	1	1	1	1	1	1	1	2	2	3	6	10	13	16	19	22	25	28	32	35	38	40	43	46	49	52	54	57	59	62	64	67	69	66	63	60	57	54	51	49	46	44	42	40	38	36	33	31	30	28	26	24	23	21	19	18	16	14	13	12	10	9	7	5	3	2	2	2	2	2	2	2	2	1	1	1	1	1	1	1	1	1	2	1	1	1	1	1	1	1	1	1	1	1	1	1	1	1	1	1	1	1	1	1	1	1	1	1	1	1	1	1	2	2	1	1	1	1	1	1	1	1	1	1	1	1	1	2	2	4	6	10	13	16	19	22	26	28	30	32	34	35	37	38	40	42	44	46	47	49	49	49	48	46	44	42	40	39	39
47	47	47	46	46	46	45	45	44	44	44	43	43	43	42	42	41	41	41	41	40	40	40	39	39	38	38	37	36	35	34	33	33	33	32	32	32	31	30	29	26	24	22	20	18	16	14	13	13	13	12	12	12	12	12	12	12	11	11	11	11	11	11	10	10	10	10	9	9	9	8	8	8	8	8	8	8	8	8	8	7	7	7	7	7	7	7	7	7	7	7	6	6	6	7	7	7	7	6	6	6	6	6	6	6	6	6	6	6	6	6	6	6	5	5	5	5	5	5	5	5	5	5	5	5	5	4	4	4	4	4	4	4	4	4	4	4	4	5	5	5	5	5	4	4	4	4	4	4	4	4	4	4	4	5	5	5	5	5	5	5	5	5	5	5	5	5	5	5	5	5	5	5	5	5	5	5	5	6	6	6	6	6	6	6	5	5	5	5	5	5	5	5	5	5	5	5	5	5	5	5	5	5	5	5	5	5	5	5	5	5	5	5	5	5	5	5	5	5	5	5	5	5	5	5	5	5	5	5	5	5	5	5	5	5	5	5	6	6	6	6	6	6	6	5	5	5	5	5	5	4	4	4	4	4	4	3	3	3	3	2	1	0	0	0	0	0	0	0	0	0	0	0	0	0	0	0	0	0	0	0	0	0	0	0	0	0	0	0	0	0	0	0	0	0	0	0	0	0	0	0	0	0	0	0	0	0	0	0	0	0	0	0	0	0	0	0	0	0	0	0	0	0	0	0	0	0	0	0	0	0	0	0	0	0	0	0	0	0	0	0	0	0	0	0	0	0	0	0	0	0	0	0	0	0	0	0	0	0	0	0	0	0	0	0	0	0	0	0	0	0	0	0	0	0	0	0	0	0	0	0	0	0	0	0	0	0	0	0	0	0	0	0	0	0	0	0	0	0	0	0	0	0	0	0	0	0	0	0	0	0	0	0	0	0	0	0	0	0	0	0	0	0	0	0	0	0	0	0	0	0	0	0	0	0	0	0	0	0	0	0	0	0	0	0	0	0	0	0	0	0	0	0	0	0	0	0	0	0	0	0	0	0	0	0	0	0	0	0	0	0	0	0	0	0	0	0	0	0	0	0	0	0	0	0	0	0	0	0	0	0	0	0	0	0	0	0	0	0	0	0	0	0	0	0	0	0	0	0	0	0	0	0	0	0	0	0	0	0	0	0	0	0	0	0	0	0	0	0	0	0	0	0	0	0	0	0	0	0	0	0	0	0	0	0	0	0	0	0	0	0	0	0	0	0	0	0	1	1	1	1	1	1	1	1	1	1	1	1	1	3	6	10	14	16	19	21	24	27	28	28	28	29	30	31	33	34	36	38	40	41	43	45	48	50	53	55	57	59	59	58	56	54	52	49	47	44	42	39	36	34	31	29	27	24	22	20	19	17	16	14	13	12	12	10	9	8	6	3	2	1	1	1	1	1	1	1	1	1	1	1	1	1	1	1	2	2	2	3	3	5	6	7	8	10	11	13	16	18	21	24	27	29	32	34	37	40	43	46	49	52	53	53	53	52	52	51	51	51	51	49	48	47	44	40	35	31	26	22	18	16	13	9	7	5	4	2	2	3	3	3	3	3	3	3	3	3	3	2	1	1	1	1	1	1	1	1	1	1	1	1	1	1	1	1	1	1	1	1	1	0	0	0	0	0	0	0	0	0	0	0	0	0	0	0	0	0	0	0	0	0	0	0	0	1	1	1	1	1	1	1	1	1	1	1	1	1	1	1	1	1	2	3	4	7	9	12	14	17	19	21	22	22	23	24	25	26	27	27	27	26	27	27	27	27	28	29	29	29	29	28	29	29	30	31	30	30	28	26	24	22	21	20	19	18	18	16	15	13	11	9	7	5	3	2	2	2	1	1	1	1	1	1	1	1	1	1	1	1	1	1	1	1	1	1	1	1	1	2	2	3	5	9	12	15	19	22	25	28	32	35	38	41	44	47	50	53	55	58	60	63	65	68	69	68	64	61	58	55	52	50	47	45	43	41	40	38	35	33	31	30	28	26	24	23	21	19	18	16	15	13	12	10	8	6	4	3	3	3	3	4	4	3	3	3	2	2	2	2	2	2	2	2	2	2	2	1	1	1	1	1	1	1	1	1	1	1	1	1	1	1	1	1	1	1	1	1	1	1	1	1	1	1	1	1	1	1	1	1	1	1	1	1	1	1	1	1	1	1	2	3	5	8	11	14	18	21	24	27	28	30	31	32	34	35	37	39	41	43	45	46	48	49	49	48	47	46	44	44	43
48	48	47	47	47	46	46	45	45	45	44	44	43	43	43	42	42	42	41	41	41	40	40	40	39	39	38	37	36	35	34	33	33	33	32	32	32	31	30	28	26	24	21	19	18	15	14	13	13	13	12	12	12	12	12	12	12	12	11	11	11	11	11	11	10	10	10	9	9	9	9	8	8	8	8	8	8	8	8	8	8	7	7	7	7	7	7	7	7	7	7	7	6	7	7	7	7	7	7	6	6	6	6	6	6	6	6	6	6	6	6	6	6	6	5	5	5	5	5	5	5	5	5	5	5	5	5	4	4	4	5	4	4	5	4	4	5	5	5	5	5	5	5	4	4	4	4	4	4	4	4	4	4	4	5	5	5	5	5	5	5	5	5	5	5	5	5	5	5	5	5	5	5	5	5	5	5	5	6	6	6	6	6	6	6	6	5	5	5	5	5	5	5	5	5	5	5	5	5	5	5	5	5	5	5	5	5	5	5	5	5	5	5	5	5	5	5	5	5	5	5	5	5	5	5	5	5	5	5	5	5	5	5	5	5	5	6	6	6	6	6	6	6	5	5	5	5	5	5	5	5	4	4	4	4	4	4	3	3	3	3	2	1	0	0	0	0	0	0	0	0	0	0	0	0	0	0	0	0	0	0	0	0	0	0	0	0	0	0	0	0	0	0	0	0	0	0	0	0	0	0	0	0	0	0	0	0	0	0	0	0	0	0	0	0	0	0	0	0	0	0	0	0	0	0	0	0	0	0	0	0	0	0	0	0	0	0	0	0	0	0	0	0	0	0	0	0	0	0	0	0	0	0	0	0	0	0	0	0	0	0	0	0	0	0	0	0	0	0	0	0	0	0	0	0	0	0	0	0	0	0	0	0	0	0	0	0	0	0	0	0	0	0	0	0	0	0	0	0	0	0	0	0	0	0	0	0	0	0	0	0	0	0	0	0	0	0	0	0	0	0	0	0	0	0	0	0	0	0	0	0	0	0	0	0	0	0	0	0	0	0	0	0	0	0	0	0	0	0	0	0	0	0	0	0	0	0	0	0	0	0	0	0	0	0	0	0	0	0	0	0	0	0	0	0	0	0	0	0	0	0	0	0	0	0	0	0	0	0	0	0	0	0	0	0	0	0	0	0	0	0	0	0	0	0	0	0	0	0	0	0	0	0	0	0	0	0	0	0	0	0	0	0	0	0	0	0	0	0	0	0	0	0	0	0	0	0	0	0	0	0	0	0	0	0	0	0	0	0	0	0	0	0	0	0	0	0	1	1	1	1	1	1	1	1	1	1	1	1	1	2	5	9	12	15	17	20	22	25	26	28	29	29	30	31	32	34	36	38	40	41	43	45	48	50	53	55	57	60	60	59	57	55	53	50	48	45	43	40	37	35	32	30	28	25	23	22	20	19	17	15	14	13	13	13	12	11	8	5	3	2	1	1	1	1	1	1	1	1	1	1	1	1	1	1	1	2	2	2	3	4	5	7	8	10	12	14	16	19	22	24	27	30	32	33	36	39	42	46	49	52	54	54	55	55	54	54	54	53	53	51	50	49	45	40	35	30	26	23	21	19	16	13	11	10	10	7	2	3	4	4	4	4	3	3	3	2	2	1	1	1	1	1	1	1	1	1	1	1	1	1	1	1	1	1	1	1	1	1	0	0	0	0	0	0	0	0	0	0	0	0	0	0	0	0	0	0	0	0	0	0	0	0	0	0	1	1	1	1	1	1	1	1	1	1	1	1	1	1	1	1	2	2	4	7	9	12	14	16	19	22	24	25	26	27	28	29	30	30	30	29	29	29	30	29	29	28	28	27	27	26	27	28	30	31	32	31	31	29	28	27	25	24	23	22	21	19	17	15	13	11	9	7	5	4	3	2	2	1	1	1	1	1	1	1	1	1	1	1	1	1	1	1	1	1	1	1	1	1	2	3	5	9	12	15	18	22	25	28	32	35	38	41	44	47	50	53	56	58	61	63	66	68	71	69	65	62	59	56	53	51	49	47	45	43	42	40	37	35	33	31	30	28	26	24	23	21	19	18	16	15	13	11	9	7	5	4	4	5	5	6	6	6	5	5	4	4	3	3	3	2	2	2	2	2	2	2	1	1	1	1	1	1	1	1	1	1	1	1	1	1	1	1	1	1	1	1	1	1	1	1	1	1	1	1	1	1	1	1	1	1	1	1	1	1	1	1	1	1	2	2	4	6	9	12	15	19	22	25	26	27	28	30	31	32	34	35	37	39	41	44	45	47	48	49	49	49	48	47	46
48	48	48	48	47	47	46	46	45	45	45	44	44	43	43	43	42	42	42	41	41	41	40	40	40	39	38	37	36	35	34	33	32	32	32	32	32	31	30	28	25	23	21	19	17	15	13	13	13	13	13	13	12	12	12	12	12	12	12	12	11	11	11	11	10	10	10	10	9	9	9	9	8	8	8	8	8	8	8	8	8	7	7	7	7	7	7	7	7	7	7	7	7	7	7	7	7	7	7	7	7	6	6	6	6	6	6	6	6	6	6	6	6	6	6	5	5	5	5	5	5	5	5	5	5	5	5	5	5	5	5	5	5	5	5	5	5	5	5	5	5	5	4	4	4	4	4	4	4	4	4	4	4	4	5	5	5	5	5	5	5	5	5	5	5	5	5	5	5	5	5	5	5	5	5	5	5	5	6	6	6	6	6	6	6	6	5	5	5	5	5	5	5	5	5	5	5	5	5	5	5	5	5	5	5	5	5	5	5	5	5	5	5	5	5	5	5	5	5	5	5	5	5	5	5	5	5	5	5	5	5	5	5	5	5	6	6	6	6	6	6	6	5	5	5	5	5	5	5	5	5	4	4	4	4	4	4	3	3	3	3	3	2	1	0	0	0	0	0	0	0	0	0	0	0	0	0	0	0	0	0	0	0	0	0	0	0	0	0	0	0	0	0	0	0	0	0	0	0	0	0	0	0	0	0	0	0	0	0	0	0	0	0	0	0	0	0	0	0	0	0	0	0	0	0	0	0	0	0	0	0	0	0	0	0	0	0	0	0	0	0	0	0	0	0	0	0	0	0	0	0	0	0	0	0	0	0	0	0	0	0	0	0	0	0	0	0	0	0	0	0	0	0	0	0	0	0	0	0	0	0	0	0	0	0	0	0	0	0	0	0	0	0	0	0	0	0	0	0	0	0	0	0	0	0	0	0	0	0	0	0	0	0	0	0	0	0	0	0	0	0	0	0	0	0	0	0	0	0	0	0	0	0	0	0	0	0	0	0	0	0	0	0	0	0	0	0	0	0	0	0	0	0	0	0	0	0	0	0	0	0	0	0	0	0	0	0	0	0	0	0	0	0	0	0	0	0	0	0	0	0	0	0	0	0	0	0	0	0	0	0	0	0	0	0	0	0	0	0	0	0	0	0	0	0	0	0	0	0	0	0	0	0	0	0	0	0	0	0	0	0	0	0	0	0	0	0	0	0	0	0	0	0	0	0	0	0	0	0	0	0	0	0	0	0	0	0	0	0	0	0	0	0	0	0	0	0	1	1	1	1	1	1	1	1	1	1	1	1	1	2	4	7	10	13	16	18	20	22	24	26	27	28	29	30	32	34	35	37	38	40	41	43	46	49	51	54	56	58	60	60	59	56	54	51	49	46	44	41	38	36	33	31	29	27	25	23	22	20	18	17	15	15	15	15	14	13	11	7	4	2	1	1	1	1	1	1	1	1	1	1	1	1	1	1	1	1	2	2	2	3	5	7	8	10	12	14	17	20	22	25	28	31	33	33	35	39	42	45	49	52	54	55	56	56	56	56	56	55	54	53	52	50	46	40	34	30	28	27	25	23	21	19	18	19	18	14	4	3	4	4	4	3	2	2	2	1	1	1	1	1	1	1	1	1	1	1	1	1	1	1	1	1	1	1	1	1	1	0	0	0	0	0	0	0	0	0	0	0	0	0	0	0	0	0	0	0	0	0	0	0	0	0	0	0	0	1	1	1	1	1	1	1	1	1	1	1	1	1	1	1	1	2	4	6	9	11	14	16	19	22	24	27	29	30	31	32	32	33	33	32	32	31	31	30	29	27	27	26	25	24	25	28	30	32	32	33	33	33	32	31	30	28	26	25	23	21	19	16	14	13	12	9	7	5	4	3	2	2	1	1	1	1	1	1	1	1	1	1	1	1	1	1	1	1	1	1	1	1	2	3	5	9	12	15	18	22	25	28	32	35	38	41	44	47	50	53	55	58	61	63	66	69	71	70	66	63	61	58	55	52	50	49	47	46	44	41	39	37	35	33	31	30	28	26	24	23	21	19	18	16	14	12	10	9	7	6	6	7	7	8	8	8	8	7	6	6	5	5	4	4	3	3	3	2	2	2	1	1	1	1	1	1	1	1	1	1	1	1	1	1	1	1	1	1	1	1	1	1	1	1	1	1	1	1	1	1	1	1	1	1	1	1	1	1	1	1	1	1	1	2	3	4	6	9	13	16	19	21	23	24	25	26	28	29	31	32	34	36	38	40	42	44	46	47	48	49	49	49	47
49	49	49	48	48	48	47	47	46	46	45	45	44	44	43	43	43	43	42	42	42	41	41	40	40	39	38	37	36	35	34	33	32	32	32	32	31	31	29	27	25	23	20	18	16	14	14	13	13	13	13	13	13	13	12	12	12	12	12	12	12	11	11	11	11	10	10	10	9	9	9	9	9	8	8	8	8	8	8	8	8	8	7	7	7	7	7	7	7	7	7	7	7	7	7	7	7	7	7	7	7	7	6	6	6	6	6	6	6	6	6	6	6	6	6	6	6	5	6	6	5	5	5	5	5	5	5	5	5	5	5	5	5	5	5	5	5	5	5	5	5	5	4	4	4	4	4	4	4	4	4	4	4	4	5	5	5	5	5	5	5	5	5	5	5	5	5	5	5	5	5	5	5	5	5	5	5	5	6	6	6	6	6	6	6	5	5	5	5	5	5	5	5	5	5	5	5	5	5	5	5	5	5	6	6	6	6	5	5	5	5	5	5	5	5	5	5	5	5	5	5	5	5	5	5	5	5	5	5	5	5	5	5	5	5	6	6	6	6	6	6	6	5	5	5	5	5	5	5	5	5	5	4	4	4	4	4	4	3	3	3	3	2	1	0	0	0	0	0	0	0	0	0	0	0	0	0	0	0	0	0	0	0	0	0	0	0	0	0	0	0	0	0	0	0	0	0	0	0	0	0	0	0	0	0	0	0	0	0	0	0	0	0	0	0	0	0	0	0	0	0	0	0	0	0	0	0	0	0	0	0	0	0	0	0	0	0	0	0	0	0	0	0	0	0	0	0	0	0	0	0	0	0	0	0	0	0	0	0	0	0	0	0	0	0	0	0	0	0	0	0	0	0	0	0	0	0	0	0	0	0	0	0	0	0	0	0	0	0	0	0	0	0	0	0	0	0	0	0	0	0	0	0	0	0	0	0	0	0	0	0	0	0	0	0	0	0	0	0	0	0	0	0	0	0	0	0	0	0	0	0	0	0	0	0	0	0	0	0	0	0	0	0	0	0	0	0	0	0	0	0	0	0	0	0	0	0	0	0	0	0	0	0	0	0	0	0	0	0	0	0	0	0	0	0	0	0	0	0	0	0	0	0	0	0	0	0	0	0	0	0	0	0	0	0	0	0	0	0	0	0	0	0	0	0	0	0	0	0	0	0	0	0	0	0	0	0	0	0	0	0	0	0	0	0	0	0	0	0	0	0	0	0	0	0	0	0	0	0	0	0	0	0	0	0	0	0	0	0	0	0	0	0	0	0	0	0	1	1	1	1	1	1	1	1	1	1	1	1	1	1	2	5	8	11	13	16	18	20	22	23	25	26	27	28	30	32	34	35	36	37	39	42	45	47	50	52	54	56	59	61	60	58	55	53	50	47	45	42	40	37	35	32	30	28	27	25	24	22	21	19	18	17	16	16	16	15	12	9	6	3	1	1	1	1	1	1	1	1	1	1	1	1	1	1	1	1	1	2	2	3	4	6	8	11	13	15	18	21	23	26	29	31	33	34	36	39	42	45	49	52	54	55	57	58	58	58	58	57	56	54	53	52	48	42	36	33	31	31	30	28	26	25	25	24	21	17	7	3	4	3	2	2	1	1	1	1	1	1	1	1	1	1	1	1	1	1	1	1	1	1	1	1	1	1	1	1	1	0	0	0	0	0	0	0	0	0	0	0	0	0	0	0	0	0	0	0	0	0	0	0	0	0	0	0	0	0	1	1	1	1	1	1	1	1	1	1	1	1	1	1	1	2	4	6	9	11	14	16	19	21	24	28	30	32	33	34	34	34	34	34	33	33	31	30	28	27	25	23	22	21	23	26	29	31	33	34	35	35	35	34	33	31	29	27	25	22	20	17	15	14	13	11	9	7	5	3	3	2	2	1	1	1	1	1	1	1	1	1	1	1	1	1	1	1	1	1	1	2	2	3	5	8	11	14	18	21	25	28	31	35	38	41	43	46	49	52	55	58	61	63	66	70	72	71	68	65	62	59	56	54	52	51	50	48	46	43	41	39	37	35	33	31	29	27	26	24	23	21	19	17	16	13	12	10	9	7	8	9	9	10	10	10	10	9	8	8	7	6	6	5	4	4	3	3	2	2	1	1	1	1	1	1	1	1	1	1	1	1	1	1	1	1	1	1	1	1	1	1	1	1	1	1	1	1	1	1	1	1	1	1	1	1	1	1	1	1	1	1	1	2	2	3	5	7	10	13	15	17	19	21	22	23	25	26	28	30	31	33	34	36	39	41	43	45	46	47	48	48	47
50	50	49	49	49	48	48	47	47	46	46	45	45	44	44	44	43	43	43	42	42	42	41	41	40	40	39	37	36	35	34	33	32	32	32	32	31	29	27	26	24	22	19	17	15	14	14	14	14	13	13	13	13	13	13	13	12	12	12	12	12	12	11	11	11	11	10	10	10	9	9	9	9	9	8	8	8	8	8	8	8	8	8	7	7	7	7	7	7	7	7	7	7	7	7	7	7	7	7	7	7	7	6	6	6	6	6	6	6	6	6	6	6	6	6	6	6	6	6	6	6	6	6	5	5	5	5	5	5	5	5	5	5	5	5	5	5	5	5	5	5	5	4	4	4	4	4	4	3	4	4	4	4	4	5	5	5	5	5	5	5	5	5	5	5	5	5	5	4	4	5	5	5	5	5	5	5	5	5	6	6	6	6	6	5	5	5	5	5	5	5	5	5	5	5	5	5	5	5	5	5	5	6	6	6	6	6	6	6	5	5	5	5	5	5	5	5	5	5	5	5	5	5	5	5	5	5	5	5	5	5	5	5	5	6	6	6	6	6	6	6	5	5	5	5	5	5	5	5	5	5	4	4	4	4	4	4	4	3	3	3	3	3	2	1	0	0	0	0	0	0	0	0	0	0	0	0	0	0	0	0	0	0	0	0	0	0	0	0	0	0	0	0	0	0	0	0	0	0	0	0	0	0	0	0	0	0	0	0	0	0	0	0	0	0	0	0	0	0	0	0	0	0	0	0	0	0	0	0	0	0	0	0	0	0	0	0	0	0	0	0	0	0	0	0	0	0	0	0	0	0	0	0	0	0	0	0	0	0	0	0	0	0	0	0	0	0	0	0	0	0	0	0	0	0	0	0	0	0	0	0	0	0	0	0	0	0	0	0	0	0	0	0	0	0	0	0	0	0	0	0	0	0	0	0	0	0	0	0	0	0	0	0	0	0	0	0	0	0	0	0	0	0	0	0	0	0	0	0	0	0	0	0	0	0	0	0	0	0	0	0	0	0	0	0	0	0	0	0	0	0	0	0	0	0	0	0	0	0	0	0	0	0	0	0	0	0	0	0	0	0	0	0	0	0	0	0	0	0	0	0	0	0	0	0	0	0	0	0	0	0	0	0	0	0	0	0	0	0	0	0	0	0	0	0	0	0	0	0	0	0	0	0	0	0	0	0	0	0	0	0	0	0	0	0	0	0	0	0	0	0	0	0	0	0	0	0	0	0	0	0	0	0	0	0	0	0	0	0	0	0	0	0	0	0	0	0	1	1	1	1	1	1	1	1	1	1	1	1	1	1	2	3	6	8	10	13	15	17	19	20	21	22	24	25	27	30	32	33	34	35	37	40	43	45	48	50	53	55	58	61	61	59	56	54	51	49	46	44	42	40	37	34	32	31	29	27	26	24	23	21	20	19	19	18	17	16	13	10	6	3	2	1	1	1	1	1	1	1	1	1	1	1	1	1	1	1	1	2	2	2	3	5	8	11	14	16	19	22	25	27	30	32	34	35	38	40	43	46	49	53	55	57	58	60	60	60	60	59	58	56	55	54	50	46	42	39	37	35	33	32	29	27	24	21	18	15	9	2	3	2	2	1	1	1	1	1	1	1	1	1	1	1	1	1	1	1	1	1	1	1	1	1	1	1	1	1	0	0	0	0	0	0	0	0	0	0	0	0	0	0	0	0	0	0	0	0	0	0	0	0	0	0	0	0	0	1	1	1	1	1	1	1	1	1	1	1	1	1	1	1	1	2	4	6	9	11	14	16	19	21	24	27	31	33	34	35	35	35	35	34	33	33	31	29	27	25	23	21	19	19	21	24	27	30	33	34	36	37	37	36	35	33	31	29	26	23	20	17	15	14	13	11	9	7	5	3	3	2	2	1	1	1	1	1	1	1	1	1	1	1	1	1	1	1	1	1	1	2	2	3	5	8	11	14	17	20	24	27	30	34	37	40	42	45	48	51	54	57	60	63	66	70	73	72	69	66	63	61	58	56	54	53	52	50	48	45	43	41	39	37	34	32	30	29	27	26	24	23	21	19	17	15	13	11	10	9	9	10	11	12	12	12	12	11	10	10	9	8	7	7	6	5	4	3	2	2	1	1	1	1	1	1	1	1	1	1	1	1	1	1	1	1	1	1	1	1	1	1	1	1	1	1	1	1	1	1	1	1	1	1	1	1	1	1	1	1	1	1	1	1	2	2	4	6	8	10	12	14	16	17	19	20	22	23	25	27	29	30	32	33	35	37	39	41	43	44	45	45	45
51	50	50	50	49	49	49	48	48	47	46	46	45	45	44	44	44	44	43	43	43	42	42	41	41	40	39	38	36	35	34	33	32	32	32	31	30	28	26	24	22	20	18	16	15	14	14	14	14	14	13	13	13	13	13	13	13	12	12	12	12	12	12	11	11	11	10	10	10	10	9	9	9	9	9	8	8	8	8	8	8	8	8	7	7	7	7	7	7	7	7	7	7	7	7	7	7	7	7	7	7	7	6	6	6	6	6	6	6	6	6	6	6	6	6	6	6	6	6	6	6	6	6	6	5	5	5	5	5	5	5	5	5	5	5	5	5	5	5	5	5	5	5	5	4	4	4	4	4	4	4	4	4	4	5	5	5	5	5	5	5	5	5	5	5	5	5	4	4	4	4	5	5	5	5	5	5	5	5	5	5	5	5	5	5	5	5	5	5	5	5	5	5	5	5	5	5	5	5	5	5	5	6	6	6	6	6	6	6	5	5	5	5	5	5	5	5	5	5	5	5	5	5	5	5	5	5	5	5	5	5	5	5	5	6	6	6	6	6	6	5	5	5	5	5	4	5	5	4	4	4	4	4	4	4	4	4	4	3	3	3	3	3	3	2	1	0	0	0	0	0	0	0	0	0	0	0	0	0	0	0	0	0	0	0	0	0	0	0	0	0	0	0	0	0	0	0	0	0	0	0	0	0	0	0	0	0	0	0	0	0	0	0	0	0	0	0	0	0	0	0	0	0	0	0	0	0	0	0	0	0	0	0	0	0	0	0	0	0	0	0	0	0	0	0	0	0	0	0	0	0	0	0	0	0	0	0	0	0	0	0	0	0	0	0	0	0	0	0	0	0	0	0	0	0	0	0	0	0	0	0	0	0	0	0	0	0	0	0	0	0	0	0	0	0	0	0	0	0	0	0	0	0	0	0	0	0	0	0	0	0	0	0	0	0	0	0	0	0	0	0	0	0	0	0	0	0	0	0	0	0	0	0	0	0	0	0	0	0	0	0	0	0	0	0	0	0	0	0	0	0	0	0	0	0	0	0	0	0	0	0	0	0	0	0	0	0	0	0	0	0	0	0	0	0	0	0	0	0	0	0	0	0	0	0	0	0	0	0	0	0	0	0	0	0	0	0	0	0	0	0	0	0	0	0	0	0	0	0	0	0	0	0	0	0	0	0	0	0	0	0	0	0	0	0	0	0	0	0	0	0	0	0	0	0	0	0	0	0	0	0	0	0	0	0	0	0	0	0	0	0	0	0	0	0	0	0	1	1	1	1	1	1	1	1	1	1	1	1	1	1	1	2	3	4	7	10	12	14	15	17	18	19	21	22	25	28	30	31	32	33	35	38	41	44	46	49	52	55	58	61	62	60	57	55	53	51	49	47	45	43	40	37	35	33	31	29	28	26	25	23	22	21	21	20	18	16	14	10	6	3	2	1	1	1	1	1	1	1	1	1	1	1	1	1	1	1	1	2	2	2	3	5	8	11	14	17	20	23	26	29	31	33	35	37	39	42	45	48	51	54	56	58	60	62	63	63	62	61	59	58	56	54	53	49	46	43	40	37	34	31	27	24	21	18	15	12	6	2	2	2	1	1	1	1	1	1	1	1	1	1	1	1	1	1	1	1	1	1	1	1	1	1	1	1	1	0	0	0	0	0	0	0	0	0	0	0	0	0	0	0	0	0	0	0	0	0	0	0	0	0	0	0	0	0	0	1	1	1	1	1	1	1	1	1	1	1	1	1	1	1	1	2	4	7	10	12	14	16	19	21	24	27	31	34	35	36	36	36	35	34	33	32	30	28	26	24	21	19	17	17	20	24	27	30	33	34	36	38	38	37	36	34	32	29	27	24	21	18	15	13	11	9	7	5	4	3	2	2	1	1	1	1	1	1	1	1	1	1	1	1	1	1	1	1	1	1	1	2	2	3	4	7	10	12	15	18	22	25	29	32	35	38	41	44	47	50	53	56	59	62	65	69	73	73	70	67	65	63	60	58	57	55	54	52	49	47	45	42	40	38	36	34	32	30	29	28	26	24	22	20	18	16	14	12	11	10	10	12	13	14	14	14	14	13	12	11	11	10	9	9	8	6	5	3	2	2	1	1	1	1	1	1	1	1	1	1	1	1	1	1	1	1	1	1	1	1	1	1	1	1	1	1	1	1	1	1	1	1	1	1	1	1	1	1	1	1	1	1	1	1	1	2	3	4	5	7	9	11	13	14	16	17	19	20	22	24	26	27	29	30	32	33	35	37	39	41	42	42	41
51	51	51	50	50	50	49	49	48	48	47	47	46	46	45	45	44	44	44	43	43	43	42	42	41	40	39	38	37	35	34	33	32	32	31	30	28	26	24	23	21	19	17	15	14	14	14	14	14	14	14	13	13	13	13	13	13	13	13	12	12	12	12	11	11	11	11	10	10	10	9	9	9	9	9	9	8	8	8	8	8	8	8	7	7	7	7	7	7	7	7	7	7	7	7	7	7	7	7	7	7	7	7	6	6	6	6	6	6	6	6	6	6	6	6	6	6	6	6	6	6	6	6	6	6	5	5	5	5	5	5	5	5	5	5	5	5	5	5	5	5	5	5	5	5	5	4	4	4	4	4	4	4	4	5	5	5	5	5	5	5	5	5	5	5	5	4	4	4	4	4	5	5	5	5	5	5	5	5	5	5	5	5	5	5	5	5	5	5	5	5	5	5	5	5	5	5	5	5	5	5	5	5	6	6	6	6	6	6	5	5	5	5	5	5	5	5	5	5	5	5	5	5	5	5	5	5	5	5	5	5	5	5	5	5	5	5	5	5	5	5	5	5	4	4	4	4	4	4	4	4	4	4	4	4	4	4	4	4	3	3	3	3	3	3	2	1	0	0	0	0	0	0	0	0	0	0	0	0	0	0	0	0	0	0	0	0	0	0	0	0	0	0	0	0	0	0	0	0	0	0	0	0	0	0	0	0	0	0	0	0	0	0	0	0	0	0	0	0	0	0	0	0	0	0	0	0	0	0	0	0	0	0	0	0	0	0	0	0	0	0	0	0	0	0	0	0	0	0	0	0	0	0	0	0	0	0	0	0	0	0	0	0	0	0	0	0	0	0	0	0	0	0	0	0	0	0	0	0	0	0	0	0	0	0	0	0	0	0	0	0	0	0	0	0	0	0	0	0	0	0	0	0	0	0	0	0	0	0	0	0	0	0	0	0	0	0	0	0	0	0	0	0	0	0	0	0	0	0	0	0	0	0	0	0	0	0	0	0	0	0	0	0	0	0	0	0	0	0	0	0	0	0	0	0	0	0	0	0	0	0	0	0	0	0	0	0	0	0	0	0	0	0	0	0	0	0	0	0	0	0	0	0	0	0	0	0	0	0	0	0	0	0	0	0	0	0	0	0	0	0	0	0	0	0	0	0	0	0	0	0	0	0	0	0	0	0	0	0	0	0	0	0	0	0	0	0	0	0	0	0	0	0	0	0	0	0	0	0	0	0	0	0	0	0	0	0	0	0	0	0	0	0	0	0	0	0	1	1	1	1	1	1	1	1	1	1	1	1	1	1	1	1	1	2	3	6	9	11	12	13	15	16	18	20	23	26	28	30	31	32	34	37	40	42	46	49	53	55	58	62	63	61	58	56	55	53	51	49	47	45	42	40	38	35	33	32	30	28	27	26	24	23	23	21	18	16	14	10	5	2	2	1	1	1	1	1	1	1	1	1	1	1	1	1	1	1	1	1	2	2	2	5	8	11	14	17	20	23	26	29	32	35	36	38	41	43	46	49	53	56	58	60	62	63	64	64	63	60	58	56	55	53	50	47	43	40	37	35	32	29	24	21	18	15	11	7	3	2	2	1	1	1	1	1	1	1	1	1	1	1	1	1	1	1	1	1	1	1	1	1	1	1	1	1	0	0	0	0	0	0	0	0	0	0	0	0	0	0	0	0	0	0	0	0	0	0	0	0	0	0	0	0	0	0	0	1	1	1	1	1	1	1	1	1	1	1	1	1	1	1	1	3	5	9	12	13	15	17	19	21	23	27	31	33	35	36	37	36	35	33	32	31	28	26	24	22	19	17	15	16	19	22	25	29	32	34	36	38	39	38	36	34	32	29	26	23	20	17	14	12	9	7	5	3	2	2	2	2	1	1	1	1	1	1	1	1	1	1	1	1	1	1	1	1	1	1	1	2	2	3	4	6	9	11	13	16	20	24	28	31	34	36	39	42	45	48	51	54	58	61	64	68	71	73	72	69	67	65	63	61	59	58	55	53	50	48	46	44	42	40	37	35	34	32	31	29	27	26	24	21	19	17	15	13	12	11	12	13	14	14	14	15	14	14	13	12	12	12	11	10	9	8	6	4	2	2	1	1	1	1	1	1	1	1	1	1	1	1	1	1	1	1	1	1	1	1	1	1	1	1	1	1	1	1	1	1	1	1	1	1	1	1	1	1	1	1	1	1	1	1	1	1	2	2	3	5	6	8	9	11	12	14	16	18	19	21	23	24	26	27	28	30	31	32	34	36	37	37	36
52	52	51	51	51	50	50	49	49	48	48	47	47	46	46	45	45	44	44	44	43	43	43	42	41	40	39	38	37	36	35	34	32	31	30	28	26	25	23	22	20	18	16	15	15	15	15	14	14	14	14	14	14	13	13	13	13	13	13	13	12	12	12	12	11	11	11	10	10	10	10	9	9	9	9	9	9	8	8	8	8	8	8	8	7	7	7	7	7	7	7	7	7	7	7	7	7	7	7	7	7	7	7	6	6	6	6	6	6	6	6	6	6	6	6	6	6	6	6	6	6	6	6	6	6	6	5	5	5	5	5	5	5	5	5	5	5	5	5	5	5	5	5	5	5	5	5	4	4	4	4	4	4	5	5	5	5	5	5	5	5	5	5	5	5	4	4	4	4	4	4	4	5	5	5	5	5	5	5	5	5	5	5	5	5	5	5	5	5	5	5	5	5	5	5	5	5	5	5	5	5	5	5	5	5	5	5	5	5	5	5	5	5	5	5	5	5	5	5	5	5	5	5	5	5	5	5	5	5	5	5	5	5	5	5	5	5	5	5	5	5	5	4	4	4	4	4	4	4	4	4	4	4	4	4	4	4	4	4	3	3	3	3	3	3	3	2	1	0	0	0	0	0	0	0	0	0	0	0	0	0	0	0	0	0	0	0	0	0	0	0	0	0	0	0	0	0	0	0	0	0	0	0	0	0	0	0	0	0	0	0	0	0	0	0	0	0	0	0	0	0	0	0	0	0	0	0	0	0	0	0	0	0	0	0	0	0	0	0	0	0	0	0	0	0	0	0	0	0	0	0	0	0	0	0	0	0	0	0	0	0	0	0	0	0	0	0	0	0	0	0	0	0	0	0	0	0	0	0	0	0	0	0	0	0	0	0	0	0	0	0	0	0	0	0	0	0	0	0	0	0	0	0	0	0	0	0	0	0	0	0	0	0	0	0	0	0	0	0	0	0	0	0	0	0	0	0	0	0	0	0	0	0	0	0	0	0	0	0	0	0	0	0	0	0	0	0	0	0	0	0	0	0	0	0	0	0	0	0	0	0	0	0	0	0	0	0	0	0	0	0	0	0	0	0	0	0	0	0	0	0	0	0	0	0	0	0	0	0	0	0	0	0	0	0	0	0	0	0	0	0	0	0	0	0	0	0	0	0	0	0	0	0	0	0	0	0	0	0	0	0	0	0	0	0	0	0	0	0	0	0	0	0	0	0	0	0	0	0	0	0	0	0	0	0	0	0	0	0	0	0	0	0	0	0	0	0	1	1	1	1	1	1	1	1	1	1	1	1	1	1	1	1	1	1	2	3	5	7	9	10	12	13	15	18	21	24	27	29	30	32	34	37	39	43	46	50	53	56	59	62	64	62	60	58	57	56	54	52	50	47	45	42	40	38	35	33	32	30	29	28	27	25	24	21	19	16	13	9	4	2	2	1	1	1	1	1	1	1	1	1	1	1	1	1	1	1	1	1	2	2	2	4	8	11	14	17	20	23	26	30	33	35	38	40	42	45	48	51	54	58	61	62	63	63	62	62	60	58	56	54	52	49	47	43	40	37	34	32	29	26	22	18	15	11	6	3	2	2	2	1	1	1	1	1	1	1	1	1	1	1	1	1	1	1	1	1	1	1	1	1	1	1	1	0	0	0	0	0	0	0	0	0	0	0	0	0	0	0	0	0	0	0	0	0	0	0	0	0	0	0	0	0	0	0	0	1	1	1	1	1	1	1	1	1	1	1	1	1	1	1	2	4	8	11	14	15	17	18	20	22	24	27	30	33	35	36	37	36	34	32	31	29	26	24	22	20	18	16	14	15	17	21	24	27	30	33	35	37	38	38	36	34	31	28	25	22	19	16	13	10	8	5	3	2	2	2	1	1	1	1	1	1	1	1	1	1	1	1	1	1	1	1	1	1	1	1	1	2	2	3	3	5	7	10	12	15	19	23	27	30	32	35	37	40	43	46	49	53	56	59	63	65	68	71	72	72	69	67	65	63	62	59	57	54	51	49	47	45	43	41	39	38	36	34	33	31	29	27	25	23	21	18	16	14	13	13	13	14	15	15	15	15	15	15	15	14	14	13	13	12	11	9	7	4	3	2	1	1	1	1	1	1	1	1	1	1	1	1	1	1	1	1	1	1	1	1	1	1	1	1	1	1	1	1	1	1	1	1	1	1	1	1	1	1	1	1	1	1	1	1	1	1	1	2	2	3	3	5	6	7	7	9	12	15	16	18	20	21	23	24	25	26	27	28	29	30	31	32	31
53	52	52	52	51	51	51	50	50	49	48	48	47	47	46	46	45	45	45	44	44	43	43	42	41	40	39	38	37	36	35	33	32	31	29	27	25	24	22	21	19	17	16	15	15	15	14	15	14	14	14	14	14	14	13	13	13	13	13	13	12	12	12	12	12	11	11	11	10	10	10	10	9	9	9	9	9	9	8	8	8	8	8	8	7	7	7	7	7	7	7	7	7	7	7	7	7	7	7	6	6	6	7	7	6	6	7	7	6	6	6	6	6	6	6	6	6	6	7	7	6	6	6	6	6	6	6	6	6	5	5	5	5	5	5	5	5	5	5	5	5	5	5	5	5	5	5	5	4	4	4	4	4	5	5	5	5	5	5	5	5	5	5	5	5	4	4	4	4	4	4	4	5	5	5	5	5	5	5	5	5	5	5	5	5	5	5	5	5	5	5	5	5	5	5	5	5	5	5	5	5	5	5	5	5	5	5	5	5	5	5	5	5	5	5	5	5	5	5	5	5	5	5	5	5	5	5	5	5	5	5	5	5	5	5	5	5	5	5	5	5	4	4	4	4	4	3	4	4	4	4	4	4	4	4	4	4	4	4	4	3	3	3	3	3	3	2	1	0	0	0	0	0	0	0	0	0	0	0	0	0	0	0	0	0	0	0	0	0	0	0	0	0	0	0	0	0	0	0	0	0	0	0	0	0	0	0	0	0	0	0	0	0	0	0	0	0	0	0	0	0	0	0	0	0	0	0	0	0	0	0	0	0	0	0	0	0	0	0	0	0	0	0	0	0	0	0	0	0	0	0	0	0	0	0	0	0	0	0	0	0	0	0	0	0	0	0	0	0	0	0	0	0	0	0	0	0	0	0	0	0	0	0	0	0	0	0	0	0	0	0	0	0	0	0	0	0	0	0	0	0	0	0	0	0	0	0	0	0	0	0	0	0	0	0	0	0	0	0	0	0	0	0	0	0	0	0	0	0	0	0	0	0	0	0	0	0	0	0	0	0	0	0	0	0	0	0	0	0	0	0	0	0	0	0	0	0	0	0	0	0	0	0	0	0	0	0	0	0	0	0	0	0	0	0	0	0	0	0	0	0	0	0	0	0	0	0	0	0	0	0	0	0	0	0	0	0	0	0	0	0	0	0	0	0	0	0	0	0	0	0	0	0	0	0	0	0	0	0	0	0	0	0	0	0	0	0	0	0	0	0	0	0	0	0	0	0	0	0	0	0	0	0	0	0	0	0	0	0	0	0	0	0	0	0	0	0	1	1	1	1	1	1	1	1	1	1	1	1	1	1	1	1	1	1	1	2	2	4	6	8	9	11	13	16	19	22	25	28	30	32	35	38	41	44	47	51	54	57	60	63	65	63	62	61	60	58	56	54	52	49	47	44	42	40	37	35	33	32	31	29	28	26	24	22	19	16	13	8	3	2	2	1	1	1	1	1	1	1	1	1	1	1	1	1	1	1	1	1	2	2	3	4	7	11	14	17	20	23	26	30	33	35	38	41	43	46	49	51	54	58	60	61	61	60	59	59	58	56	54	52	49	46	43	40	37	34	31	29	25	22	18	15	11	7	3	2	2	2	1	1	1	1	1	1	1	1	1	1	1	1	1	1	1	1	1	1	1	1	1	1	1	1	0	0	0	0	0	0	0	0	0	0	0	0	0	0	0	0	0	0	0	0	0	0	0	0	0	0	0	0	0	0	0	0	1	1	1	1	1	1	1	1	1	1	1	1	1	1	1	1	3	6	10	14	16	17	19	20	22	23	24	27	30	33	35	36	37	35	33	31	28	26	24	23	21	19	17	15	14	14	16	19	23	26	29	31	34	36	37	37	35	33	30	27	24	21	18	15	12	9	6	3	2	2	2	1	1	1	1	1	1	1	1	1	1	1	1	1	1	1	1	1	1	1	1	1	1	1	2	2	3	3	5	8	10	13	18	22	25	28	30	33	35	38	41	44	47	51	54	57	60	63	65	68	70	71	71	70	68	65	63	61	58	55	53	51	49	47	45	43	42	40	38	37	34	32	30	28	26	24	22	20	18	16	14	14	14	15	17	17	17	17	18	18	17	17	17	16	15	14	12	10	7	5	3	2	1	1	1	1	1	1	1	1	1	1	1	1	1	1	1	1	1	1	1	1	1	1	1	1	1	1	1	1	1	1	1	1	1	1	1	1	1	1	1	1	1	1	1	1	1	1	1	1	2	2	2	3	3	4	4	6	9	11	13	15	17	18	19	21	23	24	24	24	25	25	26	26	26
53	53	53	53	52	52	51	51	50	50	49	48	48	47	47	46	46	45	45	45	44	44	43	43	42	40	39	38	37	36	34	33	31	30	28	25	24	23	21	20	18	17	16	15	15	15	14	14	14	14	14	14	14	14	14	13	13	13	13	13	13	12	12	12	12	12	11	11	11	10	10	10	9	9	9	9	9	9	8	8	8	8	8	8	7	7	7	7	7	7	7	7	7	7	7	7	7	7	6	6	6	6	7	7	7	7	7	7	7	7	6	6	6	6	6	7	7	7	7	7	7	6	6	6	6	6	6	6	6	6	6	6	5	5	5	5	5	5	5	5	5	5	5	5	5	5	5	5	5	4	4	4	5	5	5	5	5	5	5	5	5	5	5	5	5	5	4	4	4	4	4	4	5	5	5	5	5	5	5	5	5	5	5	5	5	5	5	5	5	5	5	5	5	5	5	5	5	5	5	5	5	5	5	5	5	5	5	5	5	5	5	5	5	5	5	5	5	5	5	5	5	5	5	5	5	5	5	5	5	5	5	5	5	5	5	5	5	5	5	5	4	4	4	4	4	3	3	4	4	4	4	4	4	4	4	4	4	4	4	4	3	3	3	3	3	3	3	2	1	0	0	0	0	0	0	0	0	0	0	0	0	0	0	0	0	0	0	0	0	0	0	0	0	0	0	0	0	0	0	0	0	0	0	0	0	0	0	0	0	0	0	0	0	0	0	0	0	0	0	0	0	0	0	0	0	0	0	0	0	0	0	0	0	0	0	0	0	0	0	0	0	0	0	0	0	0	0	0	0	0	0	0	0	0	0	0	0	0	0	0	0	0	0	0	0	0	0	0	0	0	0	0	0	0	0	0	0	0	0	0	0	0	0	0	0	0	0	0	0	0	0	0	0	0	0	0	0	0	0	0	0	0	0	0	0	0	0	0	0	0	0	0	0	0	0	0	0	0	0	0	0	0	0	0	0	0	0	0	0	0	0	0	0	0	0	0	0	0	0	0	0	0	0	0	0	0	0	0	0	0	0	0	0	0	0	0	0	0	0	0	0	0	0	0	0	0	0	0	0	0	0	0	0	0	0	0	0	0	0	0	0	0	0	0	0	0	0	0	0	0	0	0	0	0	0	0	0	0	0	0	0	0	0	0	0	0	0	0	0	0	0	0	0	0	0	0	0	0	0	0	0	0	0	0	0	0	0	0	0	0	0	0	0	0	0	0	0	0	0	0	0	0	0	0	0	0	0	0	0	0	0	0	0	0	0	0	0	1	1	1	1	1	1	1	1	1	1	1	1	1	1	1	1	1	1	1	1	1	2	3	5	7	9	11	13	17	20	24	28	30	33	36	38	41	44	48	51	54	57	60	63	66	66	65	64	63	61	59	56	53	51	48	46	44	42	39	37	35	33	32	30	28	27	25	22	19	16	12	7	3	2	2	1	1	1	1	1	1	1	1	1	1	1	1	1	1	1	1	1	2	2	3	5	7	10	13	16	20	23	26	29	32	35	37	40	42	45	47	50	52	55	57	57	57	57	56	56	55	53	51	49	46	43	40	37	34	31	28	25	22	19	15	11	8	4	2	2	2	2	1	1	1	1	1	1	1	1	1	1	1	1	1	1	1	1	1	1	1	1	1	1	1	0	0	0	0	0	0	0	0	0	0	0	0	0	0	0	0	0	0	0	0	0	0	0	0	0	0	0	0	0	0	0	0	0	1	1	1	1	1	1	1	1	1	1	1	1	1	1	1	2	6	10	13	16	18	20	21	23	24	25	26	28	30	33	35	36	37	35	33	30	27	25	24	22	20	18	16	15	13	13	15	18	21	24	27	30	32	35	37	37	35	32	29	26	23	20	17	14	11	8	5	2	2	2	1	1	1	1	1	1	1	1	1	1	1	1	1	1	1	1	1	1	1	1	1	1	1	1	1	2	2	3	4	6	9	12	16	20	23	26	28	30	33	36	39	42	45	48	52	55	58	60	63	65	67	68	70	71	70	68	65	63	60	57	55	53	51	49	47	46	44	42	41	39	37	34	32	30	28	26	24	22	20	18	17	16	16	17	19	20	20	20	20	20	20	20	20	19	18	16	13	11	8	5	3	2	2	1	1	1	1	1	1	1	1	1	1	1	1	1	1	1	1	1	1	1	1	1	1	1	1	1	1	1	1	1	1	1	1	1	1	1	1	1	1	1	1	1	1	1	1	1	1	1	1	1	2	2	2	2	3	4	6	8	10	12	14	15	16	18	20	21	22	21	21	21	22	22	22
54	54	53	53	53	52	52	51	51	50	50	49	48	47	47	47	46	46	45	45	44	44	43	43	42	40	39	38	36	35	34	32	30	28	26	25	23	22	21	19	18	16	15	15	15	15	15	15	14	15	14	14	14	14	14	14	13	13	13	13	13	13	13	13	12	12	12	11	11	11	10	10	10	9	9	9	9	9	9	8	8	8	8	8	7	7	7	7	7	7	7	7	7	7	7	7	7	7	7	6	6	7	7	7	7	7	7	7	7	6	6	6	6	6	6	7	7	7	7	7	7	7	7	7	6	6	6	6	6	6	6	6	6	6	5	5	5	5	5	5	5	5	5	5	5	5	5	5	5	5	5	5	5	5	5	5	5	5	5	5	5	6	6	6	5	5	5	5	4	4	4	4	5	5	5	5	5	5	5	5	5	5	5	5	5	5	5	5	5	5	5	5	5	5	5	5	5	5	5	5	5	5	5	5	5	5	5	5	5	5	5	5	5	5	5	5	5	5	5	5	5	5	5	5	5	5	5	5	5	5	5	5	5	5	5	5	5	5	4	4	4	4	4	4	4	4	4	4	4	4	4	4	4	4	4	4	4	4	4	4	4	3	3	3	3	3	3	3	2	1	0	0	0	0	0	0	0	0	0	0	0	0	0	0	0	0	0	0	0	0	0	0	0	0	0	0	0	0	0	0	0	0	0	0	0	0	0	0	0	0	0	0	0	0	0	0	0	0	0	0	0	0	0	0	0	0	0	0	0	0	0	0	0	0	0	0	0	0	0	0	0	0	0	0	0	0	0	0	0	0	0	0	0	0	0	0	0	0	0	0	0	0	0	0	0	0	0	0	0	0	0	0	0	0	0	0	0	0	0	0	0	0	0	0	0	0	0	0	0	0	0	0	0	0	0	0	0	0	0	0	0	0	0	0	0	0	0	0	0	0	0	0	0	0	0	0	0	0	0	0	0	0	0	0	0	0	0	0	0	0	0	0	0	0	0	0	0	0	0	0	0	0	0	0	0	0	0	0	0	0	0	0	0	0	0	0	0	0	0	0	0	0	0	0	0	0	0	0	0	0	0	0	0	0	0	0	0	0	0	0	0	0	0	0	0	0	0	0	0	0	0	0	0	0	0	0	0	0	0	0	0	0	0	0	0	0	0	0	0	0	0	0	0	0	0	0	0	0	0	0	0	0	0	0	0	0	0	0	0	0	0	0	0	0	0	0	0	0	0	0	0	0	0	0	0	0	0	0	0	0	0	0	0	0	0	0	0	1	1	1	1	1	1	1	1	1	1	1	1	1	1	1	1	1	1	1	1	1	1	2	3	5	7	10	12	15	19	23	27	30	33	36	39	42	45	48	52	55	58	60	63	66	68	68	67	65	63	60	57	55	52	50	48	46	44	41	39	37	34	32	31	29	27	24	21	18	14	11	6	3	2	2	1	1	1	1	1	1	1	1	1	1	1	1	1	1	1	1	1	2	2	3	5	8	10	13	16	20	23	26	29	31	33	36	38	41	43	45	47	50	52	53	54	54	54	53	52	52	50	48	46	43	40	37	34	31	28	25	22	19	16	12	8	5	3	3	2	2	2	1	1	1	1	1	1	1	1	1	1	1	1	1	1	1	1	1	1	1	1	1	1	0	0	0	0	0	0	0	0	0	0	0	0	0	0	0	0	0	0	0	0	0	0	0	0	0	0	0	0	0	0	0	0	0	0	1	1	1	1	1	1	1	1	1	1	2	2	3	4	5	7	10	13	16	19	21	23	24	26	27	27	27	29	30	32	35	37	38	36	34	31	29	26	25	23	20	18	16	14	13	13	14	16	19	22	25	28	31	33	35	36	34	31	28	25	22	18	15	13	10	7	4	2	2	1	1	1	1	1	1	1	1	1	1	1	1	1	1	1	1	1	1	1	1	1	1	1	1	1	1	1	2	2	3	5	8	11	15	18	21	23	26	28	31	33	36	39	42	46	49	53	55	58	60	62	64	65	67	68	70	69	67	64	61	59	56	55	53	52	50	48	46	45	43	41	39	36	34	32	30	28	26	24	22	21	19	18	18	19	21	22	22	23	23	23	23	23	23	22	20	18	15	12	9	6	3	2	2	2	1	1	1	1	1	1	1	1	1	1	1	1	1	1	1	1	1	1	1	1	1	1	1	1	1	1	1	1	1	1	1	1	1	1	1	1	1	1	1	1	1	1	1	1	1	1	1	1	1	1	2	2	2	2	4	5	7	9	11	12	13	15	16	18	18	18	17	18	18	18	17
55	55	54	54	53	53	52	52	51	51	50	49	48	48	47	47	46	46	45	45	45	44	44	43	42	41	39	37	36	34	33	31	29	27	25	24	23	21	20	19	18	16	15	15	15	15	15	15	15	14	14	14	14	14	14	14	14	13	13	13	13	13	13	13	13	13	12	12	11	11	11	10	10	10	9	9	9	9	8	8	8	8	8	8	7	7	7	7	7	7	7	7	7	7	7	7	7	7	7	7	7	7	7	7	7	7	7	7	7	6	6	6	6	6	7	7	7	7	7	7	7	7	7	7	7	6	6	6	6	6	6	6	6	6	6	6	5	5	5	5	5	5	5	5	5	5	5	5	5	5	5	5	5	5	5	5	5	5	5	5	6	6	6	6	6	6	5	5	5	4	4	4	5	5	5	5	5	5	5	5	5	5	5	5	5	5	5	5	5	5	5	5	5	5	5	5	5	5	5	5	5	5	5	5	5	5	5	5	5	5	5	5	5	5	5	5	5	5	5	5	5	5	5	5	5	5	5	5	5	5	5	5	5	5	5	5	5	4	4	4	4	4	4	4	4	4	4	4	4	4	4	4	4	4	4	4	4	4	4	4	4	3	3	3	3	3	3	3	3	2	1	0	0	0	0	0	0	0	0	0	0	0	0	0	0	0	0	0	0	0	0	0	0	0	0	0	0	0	0	0	0	0	0	0	0	0	0	0	0	0	0	0	0	0	0	0	0	0	0	0	0	0	0	0	0	0	0	0	0	0	0	0	0	0	0	0	0	0	0	0	0	0	0	0	0	0	0	0	0	0	0	0	0	0	0	0	0	0	0	0	0	0	0	0	0	0	0	0	0	0	0	0	0	0	0	0	0	0	0	0	0	0	0	0	0	0	0	0	0	0	0	0	0	0	0	0	0	0	0	0	0	0	0	0	0	0	0	0	0	0	0	0	0	0	0	0	0	0	0	0	0	0	0	0	0	0	0	0	0	0	0	0	0	0	0	0	0	0	0	0	0	0	0	0	0	0	0	0	0	0	0	0	0	0	0	0	0	0	0	0	0	0	0	0	0	0	0	0	0	0	0	0	0	0	0	0	0	0	0	0	0	0	0	0	0	0	0	0	0	0	0	0	0	0	0	0	0	0	0	0	0	0	0	0	0	0	0	0	0	0	0	0	0	0	0	0	0	0	0	0	0	0	0	0	0	0	0	0	0	0	0	0	0	0	0	0	0	0	0	0	0	0	0	0	0	0	0	0	0	0	0	0	0	0	0	0	0	1	1	1	1	1	1	1	1	1	1	1	1	1	1	1	1	1	1	1	1	1	1	1	2	4	6	8	11	14	17	21	25	29	33	36	39	42	45	49	52	55	58	61	64	66	70	71	70	67	64	62	59	56	53	51	49	47	45	43	40	38	35	33	31	28	26	23	20	17	13	10	6	3	2	1	1	1	1	1	1	1	1	1	1	1	1	1	1	1	1	1	1	1	2	3	6	9	11	14	16	20	23	26	29	31	32	34	37	39	41	43	46	48	50	51	51	51	50	50	49	48	47	45	43	40	38	35	32	28	25	22	19	16	13	9	5	3	3	2	2	2	1	1	1	1	1	1	1	1	1	1	1	1	1	1	1	1	1	1	1	1	1	1	0	0	0	0	0	0	0	0	0	0	0	0	0	0	0	0	0	0	0	0	0	0	0	0	0	0	0	0	0	0	0	0	0	0	0	1	1	1	1	1	1	1	1	1	2	5	9	11	11	12	13	15	17	20	22	24	26	27	28	29	30	30	30	31	33	35	38	39	37	35	33	30	28	26	24	21	18	16	14	13	13	13	15	18	21	23	26	29	32	33	34	33	30	27	24	21	17	14	11	8	5	3	2	2	1	1	1	1	1	1	1	1	1	1	1	1	1	1	1	1	1	1	1	1	1	1	1	1	1	1	1	1	2	2	4	7	10	13	16	18	21	23	26	29	31	34	36	40	43	47	50	53	55	57	59	61	62	64	65	67	69	68	66	63	60	58	56	55	54	52	51	49	47	46	43	41	39	37	35	33	31	28	26	25	24	22	21	21	21	23	24	25	25	25	26	27	27	26	25	22	20	16	13	10	7	4	3	2	2	2	1	1	1	1	1	1	1	1	1	1	1	1	1	1	1	1	1	1	1	1	1	1	1	1	1	1	1	1	1	1	1	1	1	1	1	1	1	1	1	1	1	1	1	1	1	1	1	1	1	1	1	2	2	2	3	5	6	7	8	10	11	12	13	14	14	14	14	14	14	13
55	55	55	54	54	53	52	52	51	51	50	49	49	48	48	47	47	46	46	45	45	44	44	43	42	40	39	37	35	34	32	30	28	26	24	23	22	21	20	19	17	16	15	15	15	15	15	15	15	15	15	14	14	14	14	14	14	14	13	13	13	13	13	13	13	13	13	12	12	12	11	11	11	10	10	9	9	8	8	8	8	8	8	7	7	7	7	7	7	7	7	7	7	7	7	7	7	7	7	7	7	7	7	7	7	7	7	7	7	7	7	6	6	7	7	7	7	7	7	7	7	7	7	7	7	7	7	6	6	6	6	6	6	6	6	6	6	6	5	5	5	5	5	5	5	5	5	5	5	5	5	5	5	5	5	5	5	5	5	5	6	6	6	6	6	6	6	5	5	5	5	5	5	5	5	5	5	5	5	5	5	4	4	4	4	5	5	5	5	5	5	5	5	5	5	5	5	5	5	5	5	5	5	5	5	5	5	5	5	5	5	5	5	5	5	5	5	5	5	5	5	5	5	5	5	5	5	5	5	5	5	5	5	5	5	5	4	4	4	4	4	4	4	4	4	4	4	4	4	4	4	4	4	4	4	4	4	4	4	4	4	4	3	3	3	3	3	3	3	3	2	0	0	0	0	0	0	0	0	0	0	0	0	0	0	0	0	0	0	0	0	0	0	0	0	0	0	0	0	0	0	0	0	0	0	0	0	0	0	0	0	0	0	0	0	0	0	0	0	0	0	0	0	0	0	0	0	0	0	0	0	0	0	0	0	0	0	0	0	0	0	0	0	0	0	0	0	0	0	0	0	0	0	0	0	0	0	0	0	0	0	0	0	0	0	0	0	0	0	0	0	0	0	0	0	0	0	0	0	0	0	0	0	0	0	0	0	0	0	0	0	0	0	0	0	0	0	0	0	0	0	0	0	0	0	0	0	0	0	0	0	0	0	0	0	0	0	0	0	0	0	0	0	0	0	0	0	0	0	0	0	0	0	0	0	0	0	0	0	0	0	0	0	0	0	0	0	0	0	0	0	0	0	0	0	0	0	0	0	0	0	0	0	0	0	0	0	0	0	0	0	0	0	0	0	0	0	0	0	0	0	0	0	0	0	0	0	0	0	0	0	0	0	0	0	0	0	0	0	0	0	0	0	0	0	0	0	0	0	0	0	0	0	0	0	0	0	0	0	0	0	0	0	0	0	0	0	0	0	0	0	0	0	0	0	0	0	0	0	0	0	0	0	0	0	0	0	0	0	0	0	0	0	0	0	0	0	1	1	1	1	1	1	1	1	1	1	1	1	1	1	1	1	1	1	1	1	1	1	1	1	2	4	7	10	13	16	20	24	29	32	36	39	42	45	49	52	55	58	61	64	67	70	72	71	68	66	63	60	57	54	52	50	48	45	43	40	38	35	33	30	27	25	22	19	16	12	9	5	2	2	1	1	1	1	1	1	1	1	1	1	1	1	1	1	1	1	1	1	1	2	3	6	9	12	14	17	20	23	26	28	30	31	33	35	38	40	42	44	46	48	48	48	48	47	46	46	45	44	42	40	38	35	32	29	26	23	20	16	13	10	6	4	3	3	2	2	2	1	1	1	1	1	1	1	1	1	1	1	1	1	1	1	1	1	1	1	1	1	1	0	0	0	0	0	0	0	0	0	0	0	0	0	0	0	0	0	0	0	0	0	0	0	0	0	0	0	0	0	0	0	0	0	0	0	1	1	1	1	1	1	1	1	1	2	8	14	16	17	17	18	20	21	24	25	27	29	30	31	32	32	32	32	33	34	37	39	40	39	36	34	32	29	27	24	20	18	16	14	13	12	13	14	16	19	21	24	27	30	32	32	31	29	26	23	20	17	14	11	8	5	3	2	2	1	1	1	1	1	1	1	1	1	1	1	1	1	1	1	1	1	1	1	1	1	1	1	1	1	1	1	1	1	2	3	5	8	11	14	16	19	21	24	26	29	31	34	37	40	44	47	50	52	54	56	58	60	61	63	65	66	67	66	64	61	59	58	57	55	54	53	51	50	48	46	43	41	39	37	35	33	31	29	27	26	25	23	23	23	25	26	27	28	28	29	30	30	29	27	24	21	18	15	12	9	7	5	3	3	2	2	2	1	1	1	1	1	1	1	1	1	1	1	1	1	1	1	1	1	1	1	1	1	1	1	1	1	1	1	1	1	1	1	1	1	1	1	1	1	1	1	1	1	1	1	1	1	1	1	1	1	1	1	2	2	3	3	4	5	6	7	8	9	9	10	10	10	10	9	9
56	56	55	54	53	53	52	52	51	51	50	49	49	48	48	48	47	47	46	45	45	45	44	43	41	40	38	36	34	33	31	29	27	25	24	23	22	20	19	18	17	16	16	16	16	16	15	15	15	15	15	15	14	14	14	14	14	14	14	14	13	13	13	13	13	13	13	13	13	12	12	12	11	11	10	10	9	8	8	8	8	8	7	7	7	7	7	7	7	7	6	6	6	7	7	7	7	7	7	7	7	7	7	7	7	7	7	7	7	7	7	7	7	7	7	7	7	7	7	7	7	7	7	7	7	7	7	7	7	6	6	6	6	6	6	6	6	6	5	5	5	5	5	5	5	5	5	5	5	5	5	5	5	5	5	5	5	5	5	6	6	6	6	6	6	6	6	6	5	5	5	5	5	5	5	5	5	5	5	5	4	4	4	4	4	4	4	5	5	5	5	5	5	5	5	5	5	5	5	5	5	5	5	5	5	5	5	5	5	5	5	5	5	5	5	5	5	5	5	5	5	5	5	5	5	5	5	5	5	5	5	5	5	5	5	4	4	4	4	4	4	4	4	4	4	4	4	4	4	4	4	4	4	4	4	4	4	4	4	4	4	4	4	3	3	3	3	3	3	3	2	1	0	0	0	0	0	0	0	0	0	0	0	0	0	0	0	0	0	0	0	0	0	0	0	0	0	0	0	0	0	0	0	0	0	0	0	0	0	0	0	0	0	0	0	0	0	0	0	0	0	0	0	0	0	0	0	0	0	0	0	0	0	0	0	0	0	0	0	0	0	0	0	0	0	0	0	0	0	0	0	0	0	0	0	0	0	0	0	0	0	0	0	0	0	0	0	0	0	0	0	0	0	0	0	0	0	0	0	0	0	0	0	0	0	0	0	0	0	0	0	0	0	0	0	0	0	0	0	0	0	0	0	0	0	0	0	0	0	0	0	0	0	0	0	0	0	0	0	0	0	0	0	0	0	0	0	0	0	0	0	0	0	0	0	0	0	0	0	0	0	0	0	0	0	0	0	0	0	0	0	0	0	0	0	0	0	0	0	0	0	0	0	0	0	0	0	0	0	0	0	0	0	0	0	0	0	0	0	0	0	0	0	0	0	0	0	0	0	0	0	0	0	0	0	0	0	0	0	0	0	0	0	0	0	0	0	0	0	0	0	0	0	0	0	0	0	0	0	0	0	0	0	0	0	0	0	0	0	0	0	0	0	0	0	0	0	0	0	0	0	0	0	0	0	0	0	0	0	0	0	0	0	0	0	0	0	1	1	1	1	1	1	1	1	1	1	1	1	1	1	1	1	1	1	1	1	1	1	1	1	2	3	6	9	12	15	19	23	27	32	35	38	42	45	49	52	55	58	61	64	66	69	72	72	70	67	64	61	58	55	52	50	48	45	42	39	37	35	32	30	27	24	21	18	15	12	8	5	2	2	1	1	1	1	1	1	1	1	1	1	1	1	1	1	1	1	1	1	1	2	4	7	10	13	16	18	20	23	26	28	29	31	33	35	36	38	40	42	44	45	45	45	44	44	43	42	42	41	39	37	35	32	30	27	23	20	17	14	10	7	4	3	3	2	2	2	2	1	1	1	1	1	1	1	1	1	1	1	1	1	1	1	1	1	1	1	1	0	0	0	0	0	0	0	0	0	0	0	0	0	0	0	0	0	0	0	0	0	0	0	0	0	0	0	0	0	0	0	0	0	0	0	0	1	1	1	1	1	1	1	1	1	1	3	9	15	17	19	21	22	24	26	28	29	31	32	33	33	34	34	34	34	35	36	39	41	41	39	37	35	33	30	27	24	21	18	16	14	13	12	12	13	15	17	19	22	25	28	30	30	29	28	25	22	20	17	15	12	8	5	3	2	2	1	1	1	1	1	1	1	1	1	1	1	1	1	1	1	1	1	1	1	1	1	1	1	1	1	1	1	1	1	2	2	4	6	9	12	14	17	19	22	24	27	29	31	34	37	41	44	46	48	51	53	55	57	59	61	62	63	64	65	64	63	61	59	58	57	56	55	53	52	50	48	46	44	42	40	38	35	33	31	30	28	27	25	25	25	27	28	29	30	31	32	32	32	31	29	25	22	19	17	14	12	10	8	6	4	3	2	2	2	1	1	1	1	1	1	1	1	1	1	1	1	1	1	1	1	1	1	1	1	1	1	1	1	1	1	1	1	1	1	1	1	1	1	1	1	1	1	1	1	1	1	1	1	1	1	1	1	1	1	1	2	2	2	2	3	3	3	4	5	5	5	6	6	6	5	5
56	56	55	54	53	52	52	51	51	50	49	49	48	48	48	47	47	46	46	46	45	45	44	43	41	39	37	35	33	32	30	28	26	24	23	22	21	20	19	18	17	16	16	16	16	16	16	16	15	15	15	15	15	15	14	14	14	14	14	14	14	14	13	14	14	14	14	14	13	13	13	12	12	11	10	10	9	8	8	8	8	7	7	7	7	7	7	7	6	6	6	6	6	7	7	7	7	7	7	8	8	8	8	7	7	7	7	7	7	8	8	7	7	7	7	7	7	7	7	7	7	7	7	7	7	7	7	7	7	7	7	6	6	6	6	6	6	6	5	5	5	5	5	5	5	5	5	5	5	5	5	5	5	5	5	5	5	5	5	6	6	6	6	6	7	7	6	6	6	5	5	5	5	5	5	5	5	5	4	4	4	4	4	4	4	4	4	4	5	5	5	5	5	5	5	5	5	5	5	5	5	5	5	5	5	5	5	5	5	4	4	4	4	5	5	5	5	5	5	5	5	5	5	5	5	5	5	5	5	5	5	5	5	5	5	4	4	4	4	4	4	4	4	4	4	4	4	4	4	4	4	4	4	4	4	4	4	4	4	4	4	4	4	4	4	3	3	3	3	3	3	2	1	0	0	0	0	0	0	0	0	0	0	0	0	0	0	0	0	0	0	0	0	0	0	0	0	0	0	0	0	0	0	0	0	0	0	0	0	0	0	0	0	0	0	0	0	0	0	0	0	0	0	0	0	0	0	0	0	0	0	0	0	0	0	0	0	0	0	0	0	0	0	0	0	0	0	0	0	0	0	0	0	0	0	0	0	0	0	0	0	0	0	0	0	0	0	0	0	0	0	0	0	0	0	0	0	0	0	0	0	0	0	0	0	0	0	0	0	0	0	0	0	0	0	0	0	0	0	0	0	0	0	0	0	0	0	0	0	0	0	0	0	0	0	0	0	0	0	0	0	0	0	0	0	0	0	0	0	0	0	0	0	0	0	0	0	0	0	0	0	0	0	0	0	0	0	0	0	0	0	0	0	0	0	0	0	0	0	0	0	0	0	0	0	0	0	0	0	0	0	0	0	0	0	0	0	0	0	0	0	0	0	0	0	0	0	0	0	0	0	0	0	0	0	0	0	0	0	0	0	0	0	0	0	0	0	0	0	0	0	0	0	0	0	0	0	0	0	0	0	0	0	0	0	0	0	0	0	0	0	0	0	0	0	0	0	0	0	0	0	0	0	0	0	0	0	0	0	0	0	0	0	0	0	0	0	1	1	1	1	1	1	1	1	1	1	1	1	1	1	1	1	1	1	1	1	1	1	1	1	1	2	4	7	11	14	18	22	26	31	34	38	41	45	48	52	55	58	61	63	66	69	72	73	71	68	65	62	59	56	53	50	47	44	41	39	36	34	31	29	26	23	21	18	15	12	8	5	2	1	1	1	1	1	1	1	1	1	1	1	1	1	1	1	1	1	1	1	1	3	5	9	12	15	17	19	21	23	25	27	29	31	33	35	36	38	40	42	43	43	42	41	41	41	40	39	38	37	36	34	32	29	27	24	21	17	14	11	7	4	3	3	3	2	2	2	1	1	1	1	1	1	1	1	1	1	1	1	1	1	1	1	1	1	1	1	1	0	0	0	0	0	0	0	0	0	0	0	0	0	0	0	0	0	0	0	0	0	0	0	0	0	0	0	0	0	0	0	0	0	0	0	0	1	1	1	1	1	1	1	1	1	1	3	9	15	18	21	24	26	28	30	32	33	34	34	35	36	36	36	37	37	38	39	41	43	42	40	38	36	33	30	27	24	21	18	16	15	13	12	12	12	13	15	17	20	23	26	27	27	27	27	25	23	20	17	15	12	9	5	3	2	2	1	1	1	1	1	1	1	1	1	1	1	1	1	1	1	1	1	1	1	1	1	1	1	1	1	1	1	1	1	1	2	3	4	7	10	12	15	17	19	22	24	27	29	31	34	37	40	42	44	47	50	52	55	57	58	60	61	62	62	63	63	62	61	60	58	57	57	55	54	53	51	49	47	45	42	40	38	35	33	32	31	30	28	27	27	28	30	31	32	33	33	33	33	33	30	27	24	21	19	17	15	14	13	11	9	6	4	3	2	2	2	1	1	1	1	1	1	1	1	1	1	1	1	1	1	1	1	1	1	1	1	1	1	1	1	1	1	1	1	1	1	1	1	1	1	1	1	1	1	1	1	1	1	1	1	1	1	1	1	1	1	1	2	2	2	2	2	2	2	3	3	3	3	3	3	2
56	55	54	53	52	52	51	50	50	49	49	48	47	47	46	46	46	46	45	45	45	44	43	42	40	38	36	34	32	31	29	27	26	24	22	22	21	20	19	18	17	17	16	16	16	16	16	16	16	15	15	15	15	15	15	15	14	14	14	14	14	14	14	14	14	14	14	14	14	13	13	13	12	11	10	10	9	8	8	8	8	7	7	7	7	7	7	6	6	6	6	6	7	7	7	7	7	7	8	8	8	8	8	8	8	8	8	8	8	8	8	8	8	8	8	8	8	8	8	7	7	7	7	7	7	7	7	7	7	7	7	7	7	6	6	6	6	6	5	5	5	5	5	5	5	5	5	5	5	5	5	5	5	5	5	5	5	5	6	6	6	6	6	6	7	7	7	6	6	6	5	5	5	5	5	5	5	4	4	4	4	4	4	4	4	4	4	4	5	5	5	5	5	5	5	5	5	5	5	5	5	5	5	5	5	5	5	4	4	4	4	4	4	4	4	4	4	4	5	5	5	5	5	5	5	5	5	5	5	5	5	5	5	5	4	4	4	4	4	4	4	4	4	4	4	4	4	4	4	4	4	4	4	4	4	4	4	4	4	4	4	4	4	4	4	4	3	3	3	3	3	3	2	1	0	0	0	0	0	0	0	0	0	0	0	0	0	0	0	0	0	0	0	0	0	0	0	0	0	0	0	0	0	0	0	0	0	0	0	0	0	0	0	0	0	0	0	0	0	0	0	0	0	0	0	0	0	0	0	0	0	0	0	0	0	0	0	0	0	0	0	0	0	0	0	0	0	0	0	0	0	0	0	0	0	0	0	0	0	0	0	0	0	0	0	0	0	0	0	0	0	0	0	0	0	0	0	0	0	0	0	0	0	0	0	0	0	0	0	0	0	0	0	0	0	0	0	0	0	0	0	0	0	0	0	0	0	0	0	0	0	0	0	0	0	0	0	0	0	0	0	0	0	0	0	0	0	0	0	0	0	0	0	0	0	0	0	0	0	0	0	0	0	0	0	0	0	0	0	0	0	0	0	0	0	0	0	0	0	0	0	0	0	0	0	0	0	0	0	0	0	0	0	0	0	0	0	0	0	0	0	0	0	0	0	0	0	0	0	0	0	0	0	0	0	0	0	0	0	0	0	0	0	0	0	0	0	0	0	0	0	0	0	0	0	0	0	0	0	0	0	0	0	0	0	0	0	0	0	0	0	0	0	0	0	0	0	0	0	0	0	0	0	0	0	0	0	0	0	0	0	0	0	0	0	0	0	1	1	1	1	1	1	1	1	1	1	1	1	1	1	1	1	1	1	1	1	1	1	1	1	1	2	3	6	9	13	17	21	25	30	34	37	41	44	48	51	54	57	60	63	66	69	72	74	71	68	65	62	59	56	53	50	47	44	41	38	36	33	30	28	25	23	20	18	15	12	8	5	2	2	1	1	1	1	1	1	1	1	1	1	1	1	1	1	1	1	1	1	1	3	7	11	13	16	18	20	22	24	26	28	29	31	33	35	37	39	40	42	43	42	40	39	38	37	37	35	35	34	33	31	29	26	23	21	17	14	11	8	5	3	3	3	2	2	2	2	1	1	1	1	1	1	1	1	1	1	1	1	1	1	1	1	1	1	1	1	0	0	0	0	0	0	0	0	0	0	0	0	0	0	0	0	0	0	0	0	0	0	0	0	0	0	0	0	0	0	0	0	0	0	0	0	0	1	1	1	1	1	1	1	1	1	1	3	10	15	19	22	26	29	31	33	34	35	36	36	37	37	38	38	39	41	41	42	44	45	43	40	38	36	33	31	28	24	21	19	16	15	13	12	11	12	13	14	15	17	20	23	23	23	24	24	24	23	20	18	16	13	10	6	3	2	2	1	1	1	1	1	1	1	1	1	1	1	1	1	1	1	1	1	1	1	1	1	1	1	1	1	1	1	1	1	1	1	2	3	5	8	10	13	15	17	20	22	25	27	29	32	34	37	39	41	43	46	49	52	54	56	57	58	59	59	60	62	63	62	62	60	60	59	57	56	55	53	51	49	47	45	43	40	38	36	35	34	32	30	29	29	30	31	32	33	34	34	34	34	33	32	29	26	24	22	20	18	17	16	15	14	11	8	5	3	2	2	2	1	1	1	1	1	1	1	1	1	1	1	1	1	1	1	1	1	1	1	1	1	1	1	1	1	1	1	1	1	1	1	1	1	1	1	1	1	1	1	1	1	1	1	1	1	1	1	1	1	1	1	1	2	2	2	2	2	2	2	2	2	2	2	2
56	55	54	53	52	51	50	49	49	48	47	47	46	46	45	45	45	44	45	44	44	43	43	41	40	38	36	34	32	30	28	27	25	23	22	21	21	20	19	18	18	17	17	17	17	16	16	16	16	16	16	15	15	15	15	15	15	14	14	14	14	14	14	14	14	14	14	14	14	14	14	13	12	12	11	10	9	8	8	8	7	7	7	7	7	7	7	6	6	6	6	6	7	7	7	7	8	8	8	8	8	8	8	8	8	8	8	8	8	8	8	8	8	8	8	8	8	8	8	8	8	7	7	7	7	7	7	7	7	7	7	7	7	7	7	6	6	6	5	5	5	5	4	4	4	4	4	5	5	5	5	5	5	5	5	5	5	5	6	6	6	6	6	6	7	7	7	7	6	6	6	6	5	5	5	5	5	4	4	4	4	4	4	4	4	4	4	4	4	5	5	5	5	5	5	5	5	5	5	5	5	5	5	5	5	5	4	4	4	4	4	4	4	4	4	4	4	4	4	5	5	5	5	5	5	5	5	5	5	5	5	5	5	5	4	4	4	3	3	3	4	4	4	4	4	4	4	4	4	4	4	4	4	4	4	4	4	4	4	4	4	4	4	4	4	4	4	3	3	3	3	3	3	2	0	0	0	0	0	0	0	0	0	0	0	0	0	0	0	0	0	0	0	0	0	0	0	0	0	0	0	0	0	0	0	0	0	0	0	0	0	0	0	0	0	0	0	0	0	0	0	0	0	0	0	0	0	0	0	0	0	0	0	0	0	0	0	0	0	0	0	0	0	0	0	0	0	0	0	0	0	0	0	0	0	0	0	0	0	0	0	0	0	0	0	0	0	0	0	0	0	0	0	0	0	0	0	0	0	0	0	0	0	0	0	0	0	0	0	0	0	0	0	0	0	0	0	0	0	0	0	0	0	0	0	0	0	0	0	0	0	0	0	0	0	0	0	0	0	0	0	0	0	0	0	0	0	0	0	0	0	0	0	0	0	0	0	0	0	0	0	0	0	0	0	0	0	0	0	0	0	0	0	0	0	0	0	0	0	0	0	0	0	0	0	0	0	0	0	0	0	0	0	0	0	0	0	0	0	0	0	0	0	0	0	0	0	0	0	0	0	0	0	0	0	0	0	0	0	0	0	0	0	0	0	0	0	0	0	0	0	0	0	0	0	0	0	0	0	0	0	0	0	0	0	0	0	0	0	0	0	0	0	0	0	0	0	0	0	0	0	0	0	0	0	0	0	0	0	0	0	0	0	0	0	0	0	1	1	1	1	1	1	1	1	1	1	1	1	1	1	1	1	1	1	1	1	1	1	1	1	1	2	3	5	9	12	16	21	25	29	33	36	40	43	47	51	54	57	60	63	66	69	72	74	72	69	66	62	59	56	53	50	47	44	41	38	35	33	30	27	25	22	20	17	15	12	9	5	3	2	1	1	1	1	1	1	1	1	1	1	1	1	1	1	1	1	1	1	2	4	8	12	15	17	19	21	23	26	28	29	31	32	34	36	37	39	41	43	43	42	39	38	36	35	34	33	32	31	30	28	26	23	20	17	14	11	8	5	3	3	3	2	2	2	2	1	1	1	1	1	1	1	1	1	1	1	1	1	1	1	1	1	1	1	1	0	0	0	0	0	0	0	0	0	0	0	0	0	0	0	0	0	0	0	0	0	0	0	0	0	0	0	0	0	0	0	0	0	0	0	0	0	0	1	1	1	1	1	1	1	1	1	1	3	10	16	20	23	27	31	33	35	35	36	37	38	39	40	40	41	42	44	44	45	46	46	43	41	38	36	33	31	28	25	22	20	18	16	14	12	11	11	12	13	14	15	17	19	20	20	21	21	22	22	21	19	17	14	11	7	4	3	2	2	1	1	1	1	1	1	1	1	1	1	1	1	1	1	1	1	1	1	1	1	1	1	1	1	1	1	1	1	1	1	2	2	3	6	8	11	13	15	18	20	23	25	27	30	32	34	36	38	41	44	47	50	52	54	55	56	56	57	58	59	60	61	62	62	61	61	59	58	57	55	54	52	50	48	46	43	41	40	38	36	34	32	31	31	32	33	34	35	35	36	36	35	35	33	31	29	27	25	23	21	20	19	19	17	15	13	10	6	4	3	2	2	1	1	1	1	1	1	1	1	1	1	1	1	1	1	1	1	1	1	1	1	1	1	1	1	1	1	1	1	1	1	1	1	1	1	1	1	1	1	1	1	1	1	1	1	1	1	1	1	1	1	1	1	1	1	2	2	2	2	2	2	2	2	2
56	55	54	52	51	50	49	48	48	47	46	46	45	44	44	44	43	44	44	44	43	43	42	41	40	38	36	33	32	30	28	27	25	23	22	21	21	20	19	19	18	17	17	17	17	17	16	16	16	16	16	16	15	15	15	15	15	15	14	14	14	14	14	14	14	14	14	14	14	15	14	14	13	12	11	10	9	9	8	8	7	7	7	7	7	7	7	6	6	6	7	7	7	8	8	8	8	8	8	8	8	8	8	8	8	8	8	8	8	8	8	9	9	9	9	9	8	8	8	8	8	8	7	7	7	7	7	7	7	7	7	7	7	7	7	6	6	6	5	5	5	4	4	4	4	4	4	4	5	5	5	5	5	5	5	5	5	5	6	6	6	6	6	6	7	7	7	7	7	6	6	6	6	5	5	5	5	4	4	4	4	4	4	4	4	4	4	4	4	5	5	5	5	5	5	5	5	5	5	5	5	5	5	5	4	4	4	4	4	4	4	4	4	4	4	4	4	4	4	4	5	5	5	5	5	5	5	5	5	5	5	5	5	5	4	4	4	3	3	3	3	4	4	4	4	4	4	4	4	4	4	4	4	4	4	4	4	4	4	4	4	4	4	4	4	4	4	4	3	3	3	3	3	3	1	0	0	0	0	0	0	0	0	0	0	0	0	0	0	0	0	0	0	0	0	0	0	0	0	0	0	0	0	0	0	0	0	0	0	0	0	0	0	0	0	0	0	0	0	0	0	0	0	0	0	0	0	0	0	0	0	0	0	0	0	0	0	0	0	0	0	0	0	0	0	0	0	0	0	0	0	0	0	0	0	0	0	0	0	0	0	0	0	0	0	0	0	0	0	0	0	0	0	0	0	0	0	0	0	0	0	0	0	0	0	0	0	0	0	0	0	0	0	0	0	0	0	0	0	0	0	0	0	0	0	0	0	0	0	0	0	0	0	0	0	0	0	0	0	0	0	0	0	0	0	0	0	0	0	0	0	0	0	0	0	0	0	0	0	0	0	0	0	0	0	0	0	0	0	0	0	0	0	0	0	0	0	0	0	0	0	0	0	0	0	0	0	0	0	0	0	0	0	0	0	0	0	0	0	0	0	0	0	0	0	0	0	0	0	0	0	0	0	0	0	0	0	0	0	0	0	0	0	0	0	0	0	0	0	0	0	0	0	0	0	0	0	0	0	0	0	0	0	0	0	0	0	0	0	0	0	0	0	0	0	0	0	0	0	0	0	0	0	0	0	0	0	0	0	0	0	0	0	0	0	0	0	0	1	1	1	1	1	1	1	1	1	1	1	1	1	1	1	1	1	1	1	1	1	1	1	1	1	2	4	8	12	16	20	25	29	32	35	39	42	46	50	53	57	60	63	66	69	72	74	73	69	66	63	60	56	53	50	47	44	41	38	35	33	30	27	25	22	20	17	15	12	9	5	3	2	1	1	1	1	1	1	1	1	1	1	1	1	1	1	1	1	1	1	2	6	10	13	15	18	20	23	25	27	29	31	32	34	35	37	38	40	41	43	43	41	39	37	35	33	32	31	30	29	27	25	23	20	17	14	11	8	5	3	3	3	2	2	2	2	1	1	1	1	1	1	1	1	1	1	1	1	1	1	1	1	1	1	1	1	0	0	0	0	0	0	0	0	0	0	0	0	0	0	0	0	0	0	0	0	0	0	0	0	0	0	0	0	0	0	0	0	0	0	0	0	0	0	1	1	1	1	1	1	1	1	1	1	1	3	10	17	20	24	28	32	34	35	37	38	39	40	40	41	41	42	44	46	47	47	48	47	44	41	39	36	34	31	29	26	24	21	19	17	15	13	11	10	11	12	13	13	14	16	17	17	18	19	19	20	20	19	17	15	13	9	6	4	3	2	1	1	1	1	1	1	1	1	1	1	1	1	1	1	1	1	1	1	1	1	1	1	1	1	1	1	1	1	1	1	1	2	3	4	6	9	11	13	16	18	21	23	25	27	30	32	34	36	39	42	45	47	49	50	52	53	53	54	55	56	57	58	60	61	62	62	62	61	59	58	56	54	52	50	48	46	44	43	41	39	36	34	33	34	34	35	36	36	37	37	37	37	36	35	33	32	30	28	26	24	23	22	21	20	19	17	14	11	7	4	3	2	2	1	1	1	1	1	1	1	1	1	1	1	1	1	1	1	1	1	1	1	1	1	1	1	1	1	1	1	1	1	1	1	1	1	1	1	1	1	1	1	1	1	1	1	1	1	1	1	1	1	1	1	1	1	1	1	1	1	1	1	1	1	1
55	54	53	52	51	50	48	47	47	46	45	44	44	43	43	43	42	43	43	43	43	42	42	41	39	38	36	34	32	30	29	27	25	23	22	22	21	21	20	19	19	18	17	17	17	17	17	17	16	16	16	16	16	16	15	15	15	15	14	15	14	14	14	14	14	14	14	15	15	16	15	15	14	13	11	10	9	9	8	8	7	7	7	7	7	7	7	7	7	7	7	7	8	8	8	8	8	8	8	9	9	9	9	9	9	9	9	9	9	9	9	9	9	9	9	9	9	8	8	8	8	8	8	8	7	7	7	7	7	7	7	7	7	7	7	6	6	6	5	5	5	4	4	4	4	4	4	4	5	5	5	5	5	5	5	5	5	5	6	6	6	6	6	6	7	7	7	7	7	6	6	6	6	5	5	5	5	5	4	4	5	5	4	4	4	4	4	4	4	5	5	5	5	5	5	5	5	5	5	5	5	5	5	4	4	4	4	4	4	4	4	4	4	4	4	4	4	4	4	4	4	4	5	5	5	5	5	5	5	5	5	5	5	4	4	4	4	3	3	3	3	4	4	4	5	5	5	4	4	4	4	4	4	4	4	4	4	4	4	4	4	4	4	4	4	4	4	4	4	3	3	3	3	3	2	1	0	0	0	0	0	0	0	0	0	0	0	0	0	0	0	0	0	0	0	0	0	0	0	0	0	0	0	0	0	0	0	0	0	0	0	0	0	0	0	0	0	0	0	0	0	0	0	0	0	0	0	0	0	0	0	0	0	0	0	0	0	0	0	0	0	0	0	0	0	0	0	0	0	0	0	0	0	0	0	0	0	0	0	0	0	0	0	0	0	0	0	0	0	0	0	0	0	0	0	0	0	0	0	0	0	0	0	0	0	0	0	0	0	0	0	0	0	0	0	0	0	0	0	0	0	0	0	0	0	0	0	0	0	0	0	0	0	0	0	0	0	0	0	0	0	0	0	0	0	0	0	0	0	0	0	0	0	0	0	0	0	0	0	0	0	0	0	0	0	0	0	0	0	0	0	0	0	0	0	0	0	0	0	0	0	0	0	0	0	0	0	0	0	0	0	0	0	0	0	0	0	0	0	0	0	0	0	0	0	0	0	0	0	0	0	0	0	0	0	0	0	0	0	0	0	0	0	0	0	0	0	0	0	0	0	0	0	0	0	0	0	0	0	0	0	0	0	0	0	0	0	0	0	0	0	0	0	0	0	0	0	0	0	0	0	0	0	0	0	0	0	0	0	0	0	0	0	0	0	0	0	0	0	1	1	1	1	1	1	1	1	1	1	1	1	1	1	1	1	1	1	1	1	1	1	1	1	2	4	7	11	15	20	25	29	32	35	38	42	45	49	52	56	60	63	66	69	71	74	73	70	67	63	60	57	54	51	48	45	42	39	36	33	31	28	25	23	20	18	15	12	9	5	3	2	1	1	1	1	1	1	1	1	1	1	1	1	1	1	1	1	1	1	3	6	10	13	15	18	21	23	26	28	31	32	34	36	37	39	40	41	43	44	43	40	38	36	33	32	30	29	27	26	24	22	20	17	15	12	9	6	4	3	3	3	2	2	2	1	1	1	1	1	1	1	1	1	1	1	1	1	1	1	1	1	1	1	1	0	0	0	0	0	0	0	0	0	0	0	0	0	0	0	0	0	0	0	0	0	0	0	0	0	0	0	0	0	0	0	0	0	0	0	0	0	0	0	1	1	1	1	1	1	1	1	1	1	1	3	10	16	20	24	28	32	35	36	38	39	39	39	40	40	40	41	43	45	45	46	47	47	45	43	40	37	35	33	30	27	25	23	21	18	16	14	12	10	10	10	11	12	13	14	14	15	15	16	17	18	19	19	18	17	15	12	10	7	4	2	2	1	1	1	1	1	1	1	1	1	1	1	1	1	1	1	1	1	1	1	1	1	1	1	1	1	1	1	1	1	1	2	2	3	5	7	10	12	14	16	18	21	23	26	28	30	33	35	37	40	43	45	46	47	48	49	50	51	52	53	55	56	57	58	59	61	61	62	62	60	58	57	55	53	51	49	47	45	43	41	39	37	36	36	37	37	37	38	38	38	38	38	38	37	36	35	33	31	29	27	26	25	25	23	22	20	17	15	11	7	4	2	2	2	2	1	1	1	1	1	1	1	1	1	1	1	1	1	1	1	1	1	1	1	1	1	1	1	1	1	1	1	1	1	1	1	1	1	1	1	1	1	1	1	1	1	1	1	1	1	1	1	1	1	1	1	1	1	1	1	1	1	1	1	1
54	53	52	51	50	49	48	47	46	45	44	43	43	42	42	41	41	42	42	42	42	42	41	40	39	38	36	34	33	31	29	27	25	24	23	22	22	21	20	20	19	18	18	17	17	17	17	17	17	16	16	16	16	16	15	15	15	15	14	15	14	14	14	15	14	15	15	16	16	16	16	15	14	12	10	10	10	9	8	8	8	7	7	7	7	7	7	7	7	7	8	8	8	8	8	8	8	9	9	9	9	9	9	9	9	9	9	9	9	9	9	9	9	9	9	9	9	9	8	8	8	8	8	8	8	7	7	7	7	7	7	7	7	7	6	6	6	6	5	5	4	4	4	4	4	4	4	4	5	5	5	5	5	5	5	5	5	5	6	6	6	6	6	6	6	7	7	7	7	7	6	6	6	6	5	5	5	5	4	4	4	4	3	3	3	4	4	4	5	5	5	5	5	5	5	5	5	5	5	5	5	5	5	4	4	4	4	4	4	3	3	3	3	4	4	4	4	4	4	4	4	4	4	5	5	5	5	5	5	5	5	5	5	4	4	4	4	3	3	3	3	3	4	4	4	4	5	5	4	4	4	4	4	4	4	4	4	4	4	4	4	4	4	4	4	4	4	4	4	4	3	3	3	3	3	2	0	0	0	0	0	0	0	0	0	0	0	0	0	0	0	0	0	0	0	0	0	0	0	0	0	0	0	0	0	0	0	0	0	0	0	0	0	0	0	0	0	0	0	0	0	0	0	0	0	0	0	0	0	0	0	0	0	0	0	0	0	0	0	0	0	0	0	0	0	0	0	0	0	0	0	0	0	0	0	0	0	0	0	0	0	0	0	0	0	0	0	0	0	0	0	0	0	0	0	0	0	0	0	0	0	0	0	0	0	0	0	0	0	0	0	0	0	0	0	0	0	0	0	0	0	0	0	0	0	0	0	0	0	0	0	0	0	0	0	0	0	0	0	0	0	0	0	0	0	0	0	0	0	0	0	0	0	0	0	0	0	0	0	0	0	0	0	0	0	0	0	0	0	0	0	0	0	0	0	0	0	0	0	0	0	0	0	0	0	0	0	0	0	0	0	0	0	0	0	0	0	0	0	0	0	0	0	0	0	0	0	0	0	0	0	0	0	0	0	0	0	0	0	0	0	0	0	0	0	0	0	0	0	0	0	0	0	0	0	0	0	0	0	0	0	0	0	0	0	0	0	0	0	0	0	0	0	0	0	0	0	0	0	0	0	0	0	0	0	0	0	0	0	0	0	0	0	0	0	0	0	0	0	1	1	1	1	1	1	1	1	1	1	1	1	1	1	1	1	1	1	1	1	1	1	1	1	2	3	6	10	15	20	24	27	30	34	37	41	44	48	51	55	59	63	65	68	70	73	73	70	67	64	61	58	55	52	49	46	43	40	37	34	32	29	27	24	21	18	15	11	8	5	3	2	1	1	1	1	1	1	1	1	1	1	1	1	1	1	1	1	1	2	4	7	10	13	15	18	20	23	26	29	31	33	35	37	39	41	42	43	45	45	43	40	38	35	33	31	29	27	26	24	22	19	17	15	13	10	8	5	3	3	3	2	2	2	1	1	1	1	1	1	1	1	1	1	1	1	1	1	1	1	1	1	1	1	0	0	0	0	0	0	0	0	0	0	0	0	0	0	0	0	0	0	0	0	0	0	0	0	0	0	0	0	0	0	0	0	0	0	0	0	0	0	0	0	1	1	1	1	1	1	1	1	1	1	1	3	10	16	20	24	28	31	34	36	38	38	38	38	37	38	38	39	40	42	43	44	45	47	46	44	41	39	36	34	31	29	27	24	22	19	17	14	12	11	9	9	10	11	11	12	13	13	13	14	15	16	17	18	19	18	17	15	13	10	6	3	2	2	1	1	1	1	1	1	1	1	1	1	1	1	1	1	1	1	1	1	1	1	1	1	1	1	1	1	1	1	1	1	2	2	4	6	8	10	12	14	16	19	21	24	26	28	31	33	36	38	40	42	43	43	44	45	46	47	49	50	52	53	55	56	57	58	60	62	63	62	61	59	57	55	54	52	50	48	46	44	42	41	40	40	39	39	39	40	40	40	40	40	39	38	37	37	35	33	31	30	29	28	28	27	25	22	20	18	15	11	7	4	3	2	2	2	1	1	1	1	1	1	1	1	1	1	1	1	1	1	1	1	1	1	1	1	1	1	1	1	1	1	1	1	1	1	1	1	1	1	1	1	1	1	1	1	1	1	1	1	1	1	1	1	1	1	1	1	1	1	1	1	1	1	1
53	51	50	50	49	48	47	46	45	44	43	42	41	41	40	40	40	41	41	41	41	41	40	40	39	38	36	35	33	31	29	28	26	25	24	23	22	22	21	20	20	19	18	18	18	17	17	17	17	16	16	16	16	16	16	15	15	15	15	14	15	14	14	14	15	15	16	16	17	17	16	15	14	11	10	10	10	9	8	8	8	8	8	7	7	7	7	7	8	8	8	8	8	9	9	9	9	9	9	9	9	9	9	9	9	9	9	9	9	9	9	9	10	10	9	9	9	9	9	9	8	8	8	8	8	8	8	7	7	7	7	7	7	6	6	6	6	5	5	5	4	4	4	4	4	4	4	5	5	5	5	5	5	5	5	5	5	5	5	6	6	6	6	6	6	6	7	7	7	7	7	6	6	6	6	5	5	5	4	4	3	3	3	3	3	4	4	5	5	5	5	5	5	5	5	5	5	5	5	5	5	5	5	4	4	4	4	4	4	3	3	3	3	3	4	4	4	4	4	4	4	4	4	4	5	5	5	5	5	5	5	5	5	4	4	4	4	3	3	3	3	3	4	4	4	4	4	5	5	4	4	5	5	5	4	4	4	4	4	4	4	4	4	4	4	4	4	4	4	4	4	3	3	3	3	3	2	0	0	0	0	0	0	0	0	0	0	0	0	0	0	0	0	0	0	0	0	0	0	0	0	0	0	0	0	0	0	0	0	0	0	0	0	0	0	0	0	0	0	0	0	0	0	0	0	0	0	0	0	0	0	0	0	0	0	0	0	0	0	0	0	0	0	0	0	0	0	0	0	0	0	0	0	0	0	0	0	0	0	0	0	0	0	0	0	0	0	0	0	0	0	0	0	0	0	0	0	0	0	0	0	0	0	0	0	0	0	0	0	0	0	0	0	0	0	0	0	0	0	0	0	0	0	0	0	0	0	0	0	0	0	0	0	0	0	0	0	0	0	0	0	0	0	0	0	0	0	0	0	0	0	0	0	0	0	0	0	0	0	0	0	0	0	0	0	0	0	0	0	0	0	0	0	0	0	0	0	0	0	0	0	0	0	0	0	0	0	0	0	0	0	0	0	0	0	0	0	0	0	0	0	0	0	0	0	0	0	0	0	0	0	0	0	0	0	0	0	0	0	0	0	0	0	0	0	0	0	0	0	0	0	0	0	0	0	0	0	0	0	0	0	0	0	0	0	0	0	0	0	0	0	0	0	0	0	0	0	0	0	0	0	0	0	0	0	0	0	0	0	0	0	0	0	0	0	0	0	0	0	0	1	1	1	1	1	1	1	1	1	1	1	1	1	1	1	1	1	1	1	1	1	1	1	2	3	6	10	15	19	22	26	29	33	36	40	43	47	50	54	58	61	64	66	69	72	73	71	67	64	61	58	55	53	50	47	44	41	38	36	33	31	28	25	22	19	15	11	8	5	2	1	1	1	1	1	1	1	1	1	1	1	1	1	1	1	1	1	1	2	4	7	10	12	14	17	20	23	26	29	32	34	36	38	40	42	44	45	47	46	44	41	38	35	33	31	29	27	25	23	20	18	16	13	11	9	6	4	3	3	2	2	2	1	1	1	1	1	1	1	1	1	1	1	1	1	1	1	1	1	1	1	1	0	0	0	0	0	0	0	0	0	0	0	0	0	0	0	0	0	0	0	0	0	0	0	0	0	0	0	0	0	0	0	0	0	0	0	0	0	0	0	0	0	1	1	1	1	1	1	1	1	1	1	1	4	10	16	20	23	27	31	34	36	37	37	36	36	35	35	36	37	38	39	40	42	43	45	46	45	43	40	37	35	32	30	28	25	22	20	17	15	13	11	10	9	9	9	10	11	11	11	12	13	14	15	16	17	19	20	18	17	15	12	6	3	2	2	1	1	1	1	1	1	1	1	1	1	1	1	1	1	1	1	1	1	1	1	1	1	1	1	1	1	1	1	1	1	2	2	3	4	7	9	11	13	15	17	19	22	24	27	29	31	34	36	38	39	39	40	41	41	43	44	45	47	49	51	52	54	55	57	59	61	63	64	63	61	59	58	56	54	52	51	49	47	45	44	43	42	42	42	42	42	42	42	42	41	40	38	37	36	35	33	33	32	32	31	31	30	28	25	23	20	17	14	10	7	4	3	2	2	2	2	1	1	1	1	1	1	1	1	1	1	1	1	1	1	1	1	1	1	1	1	1	1	1	1	1	1	1	1	1	1	1	1	1	1	1	1	1	1	1	1	1	1	1	1	1	1	1	1	1	1	1	1	1	1	1	1	1
51	50	49	48	47	46	45	44	44	43	42	41	40	40	39	39	39	40	40	40	40	39	39	39	38	37	36	35	33	31	30	28	27	26	25	24	23	22	22	21	20	20	19	18	18	18	17	17	17	16	16	16	16	16	16	15	15	15	15	14	14	14	15	15	15	16	16	17	16	17	16	15	13	11	10	10	10	9	9	8	9	9	8	8	7	7	7	8	8	8	8	9	9	9	9	9	9	9	9	9	9	10	10	9	9	9	9	9	9	9	9	10	10	10	10	10	9	9	9	9	9	8	8	8	8	8	8	8	7	7	7	7	7	6	6	6	5	5	5	5	5	4	4	4	4	4	5	5	5	5	5	5	5	5	5	5	5	5	5	5	6	6	6	6	6	6	7	7	7	7	7	6	6	6	6	5	5	5	4	3	2	2	3	3	3	4	4	5	5	5	5	5	5	5	5	5	5	5	5	5	5	5	5	5	4	4	4	4	4	3	3	3	3	3	3	3	4	4	4	4	4	4	4	4	4	4	4	5	5	5	5	5	5	4	4	4	4	3	3	3	3	3	4	4	4	4	4	4	5	5	5	5	5	5	5	4	4	4	4	4	4	4	4	4	4	4	4	4	4	4	4	4	3	3	3	3	3	1	0	0	0	0	0	0	0	0	0	0	0	0	0	0	0	0	0	0	0	0	0	0	0	0	0	0	0	0	0	0	0	0	0	0	0	0	0	0	0	0	0	0	0	0	0	0	0	0	0	0	0	0	0	0	0	0	0	0	0	0	0	0	0	0	0	0	0	0	0	0	0	0	0	0	0	0	0	0	0	0	0	0	0	0	0	0	0	0	0	0	0	0	0	0	0	0	0	0	0	0	0	0	0	0	0	0	0	0	0	0	0	0	0	0	0	0	0	0	0	0	0	0	0	0	0	0	0	0	0	0	0	0	0	0	0	0	0	0	0	0	0	0	0	0	0	0	0	0	0	0	0	0	0	0	0	0	0	0	0	0	0	0	0	0	0	0	0	0	0	0	0	0	0	0	0	0	0	0	0	0	0	0	0	0	0	0	0	0	0	0	0	0	0	0	0	0	0	0	0	0	0	0	0	0	0	0	0	0	0	0	0	0	0	0	0	0	0	0	0	0	0	0	0	0	0	0	0	0	0	0	0	0	0	0	0	0	0	0	0	0	0	0	0	0	0	0	0	0	0	0	0	0	0	0	0	0	0	0	0	0	0	0	0	0	0	0	0	0	0	0	0	0	0	0	0	0	0	0	0	0	0	0	0	1	1	1	1	1	1	1	1	1	1	1	1	1	1	1	1	1	1	1	1	1	1	2	2	5	10	14	18	21	25	28	32	35	39	42	46	50	53	57	60	63	65	68	70	73	71	68	65	62	59	56	53	50	47	44	42	39	36	34	31	29	26	22	18	14	11	7	4	2	1	1	1	1	1	1	1	1	1	1	1	1	1	1	1	1	1	1	2	4	7	9	12	14	16	19	22	26	29	32	35	38	40	42	44	45	47	48	47	44	41	38	36	33	31	28	26	24	22	19	17	14	12	10	8	5	3	3	3	2	2	2	1	1	1	1	1	1	1	1	1	1	1	1	1	1	1	1	1	1	1	0	0	0	0	0	0	0	0	0	0	0	0	0	0	0	0	0	0	0	0	0	0	0	0	0	0	0	0	0	0	0	0	0	0	0	0	0	0	0	0	0	0	1	1	1	1	1	1	1	1	1	1	1	4	11	16	20	23	27	30	33	35	36	36	35	34	33	33	34	34	35	36	38	40	41	43	45	45	43	40	38	36	34	31	28	25	22	20	17	14	13	11	9	8	8	8	9	9	10	10	10	11	12	13	14	15	17	19	20	18	16	12	6	3	2	2	1	1	1	1	1	1	1	1	1	1	1	1	1	1	1	1	1	1	1	1	1	1	1	1	1	1	1	1	1	1	1	2	2	3	5	7	9	11	13	15	18	20	23	25	27	29	31	33	35	36	36	36	37	37	39	40	42	44	47	48	50	52	54	55	57	60	62	65	65	64	62	60	58	56	55	53	51	49	48	46	46	45	45	44	44	44	44	44	43	41	38	36	35	34	33	32	31	31	31	31	32	31	30	28	25	23	20	17	13	10	7	5	3	3	2	2	2	1	1	1	1	1	1	1	1	1	1	1	1	1	1	1	1	1	1	1	1	1	1	1	1	1	1	1	1	1	1	1	1	1	1	1	1	1	1	1	1	1	1	1	1	1	1	1	1	1	1	1	1	1	1	1	1
49	49	48	47	46	45	44	43	42	42	41	40	40	39	39	38	38	38	37	37	38	37	37	37	37	37	36	34	33	31	30	29	28	27	26	25	24	23	23	22	21	20	19	18	18	18	17	17	17	17	16	16	16	16	16	15	15	15	15	14	15	15	15	15	15	16	16	17	16	16	16	14	12	11	10	10	10	9	9	9	9	9	9	8	8	8	8	8	8	8	9	9	9	9	9	9	9	9	9	10	10	10	10	10	10	10	10	10	10	10	10	10	10	10	10	10	10	9	9	9	9	9	9	8	8	8	8	8	8	7	7	7	6	6	6	6	5	5	5	5	5	5	4	4	4	5	5	5	5	5	5	5	5	5	5	5	5	5	5	5	6	6	6	6	6	6	7	7	7	7	7	7	6	6	6	5	5	5	4	3	2	2	3	3	3	4	4	5	5	5	5	5	5	5	5	5	5	5	5	5	5	5	5	5	5	4	4	4	3	3	3	3	3	3	3	3	3	4	4	4	4	4	4	4	4	4	4	4	5	5	5	5	5	4	4	4	4	3	3	3	3	3	4	4	4	4	4	4	4	5	5	5	5	5	5	5	4	4	4	4	4	4	4	4	5	4	4	4	4	4	4	4	4	3	3	3	3	3	1	0	0	0	0	0	0	0	0	0	0	0	0	0	0	0	0	0	0	0	0	0	0	0	0	0	0	0	0	0	0	0	0	0	0	0	0	0	0	0	0	0	0	0	0	0	0	0	0	0	0	0	0	0	0	0	0	0	0	0	0	0	0	0	0	0	0	0	0	0	0	0	0	0	0	0	0	0	0	0	0	0	0	0	0	0	0	0	0	0	0	0	0	0	0	0	0	0	0	0	0	0	0	0	0	0	0	0	0	0	0	0	0	0	0	0	0	0	0	0	0	0	0	0	0	0	0	0	0	0	0	0	0	0	0	0	0	0	0	0	0	0	0	0	0	0	0	0	0	0	0	0	0	0	0	0	0	0	0	0	0	0	0	0	0	0	0	0	0	0	0	0	0	0	0	0	0	0	0	0	0	0	0	0	0	0	0	0	0	0	0	0	0	0	0	0	0	0	0	0	0	0	0	0	0	0	0	0	0	0	0	0	0	0	0	0	0	0	0	0	0	0	0	0	0	0	0	0	0	0	0	0	0	0	0	0	0	0	0	0	0	0	0	0	0	0	0	0	0	0	0	0	0	0	0	0	0	0	0	0	0	0	0	0	0	0	0	0	0	0	0	0	0	0	0	0	0	0	0	0	0	0	0	1	1	1	1	1	1	1	1	1	1	1	1	1	1	1	1	1	1	1	1	1	1	2	2	5	9	13	17	20	24	27	31	34	38	41	45	49	52	56	59	61	64	66	69	72	72	69	66	63	60	57	53	50	47	45	42	39	37	34	32	29	25	22	18	14	10	7	4	2	1	1	1	1	1	1	1	1	1	1	1	1	1	1	1	1	1	1	2	5	7	10	12	14	16	19	23	26	29	32	36	39	41	43	45	47	49	49	47	44	41	39	36	33	30	28	25	23	21	18	16	13	11	9	7	4	3	3	2	2	2	1	1	1	1	1	1	1	1	1	1	1	1	1	1	1	1	1	1	1	0	0	0	0	0	0	0	0	0	0	0	0	0	0	0	0	0	0	0	0	0	0	0	0	0	0	0	0	0	0	0	0	0	0	0	0	0	0	0	0	0	0	1	1	1	1	1	1	1	1	1	1	1	2	5	11	16	19	22	26	30	33	35	35	34	33	32	31	31	31	31	32	34	35	37	39	41	43	45	44	41	39	36	34	31	28	25	22	19	16	13	11	10	8	7	7	7	7	8	8	8	8	9	10	11	13	14	16	19	20	18	16	12	7	3	2	2	1	1	1	1	1	1	1	1	1	1	1	1	1	1	1	1	1	1	1	1	1	1	1	1	1	1	1	1	1	1	1	2	2	3	4	6	8	10	12	14	16	18	21	23	25	27	29	31	32	33	33	33	33	34	35	37	39	42	44	46	47	49	52	54	56	59	61	64	66	66	64	62	60	58	57	55	53	52	50	49	49	48	48	47	47	46	46	45	43	40	37	35	33	32	30	29	28	27	28	28	29	29	28	28	26	25	22	19	16	13	10	8	6	4	3	3	2	2	2	1	1	1	1	1	1	1	1	1	1	1	1	1	1	1	1	1	1	1	1	1	1	1	1	1	1	1	1	1	1	1	1	1	1	1	1	1	1	1	1	1	1	1	1	1	1	1	1	1	1	1	1	1	1
48	47	47	46	45	44	43	42	41	41	40	40	39	38	38	37	37	36	36	36	36	36	36	36	36	36	35	34	32	31	30	29	28	28	27	26	25	24	23	23	22	21	20	19	18	18	18	17	17	17	17	16	16	16	16	15	15	15	15	15	15	15	15	15	16	16	16	16	16	16	15	13	12	11	11	10	10	9	9	9	9	9	9	9	8	8	8	8	8	8	9	9	9	9	9	9	9	10	10	10	10	10	10	10	10	10	10	10	10	10	10	10	10	10	10	10	10	10	10	9	9	9	9	9	8	8	8	8	8	7	7	7	6	6	6	6	5	5	5	5	5	5	5	5	5	5	5	5	5	5	5	5	5	5	5	5	5	5	5	5	5	6	6	6	6	6	6	7	7	7	7	7	7	6	6	6	5	5	5	4	3	2	3	3	3	4	4	5	5	5	5	5	5	5	5	5	5	5	5	5	5	5	5	5	5	4	4	4	3	3	3	3	3	3	3	3	3	4	4	4	4	4	4	4	3	3	4	4	4	4	5	5	5	4	4	4	4	4	3	4	4	4	4	4	4	4	4	4	4	4	5	5	5	5	5	5	5	4	4	4	4	4	4	4	4	5	4	4	4	4	4	4	4	3	3	3	3	3	2	0	0	0	0	0	0	0	0	0	0	0	0	0	0	0	0	0	0	0	0	0	0	0	0	0	0	0	0	0	0	0	0	0	0	0	0	0	0	0	0	0	0	0	0	0	0	0	0	0	0	0	0	0	0	0	0	0	0	0	0	0	0	0	0	0	0	0	0	0	0	0	0	0	0	0	0	0	0	0	0	0	0	0	0	0	0	0	0	0	0	0	0	0	0	0	0	0	0	0	0	0	0	0	0	0	0	0	0	0	0	0	0	0	0	0	0	0	0	0	0	0	0	0	0	0	0	0	0	0	0	0	0	0	0	0	0	0	0	0	0	0	0	0	0	0	0	0	0	0	0	0	0	0	0	0	0	0	0	0	0	0	0	0	0	0	0	0	0	0	0	0	0	0	0	0	0	0	0	0	0	0	0	0	0	0	0	0	0	0	0	0	0	0	0	0	0	0	0	0	0	0	0	0	0	0	0	0	0	0	0	0	0	0	0	0	0	0	0	0	0	0	0	0	0	0	0	0	0	0	0	0	0	0	0	0	0	0	0	0	0	0	0	0	0	0	0	0	0	0	0	0	0	0	0	0	0	0	0	0	0	0	0	0	0	0	0	0	0	0	0	0	0	0	0	0	0	0	0	0	0	0	0	0	1	1	1	1	1	1	1	1	1	1	1	1	1	1	1	1	1	1	1	1	1	1	2	4	8	13	16	20	23	26	30	33	37	40	44	48	51	55	57	60	63	66	69	71	71	69	67	64	61	57	53	50	47	45	42	39	36	34	31	28	24	21	17	14	10	6	3	2	1	1	1	1	1	1	1	1	1	1	1	1	1	1	1	1	1	1	3	5	8	10	13	15	18	20	23	26	30	32	36	39	43	45	47	49	51	51	48	45	42	39	36	33	30	27	25	22	20	17	15	12	10	8	6	4	3	3	2	2	2	1	1	1	1	1	1	1	1	1	1	1	1	1	1	1	1	1	1	1	0	0	0	0	0	0	0	0	0	0	0	0	0	0	0	0	0	0	0	0	0	0	0	0	0	0	0	0	0	0	0	0	0	0	0	0	0	0	0	0	0	0	1	1	1	1	1	1	1	1	1	1	1	2	4	10	15	18	22	25	29	32	34	33	32	31	29	28	27	27	28	29	31	33	35	37	39	41	43	44	41	38	36	34	31	27	24	21	18	15	12	10	8	7	7	7	7	6	6	7	7	7	7	8	10	12	14	16	19	20	18	15	11	7	3	2	2	1	1	1	1	1	1	1	1	1	1	1	1	1	1	1	1	1	1	1	1	1	1	1	1	1	1	1	1	1	1	1	1	2	2	3	5	6	8	10	12	14	17	19	21	23	25	27	29	30	30	31	31	32	32	33	34	36	39	41	43	46	48	50	53	55	58	60	63	66	67	66	64	62	60	59	57	55	54	53	52	52	51	51	50	49	49	47	45	42	39	36	34	31	29	28	26	25	24	25	26	27	26	26	25	24	24	23	21	19	16	13	10	8	6	5	4	3	2	2	2	1	1	1	1	1	1	1	1	1	1	1	1	1	1	1	1	1	1	1	1	1	1	1	1	1	1	1	1	1	1	1	1	1	1	1	1	1	1	1	1	1	1	1	1	1	1	1	1	1	1	1	1	1
47	46	45	45	44	43	42	41	40	40	39	39	38	38	37	37	36	36	35	35	35	35	35	35	35	35	34	33	32	31	30	29	29	28	27	26	25	25	24	23	22	21	20	19	18	18	18	18	17	17	17	16	16	16	16	16	15	15	15	15	15	15	15	15	15	15	16	16	16	15	14	12	11	11	11	10	10	10	10	10	9	9	9	9	9	9	9	9	9	9	9	9	9	9	9	10	10	10	10	10	10	10	10	10	10	10	10	11	10	10	10	10	10	10	10	10	10	10	10	10	10	9	9	9	9	8	8	8	8	7	7	7	7	6	6	6	5	5	5	5	5	5	5	5	5	5	5	5	5	5	5	5	5	5	5	5	5	5	5	5	5	6	6	6	6	6	6	7	7	7	7	7	7	7	6	6	6	5	5	4	3	3	3	3	3	4	4	5	5	5	5	5	5	5	5	5	5	5	5	5	5	5	5	5	5	4	4	4	4	3	3	3	3	3	3	3	3	3	4	4	4	4	4	4	3	3	3	4	4	4	4	4	4	4	4	4	4	4	4	4	4	4	4	4	4	4	4	4	4	4	5	5	5	5	5	5	5	4	4	4	4	4	4	4	4	5	4	4	4	4	4	4	4	4	3	3	3	3	3	1	0	0	0	0	0	0	0	0	0	0	0	0	0	0	0	0	0	0	0	0	0	0	0	0	0	0	0	0	0	0	0	0	0	0	0	0	0	0	0	0	0	0	0	0	0	0	0	0	0	0	0	0	0	0	0	0	0	0	0	0	0	0	0	0	0	0	0	0	0	0	0	0	0	0	0	0	0	0	0	0	0	0	0	0	0	0	0	0	0	0	0	0	0	0	0	0	0	0	0	0	0	0	0	0	0	0	0	0	0	0	0	0	0	0	0	0	0	0	0	0	0	0	0	0	0	0	0	0	0	0	0	0	0	0	0	0	0	0	0	0	0	0	0	0	0	0	0	0	0	0	0	0	0	0	0	0	0	0	0	0	0	0	0	0	0	0	0	0	0	0	0	0	0	0	0	0	0	0	0	0	0	0	0	0	0	0	0	0	0	0	0	0	0	0	0	0	0	0	0	0	0	0	0	0	0	0	0	0	0	0	0	0	0	0	0	0	0	0	0	0	0	0	0	0	0	0	0	0	0	0	0	0	0	0	0	0	0	0	0	0	0	0	0	0	0	0	0	0	0	0	0	0	0	0	0	0	0	0	0	0	0	0	0	0	0	0	0	0	0	0	0	0	0	0	0	0	0	0	0	0	0	0	0	1	1	1	1	1	1	1	1	1	1	1	1	1	1	1	1	1	1	1	1	1	2	3	7	12	15	19	22	26	29	32	36	40	43	47	50	54	56	59	62	65	68	70	71	69	67	65	61	57	53	50	47	44	41	39	36	33	30	27	23	20	17	13	9	5	3	2	1	1	1	1	1	1	1	1	1	1	1	1	1	1	1	1	1	1	3	6	9	12	14	17	20	22	25	28	31	33	36	40	43	47	49	51	53	53	51	47	44	39	35	32	29	27	24	22	19	17	14	11	8	6	5	3	3	3	2	2	2	1	1	1	1	1	1	1	1	1	1	1	1	1	1	1	1	1	1	0	0	0	0	0	0	0	0	0	0	0	0	0	0	0	0	0	0	0	0	0	0	0	0	0	0	0	0	0	0	0	0	0	0	0	0	0	0	0	0	0	0	0	1	1	1	1	1	1	1	1	1	1	1	2	4	9	13	17	21	24	28	31	32	31	30	28	26	24	24	24	25	26	29	31	33	35	38	40	42	43	41	38	36	33	30	26	23	20	16	13	11	8	7	7	7	6	6	5	5	5	6	6	6	7	9	11	13	16	19	20	18	14	11	7	4	2	2	1	1	1	1	1	1	1	1	1	1	1	1	1	1	1	1	1	1	1	1	1	1	1	1	1	1	1	1	1	1	1	1	2	2	2	3	5	7	9	11	13	15	17	19	21	23	25	26	28	28	29	30	31	31	32	32	34	37	39	42	45	48	50	52	55	57	60	63	65	67	68	66	64	62	60	59	57	56	56	55	54	54	53	52	51	50	47	44	41	39	36	33	31	28	26	24	22	21	22	24	25	24	23	22	22	21	21	20	19	16	14	12	10	9	7	6	4	3	2	2	2	1	1	1	1	1	1	1	1	1	1	1	1	1	1	1	1	1	1	1	1	1	1	1	1	1	1	1	1	1	1	1	1	1	1	1	1	1	1	1	1	1	1	1	1	1	1	1	1	1	1	1	1
