27	27	27	28	28	29	29	30	30	31	31	31	32	32	32	33	33	34	34	34	34	35	36	36	37	39	40	42	43	45	46	48	49	51	53	55	57	59	62	64	65	65	64	64	63	63	63	62	62	64	66	68	71	73	74	75	77	78	79	79	80	81	81	81	82	82	83	85	85	86	87	87	87	88	88	88	88	87	86	84	83	82	81	82	83	85	87	89	91	92	93	94	95	97	100	102	105	107	109	111	113	115	118	120	123	126	128	128	128	127	127	128	129	130	130	131	132	133	134	136	137	139	141	142	144	145	147	148	149	150	150	150	150	149	147	145	144	142	140	138	136	133	131	129	128	129	130	131	132	134	134	135	136	137	138	138	139	140	141	141	140	139	137	135	134	132	129	125	122	119	117	118	122	125	129	133	137	141	145	147	147	146	146	145	145	144	144	144	145	146	145	145	145	146	147	148	149	150	153	155	158	160	163	166	167	166	164	161	159	157	155	153	150	148	145	142	138	135	132	129	126	123	120	117	114	111	108	105	103	100	97	94	91	87	85	84	86	88	92	94	94	92	91	91	92	95	98	99	99	99	99	100	101	101	100	99	98	98	99	98	97	95	93	91	90	87	84	82	79	76	73	70	68	66	64	62	61	60	59	59	59	59	60	61	62	63	65	66	67	67	67	66	66	65	65	65	65	65	64	63	63	62	62	61	60	60	59	58	57	56	55	55	54	54	52	50	48	47	47	47	46	46	46	46	46	46	46	45	45	46	46	46	46	46	46	46	46	47	47	47	47	47	47	47	47	46	46	46	47	47	47	48	48	48	48	48	48	48	49	49	50	50	51	53	55	56	56	57	57	57	56	56	55	54	52	52	52	52	52	53	53	53	53	54	54	54	55	55	56	58	61	63	65	66	66	65	65	64	64	63	63	62	61	59	58	59	61	64	67	70	72	74	76	77	79	81	82	84	85	86	87	88	89	90	91	92	93	94	96	97	98	99	99	100	101	103	105	107	109	111	114	117	120	123	126	129	131	134	137	140	143	145	148	151	154	156	159	162	165	168	170	172	175	178	181	184	187	190	193	196	199	202	205	209	212	215	218	222	225	228	231	232	234	235	237	238	240	241	242	243	243	243	243	242	242	242	241	240	239	238	237	235	234	234	234	234	234	234	234	234	234	234	235	235	236	237	239	240	243	245	247	248	248	248	248	249	249	250	250	250	252	254	256	257	257	258	258	258	257	256	254	252	249	246	243	240	236	234	231	228	224	220	216	211	207	204	201	198	197	199	201	204	206	208	211	213	215	218	220	223	225	228	230	231	233	235	237	239	240	241	242	243	243	245	246	248	249	250	251	251	251	251	252	254	256	258	260	262	264	265	266	267	268	269	269	269	269	269	268	267	266	265	263	262	260	258	255	253	250	248	246	243	241	238	236	233	231	229	227	225	223	222	220	218	216	214	212	210	208	205	202	198	195	192	191	189	187	183	179	176	173	171	169	167	164	160	155	150	147	143	139	136	136	138	141	143	144	145	146	148	148	145	142	140	137	135	132	131	130	130	130	130	130	131	132	133	134	135	134	133	131	130	129	128	128	129	131	133	135	137	139	141	143	145	148	150	152	153	154	156	157	158	159	159	159	159	159	158	158	158	158	160	162	163	165	167	170	172	175	178	180	182	185	187	189	191	193	195	197	199	201	203	205	207	210	212	215	217	220	222	225	228	231	234	236	239	242	245	248	251	254	257	260	263	266	268	271	275	278	281	284	286	289	291	294	296	299	301	304	306	309	311	313	315	318	320	322	325	327	328	329	330	331	330	330	329	328	327	326	325	325	324	324	324	324	324	325	325	325	325	326	326	326	326	326	327	327	327	327	327	326	326	325	324	323	322	320	319	319	319	319	319	319	319	318	319	321	322	324	326	328	330	332	334	336	338	340	343	345	347	349	351	353	356	358	361	363	366	369	372	376	381	386	389	391	394	396	395	392	389	387	383	379	375	371	367	364	361	358	355	352	350	347	345	342	340	337	335	333	330	328	325	324	322	320	318	316	314	312	310	309	307	305	303	300	298	295	293	290	288	286	283	281	278	276	273	271	268	266	264	262	260	258	256	254	252	250	248	247	245	242	240	238	237	236	235	236	236	236	236	236	237	236	235	234	233	231	228	225	221	219	216	213	210	207	205	202	200	197	195	193	192	190	187	184	180	177	174	172	170	168	165	162	159	157	154	151	150	148	147	145	143	141	139	139	138	138	138	139	138	138	138	137	137	135	134	132	130	128	127
27	27	27	27	27	27	28	29	29	29	29	30	30	30	31	31	32	33	33	34	34	35	35	36	37	39	40	42	43	44	46	48	49	51	53	55	57	59	62	64	66	67	67	66	66	65	65	65	65	65	67	70	72	75	77	78	79	80	81	82	83	83	83	84	84	85	86	87	88	89	89	89	90	90	90	90	90	89	88	86	85	84	84	85	86	87	89	90	92	94	95	96	97	99	101	104	106	109	110	112	114	116	119	121	124	127	129	130	129	129	129	129	130	130	130	131	132	134	135	136	137	138	139	141	142	143	144	146	147	147	148	148	148	147	145	143	142	140	138	136	134	132	130	128	127	127	129	130	131	132	133	134	134	135	136	137	137	138	139	140	139	137	135	134	132	130	126	122	118	116	114	117	120	123	127	131	135	139	143	144	144	143	143	142	142	141	140	141	142	143	143	144	144	145	147	148	149	150	152	155	157	160	162	165	167	166	164	161	159	157	155	153	151	148	145	142	139	136	133	130	127	123	120	116	113	110	107	104	101	99	96	93	90	87	84	82	83	86	89	91	91	89	88	89	91	94	96	97	97	97	97	98	98	98	97	96	95	96	96	96	96	94	93	91	89	87	84	82	79	76	74	71	69	67	65	63	61	60	58	58	57	57	57	58	59	60	62	64	65	65	65	64	63	63	63	63	63	63	63	62	61	61	61	60	60	59	58	57	56	55	54	54	54	53	51	49	47	47	47	47	46	46	46	46	46	46	45	45	45	46	46	46	46	46	46	46	46	47	47	47	47	47	47	47	47	47	47	47	47	47	48	48	48	48	48	48	48	49	49	50	50	51	53	56	58	58	59	59	59	59	59	59	58	56	55	53	52	52	52	53	53	53	54	54	54	54	55	55	55	57	60	62	64	64	64	64	63	63	62	62	61	60	59	58	58	60	63	66	68	71	73	75	77	79	80	82	83	85	86	88	89	90	91	92	93	94	95	96	98	99	100	101	102	103	104	105	106	108	109	111	114	117	120	123	126	128	131	133	136	139	142	144	147	150	153	155	158	161	164	167	170	173	176	179	181	184	187	190	193	196	199	202	205	208	212	215	218	221	224	227	230	231	233	234	236	237	239	240	241	242	241	241	241	240	240	240	239	238	237	236	235	233	232	231	231	231	231	231	231	231	232	232	232	233	234	235	237	239	241	242	244	246	247	247	247	247	248	249	249	249	250	252	253	254	255	255	255	255	255	254	252	250	247	244	241	238	235	232	229	226	223	219	215	211	207	204	201	198	195	197	200	202	205	208	210	212	215	217	220	222	225	227	229	230	231	233	235	236	237	238	239	240	241	242	244	246	247	248	249	249	248	249	251	253	255	257	259	261	262	264	265	266	266	267	267	267	267	266	265	264	263	262	260	259	257	255	252	250	248	245	243	241	238	236	233	231	229	227	225	223	222	220	219	217	215	213	211	209	207	205	202	198	195	193	192	191	189	186	182	178	175	173	170	168	166	161	156	152	148	144	141	137	134	135	138	139	141	142	143	145	146	144	142	139	137	134	132	130	129	129	128	129	129	130	131	132	133	133	133	132	131	129	128	127	126	127	129	131	133	135	137	139	141	143	145	147	149	150	152	153	154	155	156	156	156	156	156	156	155	156	157	159	161	163	165	167	170	173	176	179	181	183	186	188	190	192	194	196	198	200	202	204	206	208	211	213	215	218	220	223	226	229	231	234	237	240	243	246	249	251	254	257	260	263	266	269	272	275	278	281	284	287	289	292	294	297	299	301	304	306	309	311	313	315	317	320	322	324	325	326	327	328	328	328	328	327	326	325	324	323	322	322	322	322	322	322	322	322	323	323	323	323	324	324	324	324	325	325	324	324	324	323	322	321	320	319	317	316	315	316	316	316	316	316	316	318	320	322	323	325	327	329	331	333	335	337	339	341	344	346	348	350	353	355	358	360	363	366	369	373	377	381	385	388	390	393	395	395	393	390	387	384	380	376	372	368	365	362	359	356	353	351	348	346	343	341	338	336	334	331	329	327	325	323	321	319	317	315	313	311	309	308	305	303	300	298	295	293	290	288	285	283	280	277	274	271	269	267	264	262	260	258	256	254	252	250	248	247	245	243	241	238	236	235	234	233	233	233	233	234	235	236	236	235	234	232	230	227	224	220	218	215	212	209	207	204	202	200	197	195	193	191	190	186	183	179	176	173	170	169	167	164	161	159	156	153	151	149	148	146	144	143	141	140	140	140	140	141	141	141	140	140	140	139	137	136	133	131	129	128
26	26	26	26	26	26	27	27	28	27	27	28	28	28	29	30	30	31	32	33	34	34	35	36	37	38	40	41	43	44	46	47	49	50	52	54	57	59	61	63	65	67	68	68	68	68	68	68	67	68	69	72	74	76	79	81	82	83	84	85	85	85	86	86	87	87	89	90	91	92	92	92	93	93	93	92	92	91	89	88	87	87	87	87	88	89	90	92	94	95	97	98	99	101	103	105	108	110	112	113	115	117	120	122	125	127	129	130	130	130	130	130	131	131	131	132	132	133	134	134	135	136	137	139	140	141	142	143	144	144	145	146	146	145	143	141	140	138	136	135	134	132	130	128	125	125	126	127	129	130	131	132	133	133	134	135	136	137	138	138	138	136	134	133	131	128	123	119	115	112	111	113	117	121	125	130	134	138	141	141	141	140	140	139	138	138	137	137	139	141	142	143	144	145	146	148	149	150	152	154	157	159	162	164	167	166	164	162	160	157	155	153	150	148	145	142	139	135	133	130	127	124	120	116	113	109	106	104	101	98	95	92	89	87	84	81	81	84	86	87	87	86	86	87	90	92	94	95	95	95	95	95	95	95	94	93	93	94	94	94	94	93	92	91	89	86	84	81	79	76	74	71	69	68	67	65	63	61	59	58	58	57	56	56	56	57	58	60	61	62	62	62	61	61	61	61	61	61	61	61	60	60	60	59	59	58	57	56	55	54	53	53	52	52	50	48	47	47	47	46	46	46	46	46	46	46	45	45	45	45	46	46	46	46	46	46	46	47	47	47	47	47	47	47	47	47	47	47	47	48	48	48	48	48	49	49	49	49	50	50	51	53	56	58	60	61	62	62	62	62	62	62	61	60	58	56	54	53	53	53	53	53	53	54	54	54	55	55	55	57	59	61	63	63	63	62	62	61	61	60	59	58	58	58	60	62	65	67	70	72	74	76	78	80	81	83	85	86	88	89	90	92	93	94	95	96	97	98	100	101	103	104	105	106	107	107	108	109	111	112	115	118	121	124	126	128	130	132	135	138	140	143	146	149	152	155	158	161	164	167	170	173	176	179	182	185	188	191	194	196	199	202	205	208	211	214	217	220	223	226	229	231	232	234	235	236	238	239	240	240	239	239	239	238	238	238	237	236	235	234	232	231	229	229	229	229	229	229	229	229	229	230	230	231	232	233	235	237	238	240	242	244	245	245	245	246	246	247	247	248	249	250	251	252	252	253	253	253	252	251	250	248	245	242	239	237	234	231	228	225	221	218	214	211	207	204	201	197	194	195	199	202	205	207	209	212	214	217	219	221	224	226	227	228	229	231	232	234	235	236	236	237	238	239	241	243	244	245	246	246	246	247	249	252	254	256	258	259	261	262	263	264	264	264	264	264	264	263	262	261	260	258	257	256	254	252	250	247	245	243	240	238	236	233	231	229	226	224	223	221	220	218	217	215	214	212	210	208	206	205	202	199	196	195	193	192	191	188	185	181	177	174	171	169	167	163	157	153	149	145	142	139	135	133	134	136	137	139	140	141	143	143	141	138	136	133	131	130	129	128	127	128	129	129	130	131	132	132	132	131	130	128	127	125	125	126	128	130	131	133	135	137	139	140	142	144	146	148	149	151	152	153	154	154	154	154	154	154	154	155	157	159	161	163	165	168	171	174	177	180	182	184	186	189	191	193	195	197	199	201	203	205	207	209	211	214	216	219	221	224	226	229	232	235	238	241	243	246	249	252	255	258	261	264	267	270	273	276	279	282	285	287	290	292	294	297	299	301	304	306	308	311	313	315	317	319	321	322	323	324	325	326	326	326	325	324	324	323	322	321	320	320	319	319	319	319	320	320	320	320	321	321	321	322	322	322	322	322	322	322	321	321	320	318	317	316	314	313	313	313	313	313	313	314	315	316	318	320	322	324	326	328	330	332	334	336	338	341	343	345	347	349	352	355	357	360	363	366	369	373	377	381	384	387	390	392	395	396	393	390	388	385	381	377	372	368	365	363	360	357	354	351	349	346	344	342	339	337	334	332	330	328	326	324	322	319	317	315	313	311	309	308	305	303	300	298	295	293	290	288	285	282	279	276	273	270	267	265	262	260	258	256	254	252	250	248	246	244	243	241	239	237	234	233	232	231	231	231	231	231	232	234	235	234	232	230	229	226	222	219	216	213	211	208	206	204	201	199	196	193	192	190	189	185	182	178	174	171	169	167	166	163	161	158	155	153	151	149	148	146	145	144	143	143	143	143	143	143	143	143	142	142	142	141	139	137	135	133	131	130
26	25	25	25	25	25	26	26	26	26	26	26	26	27	27	28	29	30	31	32	33	34	35	35	36	38	39	41	42	44	45	47	48	50	52	54	56	58	60	62	64	66	68	69	70	70	70	70	70	71	72	74	76	78	81	83	84	86	87	87	88	88	88	88	89	90	91	93	94	95	95	95	95	96	96	95	94	93	92	90	89	89	89	89	90	91	92	94	95	97	98	100	101	103	105	107	109	111	113	115	117	119	121	123	125	127	129	130	130	130	130	130	131	131	131	132	132	132	132	131	132	133	135	137	138	139	139	140	141	141	142	144	144	143	141	139	137	135	133	133	132	131	130	127	125	123	123	123	124	127	129	130	131	132	132	133	134	135	136	137	136	135	133	131	129	126	121	116	112	109	109	111	114	119	125	129	133	137	138	138	138	137	137	136	135	134	134	134	135	138	140	142	144	145	146	148	149	150	152	155	157	160	162	165	167	167	164	162	160	157	155	152	150	147	144	141	138	135	132	130	127	124	120	116	112	109	106	103	100	98	95	92	89	87	84	81	80	81	83	83	83	83	84	86	88	91	92	93	94	94	94	93	93	92	91	90	91	91	92	92	92	92	91	90	88	86	83	81	78	76	74	72	70	70	69	67	65	63	61	61	59	58	56	55	54	54	54	55	57	58	58	58	58	58	58	58	59	59	59	59	59	58	58	58	57	56	56	55	54	53	52	52	51	50	49	47	47	47	46	46	46	46	46	46	46	45	45	45	45	45	46	46	46	46	46	46	46	46	47	47	47	47	47	47	47	47	47	47	48	48	48	48	49	49	49	49	49	50	50	51	52	55	58	61	63	64	64	65	65	65	65	65	64	63	61	59	57	55	53	53	53	53	53	54	54	54	55	55	55	56	58	60	62	62	62	62	61	60	60	59	58	57	58	60	62	64	67	69	71	73	75	77	79	81	83	84	86	88	89	91	92	93	95	96	97	98	99	100	102	103	105	106	107	108	109	110	111	112	113	114	116	118	121	123	126	127	129	131	134	137	140	142	145	148	151	154	157	160	163	167	170	173	176	179	182	185	188	191	194	196	199	202	205	208	211	214	217	220	222	225	227	230	231	233	234	236	237	238	239	238	237	237	237	236	236	235	235	234	233	232	230	229	227	227	227	227	227	227	227	227	227	228	229	230	230	231	233	235	236	238	240	242	243	243	243	244	244	245	245	245	247	248	249	249	250	250	250	250	249	248	247	245	243	240	237	235	232	229	226	223	220	217	213	210	207	203	200	195	192	194	198	202	204	206	208	211	213	215	218	220	222	224	225	226	227	228	230	231	232	233	233	234	235	236	238	240	241	242	243	244	244	245	248	251	253	255	256	258	259	260	261	261	262	262	262	261	261	260	259	258	257	255	254	253	251	249	247	244	242	240	237	235	233	231	228	226	224	222	221	219	218	216	215	214	212	210	209	207	205	204	202	200	198	196	194	193	192	190	187	183	179	175	172	170	167	163	158	154	150	147	143	140	136	133	132	133	134	136	137	138	140	141	140	138	135	133	132	130	128	127	126	127	128	128	129	130	130	130	130	129	128	127	125	124	124	125	127	129	130	131	133	135	137	139	140	142	143	145	147	148	149	150	151	152	152	152	152	153	154	155	157	159	161	163	165	169	172	175	178	181	183	185	187	189	191	193	195	197	199	201	203	205	207	210	212	214	217	219	222	224	227	230	232	235	238	241	244	247	250	253	256	259	262	265	267	270	273	276	279	282	285	288	290	292	295	297	299	302	304	306	308	310	312	314	316	318	319	319	321	322	323	323	323	323	323	322	321	321	320	319	318	317	317	317	317	317	317	317	318	318	318	319	319	319	319	320	320	320	320	319	319	318	317	316	314	313	311	311	310	310	311	311	312	312	313	315	317	319	321	322	325	327	329	331	333	335	337	340	342	344	346	349	351	354	357	360	363	366	369	373	376	380	384	387	389	392	394	395	393	390	387	385	381	377	373	369	366	363	360	357	355	352	349	347	344	342	339	337	334	332	330	329	326	324	322	320	318	316	313	311	309	308	306	303	301	298	296	293	290	288	285	281	278	274	271	268	266	263	261	258	256	254	252	250	248	246	244	242	241	239	237	235	233	231	229	229	229	228	228	229	230	232	233	233	231	229	227	224	221	218	215	212	209	207	205	202	200	197	194	191	190	189	187	185	181	177	173	170	168	166	165	162	160	157	155	153	151	149	148	148	147	147	146	145	145	145	145	145	145	145	145	145	144	143	141	139	137	135	133	132
25	25	25	25	24	24	24	24	24	24	24	25	25	25	26	27	28	29	30	32	33	33	34	35	36	37	39	40	42	43	45	46	48	49	51	53	55	57	59	61	63	65	67	69	70	72	72	72	72	73	74	76	78	80	82	85	87	88	90	90	90	90	91	91	92	93	94	95	97	98	98	98	98	99	98	98	97	95	94	93	92	92	92	92	92	93	94	95	97	99	100	101	103	104	107	109	110	112	114	116	118	119	121	123	125	126	128	129	130	130	130	130	130	130	131	131	130	130	129	129	130	131	133	135	136	136	136	137	137	138	139	141	142	141	139	137	135	133	131	131	131	130	129	126	123	120	117	117	119	123	126	128	129	130	130	131	132	133	134	134	134	133	132	130	127	124	119	115	111	108	108	109	113	118	124	129	133	135	136	135	135	134	134	133	132	131	131	131	132	135	137	140	142	144	146	147	149	150	152	155	158	160	162	165	167	167	165	162	159	156	154	151	149	146	143	140	137	134	132	129	126	123	119	115	112	108	106	103	100	97	95	92	89	87	84	81	79	79	80	80	79	80	82	84	86	89	91	92	92	92	92	91	90	89	88	87	88	89	89	90	91	90	90	89	88	85	83	80	78	76	74	73	72	71	70	69	67	65	63	63	62	60	58	56	54	53	52	52	53	53	54	54	54	55	55	55	56	56	56	56	56	56	56	56	55	55	54	53	52	51	51	51	50	50	48	47	47	46	46	46	46	46	46	46	45	45	45	45	45	45	45	46	46	46	46	46	46	46	47	47	47	47	47	47	47	47	47	48	48	48	48	49	49	49	49	50	50	50	51	52	54	58	62	64	66	67	67	67	68	68	68	68	68	66	65	62	60	58	55	53	53	53	54	54	54	54	55	55	55	56	58	59	61	62	62	61	60	59	58	57	57	58	60	62	65	67	69	70	72	74	76	78	80	82	84	85	87	89	90	92	94	95	97	98	99	100	101	102	104	105	107	108	109	111	112	113	114	115	116	116	118	119	121	123	125	127	128	130	133	136	139	142	145	148	150	153	156	159	163	166	169	172	175	178	181	184	187	190	193	196	199	202	205	208	211	214	217	219	222	224	226	228	230	232	233	235	236	237	238	237	236	236	235	234	234	233	233	232	231	230	228	227	225	225	224	224	224	224	224	225	225	227	228	229	230	230	231	233	235	238	240	241	241	241	241	241	242	242	243	243	244	245	246	247	247	247	247	246	246	245	244	242	240	238	235	232	230	227	224	222	219	216	213	210	206	202	198	194	191	192	196	201	203	205	207	209	212	214	216	219	220	222	223	224	225	226	227	228	229	230	231	231	232	233	235	237	238	239	240	241	242	244	247	250	252	253	255	257	258	259	259	259	259	260	260	259	258	257	256	255	254	252	251	249	248	246	244	241	239	237	234	232	230	228	226	224	222	220	218	217	216	214	213	212	210	209	207	206	204	203	202	200	199	197	195	194	192	191	189	185	180	176	173	170	167	164	159	155	151	148	144	141	138	135	132	131	131	133	134	136	137	138	139	137	135	133	131	130	128	126	125	126	126	127	128	128	128	128	128	127	126	125	124	123	123	125	126	127	129	130	131	133	135	137	138	140	141	143	145	146	147	148	149	149	150	150	151	153	154	155	157	159	161	164	166	169	173	176	180	182	184	186	188	190	192	194	196	198	200	202	204	206	208	210	213	215	217	220	222	225	227	230	233	236	239	242	245	248	250	253	256	259	262	265	268	271	274	277	280	283	286	288	290	293	295	297	299	302	304	306	308	310	312	313	315	316	317	317	318	320	320	321	321	321	320	320	319	318	317	317	316	315	315	314	314	314	315	315	315	316	316	316	317	317	317	317	318	318	317	317	316	315	315	313	311	310	309	308	308	308	309	309	310	311	312	314	316	317	319	321	323	325	328	330	332	334	336	339	341	343	346	348	351	354	357	360	363	366	370	373	376	380	383	386	388	390	392	393	391	389	386	384	380	376	372	369	366	363	360	358	355	352	349	347	344	341	339	336	334	332	330	329	327	325	322	320	318	316	313	311	309	308	306	303	301	298	295	293	290	287	284	281	277	273	270	267	264	261	259	256	254	252	249	247	245	243	242	240	238	237	235	233	231	229	228	227	226	226	226	226	227	229	231	232	230	228	226	223	220	217	214	210	207	205	202	200	197	195	192	190	189	188	186	184	180	177	173	169	167	165	164	161	159	157	156	154	152	150	149	149	149	149	148	148	147	147	147	147	147	147	147	147	146	144	143	141	139	137	135	134
25	24	24	24	24	23	23	23	23	23	24	24	24	24	25	25	27	28	30	31	32	33	34	35	36	37	38	40	41	43	44	46	47	49	50	52	54	56	58	60	62	64	66	68	70	72	73	74	75	75	77	79	80	82	84	87	89	91	92	93	93	94	94	95	95	96	97	98	100	101	101	101	102	101	101	100	99	98	96	95	95	94	94	95	95	95	96	97	98	100	102	103	104	106	108	109	111	112	113	115	117	119	121	122	123	125	126	127	128	129	129	129	129	129	129	129	128	128	127	127	128	130	132	133	134	134	133	133	134	135	137	139	141	140	137	135	133	131	129	129	129	129	127	124	121	117	112	111	115	119	122	124	126	127	128	129	130	130	131	132	132	131	130	128	125	122	118	114	110	107	106	108	112	118	123	129	132	133	132	132	131	131	130	130	129	129	128	128	129	132	135	137	139	142	144	146	148	150	153	155	158	160	163	165	167	167	165	162	159	156	153	150	147	145	142	139	136	133	131	128	125	121	118	114	111	108	105	102	100	97	94	92	89	86	83	80	78	77	77	77	76	77	79	82	84	86	88	89	90	90	89	88	87	86	85	84	85	86	87	88	88	88	88	88	87	85	82	80	78	77	76	75	74	73	72	71	69	67	65	65	64	63	60	58	56	54	53	52	51	51	51	51	52	52	52	52	52	52	53	53	54	54	53	53	53	53	52	52	51	50	50	50	49	49	48	47	46	46	46	46	46	46	46	45	45	45	45	45	45	45	45	46	46	46	46	46	46	46	47	47	47	47	47	47	47	47	47	48	48	48	48	49	49	49	49	50	50	51	51	53	57	62	65	68	69	69	70	70	70	71	71	71	71	70	68	65	63	60	58	55	54	53	54	54	54	55	55	55	56	56	58	59	60	61	61	60	59	58	57	56	57	59	62	65	67	69	70	72	73	75	77	79	81	83	85	87	88	90	92	94	95	97	98	100	101	102	103	104	106	107	108	110	112	113	115	116	117	117	118	119	120	121	123	124	126	127	129	131	133	136	139	142	145	147	149	152	155	159	162	165	168	171	174	178	181	184	187	190	193	196	199	203	206	209	211	214	216	218	221	223	225	227	229	231	232	234	235	236	237	236	236	235	234	233	233	232	231	230	229	227	226	224	223	222	222	222	222	222	222	223	224	225	227	228	229	230	230	232	235	237	239	240	240	239	239	239	239	240	240	241	242	243	244	244	244	244	244	242	242	241	240	238	237	235	232	230	227	225	223	221	218	215	212	208	205	201	197	193	190	190	194	199	202	204	206	208	211	213	215	217	218	220	221	221	222	224	225	226	227	227	228	228	229	230	232	234	235	236	237	238	240	243	246	249	251	252	254	255	256	257	257	257	257	257	257	257	256	255	253	252	250	249	248	246	244	243	240	238	236	234	231	229	227	225	223	222	220	218	216	215	214	212	211	210	208	207	205	204	202	201	200	199	198	197	196	194	193	192	190	186	181	177	173	170	167	163	160	156	152	149	145	142	139	136	132	131	130	130	132	133	135	136	137	136	134	133	131	129	127	125	124	124	125	126	126	127	127	127	126	125	124	123	122	122	123	125	126	127	128	129	131	132	133	135	137	138	140	141	143	144	145	146	146	147	149	150	152	153	155	156	158	160	162	164	167	171	174	178	181	183	185	187	189	191	193	195	196	198	200	202	204	206	208	211	213	216	218	220	223	225	228	231	234	237	240	242	245	248	251	254	257	260	263	266	269	272	275	277	281	283	286	288	290	293	295	297	299	302	304	306	308	309	311	312	313	314	315	315	316	317	318	318	318	318	318	317	317	316	315	314	314	313	312	312	312	312	312	313	313	313	314	314	314	315	315	315	315	315	315	314	314	313	312	310	309	308	307	306	306	306	307	307	308	309	310	312	314	316	318	320	322	324	327	329	331	333	336	338	340	343	346	348	351	354	357	360	363	366	369	373	376	379	383	385	387	389	390	391	389	387	385	382	378	375	371	368	365	363	360	357	355	352	349	346	343	341	338	335	333	331	330	329	327	324	322	320	318	316	313	311	310	308	306	303	301	298	295	293	290	287	284	280	276	273	269	266	263	260	257	254	252	250	247	245	243	241	239	238	236	234	232	231	229	227	226	225	224	223	223	224	225	226	229	230	229	227	225	222	220	216	213	209	206	203	200	198	196	193	191	189	188	186	185	183	180	176	173	169	167	165	163	162	160	159	158	157	155	153	152	152	152	152	151	150	150	149	149	149	149	149	149	149	148	146	144	142	141	139	137	136
24	24	24	23	23	23	23	23	23	23	23	23	24	24	24	25	26	28	29	31	32	33	34	35	36	37	38	39	41	42	44	45	46	48	49	51	53	55	57	59	61	63	65	68	70	71	73	75	77	78	79	81	83	85	87	88	91	93	95	96	97	97	98	98	99	99	100	101	102	104	104	105	105	104	104	103	101	100	99	98	97	97	97	97	97	97	98	99	100	102	103	104	106	107	108	109	110	111	112	114	115	117	119	121	122	123	124	125	125	126	126	126	126	126	126	126	125	125	125	125	127	129	131	132	132	132	131	131	131	133	135	137	139	139	137	134	132	130	129	129	128	127	125	122	118	114	109	108	112	116	119	121	123	124	125	126	127	127	128	128	129	128	127	125	123	120	116	113	109	106	105	108	112	116	122	127	129	130	129	128	128	127	127	126	126	126	126	126	128	131	133	136	138	140	143	145	148	150	153	155	158	161	163	165	166	166	165	162	159	156	153	150	147	144	141	138	135	132	130	127	123	120	116	113	110	107	105	102	99	96	93	91	88	85	83	81	79	77	76	75	74	75	76	78	80	82	84	86	88	88	87	86	84	83	82	81	82	83	84	85	86	86	86	86	85	84	83	81	79	78	77	76	75	74	73	72	70	69	67	66	65	64	62	59	57	54	53	52	51	51	51	50	50	50	50	50	50	50	50	50	51	51	51	51	51	51	51	50	49	49	49	48	48	48	47	46	46	46	46	46	46	46	45	45	45	45	45	45	45	45	45	45	46	46	46	46	46	46	46	47	47	47	47	47	47	47	48	48	48	49	49	49	49	49	50	50	51	51	52	56	60	64	68	70	71	71	72	72	72	73	73	73	73	72	70	68	65	63	60	58	56	54	54	54	54	55	55	55	56	56	57	59	60	60	60	59	58	57	56	57	59	62	64	67	69	71	71	73	74	76	78	80	82	84	86	88	89	91	93	95	97	98	100	101	103	104	105	106	108	109	110	112	114	116	117	118	119	120	121	122	123	125	126	127	128	129	131	132	135	137	139	142	144	147	149	152	155	158	162	165	168	171	174	177	180	183	186	190	193	196	200	203	206	209	212	214	216	218	220	222	224	226	228	230	232	233	234	235	235	235	235	234	233	233	232	231	230	229	227	225	224	222	221	220	220	220	220	220	220	221	222	224	225	227	228	229	230	232	234	236	238	239	238	237	237	237	237	238	238	239	240	241	241	242	241	241	240	239	238	237	235	234	233	231	229	227	224	222	221	219	217	213	210	207	203	200	196	192	189	189	192	197	201	203	205	207	209	211	213	215	216	217	218	219	220	222	223	224	224	225	225	226	226	227	229	230	232	233	234	236	238	241	245	247	250	251	252	254	254	254	254	255	255	255	255	255	254	252	251	249	247	246	245	243	241	239	237	235	233	231	228	226	224	222	221	219	218	216	214	213	212	210	209	208	206	205	203	202	200	199	198	198	197	196	195	194	193	192	190	186	182	177	173	170	166	163	160	157	153	150	146	143	140	137	133	131	129	129	130	132	133	134	134	134	133	132	130	128	126	124	123	123	124	124	125	125	125	125	124	123	122	122	122	123	124	125	126	127	128	129	130	131	132	134	135	137	138	139	140	141	142	143	145	146	149	151	153	154	155	157	159	161	163	165	168	172	175	179	182	184	186	188	190	192	193	195	197	199	201	203	204	206	209	211	214	216	218	221	223	226	229	231	234	237	240	243	246	249	252	255	258	261	264	267	269	272	275	278	281	284	286	288	291	293	295	297	299	301	303	305	307	308	310	311	311	312	313	313	314	315	315	316	316	316	315	315	314	313	313	312	311	311	310	310	309	310	310	310	310	311	311	311	312	312	313	313	313	313	313	312	311	310	309	308	306	306	305	304	304	304	304	305	306	307	309	311	313	315	317	319	321	323	325	328	330	332	335	337	340	343	345	348	351	354	357	360	363	366	369	372	375	379	382	384	386	387	388	388	387	385	382	379	376	373	369	367	364	362	359	357	354	352	349	346	343	340	337	335	333	331	329	327	325	323	321	320	318	316	313	311	310	308	306	303	300	298	295	292	290	287	284	280	276	272	268	265	262	259	256	253	250	247	245	243	241	239	237	235	234	232	230	228	227	225	223	222	222	221	221	222	223	224	226	228	228	226	224	222	219	216	212	209	206	203	200	198	195	193	190	188	187	185	184	182	180	177	174	171	168	166	165	163	162	162	161	160	158	156	155	155	155	155	154	153	153	152	151	151	151	151	151	151	150	148	146	144	143	141	139	138
24	23	23	23	22	22	22	22	22	23	23	23	24	24	25	25	26	28	29	30	32	33	34	34	35	37	38	39	40	42	43	44	46	47	49	50	52	54	56	59	61	63	65	67	69	71	73	76	78	80	82	84	85	87	88	90	92	95	97	99	100	100	101	102	102	103	103	104	105	106	107	108	108	107	107	106	104	102	101	100	100	100	100	100	100	100	100	101	102	103	104	104	105	105	106	107	108	109	111	112	113	115	117	118	120	121	122	122	123	123	123	123	124	123	123	123	122	122	122	123	125	128	129	130	130	129	129	129	130	132	134	136	138	138	136	134	132	130	129	128	126	124	123	120	117	112	109	106	109	113	116	118	120	121	122	123	124	124	125	125	125	124	123	122	120	117	115	111	107	104	103	107	111	115	120	125	126	126	125	124	123	122	122	122	123	123	123	125	128	130	133	135	138	140	143	145	147	150	153	155	158	160	163	164	165	165	164	161	158	156	153	150	147	144	141	138	135	133	130	126	123	119	115	112	109	107	105	102	99	96	92	89	87	86	85	83	82	80	79	76	74	72	73	75	77	79	81	83	85	86	85	83	82	81	79	78	79	80	82	83	83	83	83	83	84	83	83	82	81	80	79	78	77	76	74	73	72	70	69	68	66	65	62	60	57	54	52	51	51	51	50	50	49	49	49	49	48	48	48	48	48	49	49	49	49	49	49	48	48	48	48	47	47	47	46	46	46	46	46	46	46	46	45	45	45	45	45	45	45	45	45	45	46	46	46	46	46	46	46	47	47	47	47	47	47	47	48	48	48	49	49	49	49	50	50	51	51	52	54	58	62	67	70	71	72	73	73	74	74	75	75	75	75	74	73	71	68	65	63	60	58	55	54	54	54	55	55	55	56	56	57	58	58	59	59	58	57	56	56	58	61	64	66	69	71	71	72	73	75	77	79	81	83	85	86	88	90	92	94	96	98	100	101	103	104	106	107	108	110	111	112	114	116	118	120	121	122	123	124	125	126	128	129	130	131	132	134	135	137	139	141	143	145	147	150	153	156	159	162	165	168	171	174	177	180	183	186	189	193	196	200	204	207	210	212	214	216	218	220	222	224	226	228	230	231	232	234	234	234	234	234	233	233	232	231	230	229	227	225	223	221	220	218	217	217	217	217	218	219	220	221	222	224	225	226	228	229	231	233	235	237	237	236	235	235	234	235	235	236	237	238	238	239	239	238	238	237	235	234	232	231	230	229	228	226	223	221	220	218	216	214	211	208	204	201	198	194	191	189	188	190	195	199	202	204	206	207	209	211	213	214	215	216	217	218	220	221	222	222	223	223	224	224	225	226	228	229	231	232	234	237	240	243	246	249	250	251	252	252	252	252	252	252	253	253	253	251	250	248	246	245	243	242	240	238	236	234	232	230	227	225	224	222	220	218	217	215	214	212	211	209	208	207	205	204	202	201	200	198	197	196	196	195	195	194	193	192	191	190	186	181	177	173	169	166	163	160	157	154	151	147	144	141	138	135	132	129	128	128	130	131	132	132	132	132	131	129	127	125	123	121	121	122	122	123	124	124	123	122	121	121	121	122	123	124	125	126	128	129	130	131	131	132	133	134	135	136	137	138	139	140	141	144	147	149	151	153	155	156	158	160	162	164	166	170	173	176	180	182	184	186	188	190	192	194	196	198	199	201	203	205	207	209	212	214	217	219	221	224	226	229	232	235	238	241	244	247	249	252	256	259	261	264	267	270	273	276	279	282	285	287	289	291	293	295	297	299	301	303	305	306	307	308	309	310	310	311	312	312	312	313	313	313	313	313	313	312	311	310	310	309	308	308	307	307	307	307	308	308	308	309	309	309	310	310	310	311	311	310	310	309	307	306	305	304	303	303	302	302	301	302	303	304	306	307	309	311	314	316	318	320	322	324	327	329	332	334	337	339	342	345	348	351	353	357	360	363	366	368	372	375	377	380	383	384	385	386	386	384	382	380	377	374	371	368	365	363	361	358	356	354	351	348	345	341	339	336	334	332	329	327	325	323	321	319	318	316	314	312	311	310	308	306	303	300	298	295	292	289	287	283	279	275	272	268	264	261	257	254	251	248	245	243	241	238	236	235	233	232	230	228	226	224	223	221	220	219	219	219	219	221	222	224	227	228	227	224	221	219	216	213	210	207	205	202	199	196	193	191	189	187	186	184	182	180	178	175	172	170	168	167	166	165	164	164	162	161	160	159	159	158	158	157	156	156	154	154	153	153	153	152	152	151	150	148	146	144	143	141	140
23	23	22	22	22	22	22	22	23	23	24	24	24	25	26	26	27	28	29	31	32	33	33	34	35	36	38	39	40	41	43	44	45	47	49	50	52	54	56	59	61	63	65	67	69	71	73	76	79	82	84	86	87	88	89	91	93	96	99	101	103	104	104	105	105	106	107	107	108	110	111	111	111	111	109	108	106	105	103	103	103	103	103	103	103	102	102	103	103	102	102	102	102	102	103	104	106	107	109	110	111	113	114	116	117	118	119	119	120	120	120	121	121	121	120	120	119	119	120	122	124	126	127	127	127	127	126	127	129	131	133	135	137	137	135	133	131	130	128	126	124	122	121	119	116	112	108	105	105	110	113	115	117	118	119	120	121	121	122	122	121	120	119	118	116	115	112	109	105	102	102	107	111	115	119	122	123	122	121	120	119	118	117	118	119	120	123	125	128	130	133	135	138	140	143	145	147	149	152	154	156	158	160	162	163	164	163	161	158	155	153	150	147	144	141	139	136	133	130	127	123	119	115	111	108	106	104	101	99	96	92	89	89	88	88	86	85	83	81	78	75	72	71	72	74	76	77	80	82	83	83	82	80	79	77	76	76	78	79	80	81	81	81	81	82	81	82	82	82	82	81	80	78	77	76	74	73	71	70	69	67	65	63	60	57	55	53	51	51	50	50	49	49	48	48	48	48	48	48	47	47	47	47	47	47	47	47	47	47	47	47	46	46	46	46	46	46	46	46	46	46	45	45	45	45	45	45	45	45	45	45	45	45	46	46	46	46	46	46	46	47	47	47	47	47	48	48	48	49	49	49	49	50	50	50	51	51	53	56	59	64	68	71	72	73	74	75	75	76	76	77	77	76	75	74	72	70	68	65	62	60	57	55	54	54	55	55	56	56	56	56	57	57	57	57	56	56	56	58	60	63	65	68	70	71	72	73	74	76	78	80	82	83	85	87	89	91	93	95	97	99	101	102	104	106	108	109	110	112	113	115	117	118	120	122	124	125	126	127	128	129	131	132	133	135	135	137	138	140	141	143	145	147	149	151	154	157	160	163	166	169	172	175	178	180	183	186	189	193	197	200	204	208	211	213	214	216	218	221	223	225	227	228	230	231	232	233	234	233	233	233	232	232	231	230	229	227	225	222	220	219	217	216	215	215	215	215	216	217	218	220	221	222	224	225	227	228	230	232	234	235	236	235	234	233	232	232	233	234	235	236	236	236	236	235	235	234	232	230	228	227	226	225	223	221	219	218	216	215	213	211	208	205	202	199	195	192	189	187	186	188	192	198	201	203	204	206	207	209	210	212	213	214	215	217	218	219	219	220	221	222	223	223	224	225	227	228	230	232	234	236	239	242	245	248	249	250	251	250	250	251	250	250	250	251	250	249	247	246	244	242	241	239	237	235	233	231	229	227	225	223	221	219	217	216	214	212	211	210	208	207	206	204	203	201	200	199	197	196	195	195	194	194	193	193	192	191	190	189	186	181	176	173	169	167	164	161	158	155	152	149	146	143	139	136	133	130	128	126	127	128	129	130	130	130	129	128	126	124	122	120	120	121	121	121	122	122	122	121	120	121	122	123	124	125	126	127	129	130	131	131	132	133	134	134	135	135	136	137	138	140	142	145	148	150	152	154	156	158	159	161	163	165	168	171	174	177	180	183	185	187	189	191	193	195	196	198	200	202	204	205	207	210	212	215	217	219	222	224	227	230	233	236	239	242	244	247	250	253	256	259	262	265	268	271	274	277	280	282	285	287	289	291	293	295	297	299	301	302	303	303	304	305	306	307	308	309	310	310	310	310	311	311	311	311	310	309	309	308	307	306	306	305	305	304	305	305	305	305	306	306	307	307	307	308	308	308	308	307	307	305	304	303	301	300	300	300	300	299	299	299	301	302	304	306	308	310	312	315	317	319	321	324	326	328	331	333	336	339	342	344	347	350	353	356	359	362	365	368	370	373	376	378	380	382	383	383	383	381	380	377	375	372	369	366	363	361	359	357	355	353	350	347	343	339	336	334	332	329	327	324	322	320	319	317	316	314	312	311	310	309	308	305	303	300	297	295	292	289	287	283	279	275	271	268	264	260	256	253	250	247	244	241	238	236	234	232	230	229	228	226	224	222	220	219	218	217	216	216	217	218	220	223	225	227	226	224	222	219	216	214	211	209	206	203	200	197	194	192	190	188	186	185	183	181	178	176	174	171	170	169	168	167	167	166	165	164	163	163	162	162	161	160	159	158	157	156	155	155	155	154	153	152	150	148	147	144	143	142	140
22	22	22	22	22	22	22	23	24	24	24	25	25	26	26	27	28	28	30	31	32	33	33	34	35	36	37	39	40	41	42	44	45	47	49	50	53	55	57	59	61	63	66	67	69	71	74	77	80	83	85	87	89	90	91	93	95	98	102	104	105	106	107	108	109	109	110	111	112	113	114	114	114	113	112	110	109	107	106	105	105	105	105	105	105	104	103	102	101	101	100	100	99	100	100	102	103	104	106	107	109	110	112	113	114	114	115	116	116	117	117	117	117	117	117	116	116	116	118	120	122	124	125	125	124	124	124	126	129	131	133	135	136	136	134	133	131	129	127	125	123	121	119	117	114	111	108	104	102	106	110	112	114	115	116	117	118	118	119	119	118	117	116	114	113	111	109	107	103	100	102	107	111	114	118	120	119	118	117	117	116	114	113	114	117	119	122	125	128	130	133	136	138	141	143	145	147	148	150	152	154	155	157	158	160	162	162	160	157	154	152	149	146	144	141	138	136	133	130	127	123	119	115	111	108	105	103	100	99	97	94	92	91	92	91	89	87	85	82	79	76	73	70	70	70	72	74	76	79	81	81	80	79	77	76	75	75	75	77	78	78	79	79	80	80	80	80	81	83	83	82	81	80	78	77	75	74	73	71	70	68	66	64	61	58	56	54	52	51	51	51	51	51	50	49	48	47	48	47	47	47	47	47	47	47	47	47	46	46	46	46	46	46	46	46	46	46	46	46	46	45	45	45	45	45	45	45	45	45	45	45	45	45	46	46	46	46	46	46	46	47	47	47	47	47	48	48	49	49	49	49	50	50	50	51	51	52	54	58	61	65	69	71	73	74	75	76	77	78	78	79	79	78	77	76	74	72	70	67	64	62	59	57	55	55	55	55	56	56	56	56	57	57	57	56	56	56	58	60	62	64	66	69	71	72	73	74	75	76	78	80	82	84	86	88	90	92	94	96	98	100	101	103	105	107	109	110	112	114	115	117	119	121	123	124	126	127	129	130	131	132	134	135	136	138	139	140	141	142	144	145	147	149	151	153	156	159	162	164	167	170	173	176	179	181	184	187	190	193	197	201	205	208	211	213	215	217	219	221	223	225	227	228	229	230	231	232	233	232	232	232	231	231	230	229	227	225	223	220	218	216	214	213	212	212	212	213	214	216	217	218	220	221	223	225	226	228	229	231	233	234	234	233	232	231	231	230	231	232	233	234	234	234	234	233	232	231	229	227	225	224	223	221	219	217	215	214	212	211	210	208	205	202	199	196	193	190	187	185	185	187	190	195	200	202	203	205	206	207	208	209	211	212	213	215	216	216	217	218	219	220	221	222	223	225	226	228	230	232	234	236	238	241	244	246	248	249	250	250	250	250	249	249	249	249	249	247	246	244	242	240	239	237	235	232	230	228	226	224	222	221	219	217	215	213	211	210	208	207	206	204	203	202	200	198	197	196	195	194	193	193	193	192	192	191	191	190	189	188	185	182	177	173	171	168	165	163	160	156	153	151	148	145	141	138	135	131	129	126	125	125	126	127	128	129	128	126	124	122	121	119	119	120	120	120	120	121	121	120	121	121	122	123	124	125	127	128	130	131	132	133	134	134	135	136	136	137	138	139	140	142	144	147	149	151	154	156	157	159	161	162	164	167	169	172	175	178	181	183	185	188	190	192	193	195	197	199	200	202	204	206	208	210	213	215	217	220	222	225	228	231	234	237	240	242	245	248	251	254	257	260	263	266	269	272	275	278	281	283	286	288	290	291	293	295	297	299	300	300	300	300	301	302	303	304	305	306	307	307	308	308	308	308	308	308	307	307	306	305	304	304	303	303	302	302	302	302	303	303	303	304	304	304	305	305	305	305	305	304	303	302	301	299	298	297	297	297	297	296	296	297	299	301	303	305	307	309	311	313	316	318	320	323	325	327	330	332	335	338	341	344	347	350	353	356	358	361	363	366	369	371	374	376	378	379	380	380	379	378	377	375	372	370	367	364	362	359	357	355	353	351	348	344	340	337	334	331	329	326	323	321	319	318	316	315	314	312	310	310	309	309	307	305	302	299	297	294	291	289	286	283	279	275	271	268	264	260	256	252	249	245	242	239	236	234	231	229	228	226	225	224	222	220	218	216	215	214	214	214	215	216	218	221	223	225	226	225	223	220	217	215	212	210	207	204	201	198	196	193	191	189	187	186	184	182	179	177	175	173	172	171	170	170	169	169	168	167	167	166	166	165	164	163	162	161	159	158	158	157	157	156	154	152	150	148	145	143	141	140	139
21	21	22	22	22	23	23	24	24	25	25	26	26	27	27	28	28	29	30	31	32	33	33	34	35	36	37	39	40	41	42	44	46	47	49	51	53	55	58	60	62	64	66	68	69	71	74	77	81	84	87	89	91	93	94	96	98	101	104	107	108	110	110	111	112	112	113	114	115	116	116	117	117	116	115	113	112	110	109	108	107	107	106	106	105	104	102	101	100	99	98	97	97	97	98	99	100	101	102	104	106	107	108	109	110	111	112	113	113	114	114	115	115	114	113	112	112	113	115	118	120	122	122	122	121	121	123	126	129	131	133	134	135	135	134	132	131	129	126	124	122	119	117	115	113	110	106	103	100	102	106	109	111	112	113	114	115	115	116	116	115	114	112	111	110	108	106	104	101	99	102	107	110	113	116	117	116	115	114	113	112	110	109	112	115	118	121	124	127	130	133	135	138	141	142	144	146	147	148	150	151	152	154	156	158	160	161	159	156	153	151	148	145	143	140	137	135	132	130	127	123	119	114	111	108	105	103	101	101	100	98	95	95	95	94	91	89	87	84	80	77	74	71	69	68	69	71	74	76	78	79	79	77	76	75	74	73	73	74	75	76	77	77	78	78	79	79	80	82	83	83	82	81	79	78	76	75	74	72	71	69	67	65	62	60	58	56	54	54	53	54	54	55	55	52	50	48	47	47	47	47	47	47	47	47	47	47	46	46	46	46	46	46	46	46	46	46	46	46	45	45	45	45	45	45	45	45	45	45	45	45	45	45	45	46	46	46	46	46	46	47	47	47	47	47	48	48	49	49	49	50	50	50	51	51	52	53	56	59	63	66	69	72	73	75	76	78	79	79	80	80	80	80	79	77	75	73	71	69	66	63	61	58	56	55	55	55	56	56	56	56	57	57	56	56	57	58	60	62	64	66	68	70	71	72	74	75	76	77	79	81	83	85	87	89	90	92	94	96	98	100	102	104	106	108	110	112	114	115	117	119	121	123	125	127	128	130	131	132	134	135	136	138	139	141	142	143	144	145	146	147	149	150	153	156	158	161	163	166	169	172	174	177	180	183	185	188	191	194	198	201	205	209	212	214	216	217	219	221	223	225	227	228	229	229	230	231	231	231	231	231	230	230	228	227	225	223	221	218	216	214	212	211	210	210	211	211	213	214	216	217	219	221	222	224	226	227	229	230	232	233	233	232	231	230	230	230	230	231	231	232	232	232	231	231	230	228	226	225	223	222	220	218	215	213	211	210	208	207	206	204	202	200	197	194	191	188	185	183	183	186	189	193	198	201	202	204	205	206	207	207	208	210	211	212	213	214	215	217	218	219	221	222	223	225	226	228	230	232	234	236	238	240	243	245	247	247	248	249	249	249	249	249	249	249	247	246	244	242	240	238	236	235	232	230	227	226	224	222	220	218	217	215	213	211	209	207	206	205	203	202	200	199	197	195	194	193	193	192	191	191	191	190	190	190	189	188	187	186	185	182	179	175	173	170	167	165	162	158	155	152	150	147	143	140	136	133	130	127	124	122	123	124	126	127	126	125	123	121	119	118	118	119	119	120	120	120	120	120	121	122	123	124	125	126	128	129	131	132	133	134	135	136	137	138	139	139	140	142	143	145	147	149	151	153	155	157	159	161	162	164	166	168	170	173	176	179	181	184	186	188	190	192	194	196	197	199	201	202	204	206	208	211	213	216	218	221	223	225	228	231	234	237	240	243	246	249	252	255	258	261	264	267	270	274	277	279	282	284	286	288	290	292	294	295	297	297	298	298	298	298	299	300	300	301	302	303	304	304	304	305	305	305	305	305	305	304	303	302	301	301	300	300	299	299	300	300	300	301	301	301	302	302	302	302	302	302	301	301	300	298	297	296	295	294	294	294	294	293	294	295	297	299	301	304	306	308	310	313	315	317	320	322	324	327	329	332	334	337	340	343	346	349	352	354	357	359	361	363	366	369	372	373	375	376	377	377	377	375	374	372	370	367	365	362	360	357	355	353	351	348	345	341	337	334	331	328	326	323	320	318	316	314	313	312	311	310	309	309	309	308	306	303	301	298	296	293	291	288	286	283	279	275	272	268	264	260	256	252	248	244	241	238	234	232	229	227	225	224	223	221	219	217	216	214	213	212	211	211	212	214	216	219	221	224	225	225	223	221	218	215	213	210	208	205	203	200	197	195	192	190	189	187	185	182	180	178	176	175	174	173	172	172	171	171	170	170	170	169	168	168	167	166	165	163	162	161	160	159	158	155	153	151	149	146	143	141	140	139	138
22	22	22	22	23	23	24	25	25	26	26	27	27	28	28	29	29	30	31	31	32	33	33	34	35	36	37	38	40	41	42	44	46	48	49	51	54	56	58	60	63	65	66	68	70	72	75	79	82	85	88	90	93	95	97	99	101	104	107	109	111	113	113	114	115	115	116	116	117	117	118	118	118	117	116	115	114	112	110	109	107	107	106	105	104	103	101	99	98	97	96	95	95	94	95	96	97	98	99	101	102	103	105	106	107	108	109	109	110	111	111	112	111	111	109	108	108	110	113	116	118	119	119	119	118	120	122	126	129	131	132	134	135	135	133	132	130	128	126	123	121	118	116	114	111	108	105	102	99	99	102	105	107	108	110	111	112	112	113	113	112	111	109	108	106	105	103	101	98	98	102	106	110	112	114	115	114	113	112	110	108	107	108	111	115	117	120	123	126	129	131	134	137	139	140	142	143	145	147	148	149	150	152	154	157	159	160	158	155	152	150	147	145	142	139	136	133	131	128	125	121	118	114	111	108	106	105	103	103	103	101	99	98	97	96	94	91	89	85	82	79	76	73	70	68	67	69	71	74	75	77	77	76	75	74	73	72	71	72	73	74	75	75	76	77	78	78	79	81	82	83	83	82	80	79	77	76	74	73	71	70	68	65	63	61	59	57	57	57	56	56	58	58	58	57	53	50	47	47	47	47	47	47	47	47	47	47	46	46	46	46	46	46	46	46	46	46	46	45	45	45	45	45	45	45	45	45	45	45	45	45	45	45	45	46	46	46	46	46	46	46	47	47	47	47	48	48	49	49	50	50	50	51	51	51	53	55	58	61	64	67	70	72	73	75	77	78	79	80	81	81	81	81	80	78	76	74	72	70	67	65	62	60	58	56	55	55	56	56	56	56	56	56	56	56	58	60	62	64	66	68	69	71	72	73	74	75	76	78	80	82	83	85	87	89	90	92	94	96	98	100	102	105	107	109	111	113	115	117	119	121	123	124	127	129	131	132	134	135	136	138	139	141	142	144	145	146	147	148	149	149	151	153	155	158	161	163	166	168	171	173	176	178	181	184	187	190	193	196	199	202	206	209	212	215	217	218	220	221	224	226	227	227	228	229	229	230	230	230	230	230	229	228	226	225	223	221	219	216	214	212	210	209	209	209	210	210	212	213	215	217	218	220	222	223	225	226	228	229	231	231	231	231	230	230	229	229	229	229	230	230	229	229	228	228	227	226	224	223	222	221	218	215	212	210	208	206	204	203	202	201	199	197	194	191	189	186	183	181	183	186	188	192	197	201	202	204	205	206	206	206	207	208	209	211	212	213	215	216	218	219	221	222	224	225	226	228	230	232	235	237	239	241	243	244	245	246	246	246	247	248	248	249	248	247	246	244	242	240	238	236	234	232	230	228	225	224	222	220	218	216	214	213	211	208	206	205	203	202	201	199	197	196	194	192	191	190	190	190	189	189	189	189	188	187	187	186	185	184	183	182	180	177	174	171	169	167	164	160	157	154	152	149	146	142	138	135	131	128	124	121	120	121	123	125	125	124	122	120	118	117	118	118	119	119	120	120	120	121	122	122	123	124	126	127	129	130	132	133	134	135	136	137	138	139	140	142	143	144	146	147	149	151	153	155	157	159	161	162	164	166	167	169	172	174	177	179	182	184	187	189	191	193	194	196	198	199	201	203	204	206	209	211	214	216	219	221	223	226	229	232	235	238	241	244	247	250	254	257	260	263	265	268	272	275	278	280	283	285	287	289	291	292	293	295	295	295	295	295	295	295	296	297	298	298	299	300	300	301	301	302	302	302	302	302	302	301	300	299	299	298	297	297	297	297	297	297	298	298	299	299	299	299	299	299	299	299	298	298	297	295	294	292	291	290	290	290	290	290	291	293	295	298	300	302	304	307	309	312	314	316	319	321	323	326	328	331	333	336	339	342	344	347	350	352	354	356	358	361	364	367	369	371	372	373	374	375	374	372	371	369	367	365	362	360	357	355	353	351	348	345	341	338	334	331	328	325	323	320	317	315	313	311	310	309	308	308	307	307	306	305	304	302	300	297	295	292	290	288	286	283	279	276	272	268	264	260	256	252	247	244	240	236	233	230	227	225	223	221	220	218	216	214	213	211	210	209	209	209	210	212	214	217	219	222	223	224	223	221	218	216	213	211	209	206	204	201	199	196	194	192	190	188	186	183	181	179	178	177	176	175	175	174	174	173	173	172	172	171	170	170	169	168	167	166	164	163	161	159	157	154	152	150	147	144	141	140	138	137	136
22	22	23	23	24	24	25	26	26	27	27	27	28	28	29	29	30	31	31	32	32	33	34	34	35	36	37	39	40	41	42	44	46	48	50	52	54	56	59	61	63	65	67	69	71	74	77	80	83	86	89	92	94	97	99	101	104	106	109	112	114	115	116	116	117	117	118	118	118	118	117	117	117	117	116	114	113	111	110	108	107	106	105	104	103	101	100	98	97	96	95	94	93	92	92	93	94	95	96	97	99	100	101	103	104	105	105	106	107	107	108	108	107	107	105	104	105	108	111	113	114	115	115	115	116	119	122	126	129	131	132	134	135	134	133	132	130	128	126	123	120	118	115	113	110	107	104	101	98	96	97	100	102	104	106	107	108	109	110	109	109	107	106	105	103	101	100	98	96	98	102	106	109	112	113	113	112	111	110	107	105	104	107	111	114	116	119	122	125	127	130	132	135	137	138	139	141	143	145	146	147	149	151	154	156	158	159	157	154	151	149	146	144	141	138	135	132	129	126	123	120	117	114	112	110	109	107	106	106	105	104	103	101	100	98	95	93	90	87	84	81	78	75	72	69	66	67	69	72	73	75	75	75	74	73	72	71	70	70	71	72	73	74	75	75	76	77	78	80	81	83	83	83	81	80	78	77	75	74	72	70	68	66	64	61	59	59	59	59	59	59	60	60	60	59	56	52	49	47	47	47	47	47	47	47	47	47	46	46	46	46	46	46	46	46	46	45	45	45	45	45	45	45	45	45	45	45	45	45	45	45	45	45	45	45	46	46	46	46	46	46	47	47	47	47	48	48	49	50	50	50	51	51	51	52	54	57	59	62	66	68	70	72	73	75	77	78	80	81	81	81	81	81	80	79	77	75	73	71	69	66	64	62	59	57	56	55	56	56	56	56	56	56	56	58	60	62	64	66	68	69	70	71	72	73	74	76	77	78	80	82	84	86	87	89	90	92	94	96	98	100	103	105	107	109	111	113	115	118	120	122	124	126	128	130	132	134	136	138	139	140	142	144	145	147	148	149	150	151	151	152	153	155	158	160	163	166	168	170	173	175	177	179	182	185	188	191	194	197	200	203	206	210	213	216	218	219	221	222	224	225	226	227	227	228	228	228	229	229	229	228	227	226	224	223	221	219	217	215	212	210	209	208	208	209	209	210	211	213	214	216	218	219	221	222	224	225	227	228	230	230	230	229	228	228	228	228	228	228	227	227	227	226	225	224	223	222	222	221	220	219	217	214	210	207	205	203	201	199	199	198	196	194	191	189	186	183	181	181	184	186	188	192	197	200	202	203	205	205	205	206	206	207	209	210	212	214	215	217	219	220	222	223	224	226	227	229	231	233	235	237	239	241	242	243	243	243	243	243	243	245	245	246	246	246	244	243	240	238	236	234	232	230	228	226	223	222	220	218	216	215	213	211	208	206	204	203	201	200	198	197	195	193	191	190	189	188	188	187	187	187	187	186	186	185	185	184	183	182	181	180	179	178	176	173	170	169	166	163	159	156	154	151	148	144	140	137	133	129	125	122	119	119	121	123	124	123	121	119	118	117	117	118	118	119	119	120	121	121	122	123	124	125	127	128	130	131	132	134	135	136	137	139	140	141	142	143	145	146	148	149	151	153	155	157	159	161	162	164	166	167	169	171	173	175	178	180	183	185	188	190	192	193	195	196	198	200	201	203	205	207	209	212	214	217	219	222	224	227	230	233	236	239	242	245	248	251	255	258	261	264	267	270	273	276	279	281	283	286	287	289	291	292	292	293	293	293	293	293	293	293	293	294	295	295	296	296	297	297	298	299	299	299	300	300	299	298	297	297	296	295	295	295	294	294	295	295	295	296	296	296	297	297	297	296	296	296	295	295	293	292	290	289	288	287	287	287	287	288	289	291	293	295	298	300	303	306	308	311	313	315	318	320	323	325	327	329	332	335	337	340	343	345	348	350	352	353	355	358	361	364	367	369	370	371	372	372	371	370	368	366	364	362	360	357	355	353	351	348	345	342	338	334	331	328	325	322	320	317	314	312	309	307	306	305	304	304	303	303	302	301	301	300	298	296	294	292	289	287	285	282	279	276	272	269	265	260	256	251	247	243	239	235	232	228	225	223	220	219	217	215	213	211	209	208	208	207	207	207	208	210	212	215	217	219	221	222	222	221	219	216	214	212	210	207	205	203	200	197	195	193	191	189	187	185	183	181	180	178	178	177	177	177	176	175	175	174	174	173	172	171	171	170	169	167	165	163	161	158	155	153	150	148	145	142	140	138	137	136	135
23	23	24	24	25	25	26	26	27	27	28	28	29	29	30	30	31	31	32	32	33	33	34	35	35	36	38	39	40	41	43	44	46	48	50	52	54	57	59	62	64	66	68	70	73	76	79	82	85	88	91	93	96	98	101	103	106	108	112	114	116	116	117	117	118	118	119	119	118	117	116	115	115	115	114	113	111	110	108	106	105	104	103	102	101	100	98	97	96	94	93	92	91	90	90	90	90	91	92	94	95	96	98	99	100	101	102	103	103	103	103	103	103	102	101	100	102	105	108	110	111	111	111	113	116	119	122	125	128	131	132	133	134	133	132	131	130	128	125	123	120	118	115	112	110	107	104	100	97	94	94	96	98	100	102	103	105	105	106	105	105	104	102	101	100	98	96	95	95	98	101	105	108	110	112	112	111	109	107	105	102	102	106	110	113	115	118	121	123	125	128	130	132	134	135	136	138	140	142	144	146	149	151	153	155	157	158	156	153	151	148	145	142	140	137	134	132	129	126	124	121	119	116	114	112	111	110	109	108	108	107	106	104	102	99	97	94	92	89	86	82	79	76	73	70	67	65	67	69	71	73	73	73	72	72	71	70	69	69	69	70	71	72	73	74	75	76	78	79	81	82	83	83	82	80	79	77	75	74	72	70	67	65	63	61	59	60	61	61	61	62	62	61	60	59	57	54	51	49	47	47	47	47	47	47	47	47	46	46	46	46	46	46	46	46	45	45	45	45	45	45	45	45	45	45	45	45	45	45	45	45	45	45	45	45	46	46	46	46	46	46	47	47	47	47	48	49	49	50	50	51	51	52	53	54	56	58	61	64	67	69	70	71	73	75	77	78	80	81	81	81	81	81	81	80	78	76	74	72	70	68	65	63	61	58	56	55	55	56	56	56	56	56	57	59	62	64	66	68	70	70	71	72	73	74	75	76	77	79	81	82	84	85	87	88	89	91	93	96	98	100	102	104	107	109	111	113	115	118	120	122	124	127	129	131	133	135	137	139	141	143	145	147	148	149	150	151	153	154	154	155	156	157	160	163	165	168	170	173	175	176	178	181	183	186	188	191	195	198	201	204	207	211	214	217	219	221	222	223	224	225	225	226	226	226	227	227	227	228	227	226	225	224	223	221	220	218	216	213	211	210	208	207	208	208	209	210	211	212	214	215	217	218	220	221	223	224	226	228	229	229	228	227	227	226	226	226	227	226	225	225	224	223	222	220	219	219	219	218	218	217	215	211	208	205	202	200	197	195	195	194	193	190	188	186	183	181	180	182	185	187	189	193	197	201	203	204	205	205	205	206	206	207	209	211	213	215	216	218	219	221	223	224	225	226	228	230	232	233	235	237	239	241	241	240	240	240	239	239	240	241	241	242	243	244	243	241	239	237	235	232	230	228	226	224	222	220	218	217	215	213	211	209	207	205	203	201	199	198	196	194	192	191	189	188	187	186	186	185	185	185	184	184	183	183	182	182	181	180	179	178	178	178	176	174	172	169	167	164	160	157	155	154	150	146	142	138	134	130	126	122	119	117	119	121	122	122	120	118	117	116	117	117	118	118	119	120	121	121	122	123	124	126	128	129	131	132	133	135	136	137	138	139	141	142	143	145	146	148	150	151	153	155	157	158	160	162	164	166	167	169	170	172	174	176	179	181	183	186	188	191	192	194	195	197	198	200	202	203	205	207	210	212	215	218	220	223	225	228	231	234	237	240	243	246	249	253	256	259	262	265	268	271	275	277	280	282	284	286	288	289	291	291	291	291	291	291	291	291	291	290	291	291	292	292	292	293	294	294	295	295	296	296	297	297	297	296	295	294	293	293	292	292	292	292	292	292	293	293	294	294	294	294	294	294	293	293	292	292	290	289	287	286	285	285	284	285	285	285	287	289	291	294	296	299	302	305	307	310	312	315	317	319	322	324	326	328	330	333	335	338	340	343	345	347	348	350	352	355	358	361	364	366	368	369	369	369	368	367	365	363	361	359	357	355	352	350	348	345	342	338	335	331	328	326	323	320	317	314	311	309	306	304	303	301	300	300	299	299	298	298	297	297	296	295	293	291	289	287	285	282	278	275	272	269	265	260	256	251	247	243	239	235	231	227	224	221	219	217	214	212	210	208	207	206	205	205	205	205	206	207	210	212	215	216	218	219	220	220	220	218	216	213	210	208	206	204	200	198	196	194	192	190	188	187	185	183	181	181	180	180	179	179	178	178	177	177	176	175	174	173	172	171	169	167	165	163	160	157	154	152	149	146	143	140	138	136	136	134	133
24	24	25	25	26	26	27	27	28	28	29	29	30	30	31	31	31	32	32	33	33	34	34	35	36	37	38	39	40	41	43	44	46	48	50	52	55	57	59	62	64	67	69	71	74	77	80	83	86	89	92	95	97	100	102	105	107	109	113	115	116	117	117	118	118	119	119	118	117	115	114	113	112	112	112	111	110	108	106	105	103	102	101	100	99	97	96	95	94	93	92	90	89	87	87	87	87	88	89	90	92	93	94	96	97	98	99	99	99	99	99	98	98	97	96	96	99	102	105	106	107	108	110	113	116	119	122	125	128	130	131	133	133	132	131	130	129	127	124	122	120	117	115	112	109	106	103	99	96	93	91	92	94	96	98	99	100	101	101	101	100	100	99	97	96	95	93	93	94	97	100	103	107	109	110	110	109	107	105	102	99	100	104	108	111	114	116	118	120	122	125	127	129	131	132	134	135	138	140	142	145	148	151	153	154	156	157	156	153	150	147	144	141	139	137	135	133	130	128	126	123	121	119	117	115	114	113	112	112	111	110	108	106	103	100	97	95	92	90	86	83	80	77	74	71	68	66	65	67	69	71	71	71	71	70	70	69	69	68	69	69	70	71	72	73	75	76	77	79	80	81	83	84	83	81	79	77	75	74	71	69	67	65	63	61	61	61	62	63	63	63	62	61	59	58	57	54	52	50	48	47	47	47	47	47	47	47	46	46	46	46	46	46	46	46	45	45	45	45	45	45	45	45	45	45	45	45	45	45	45	45	45	45	45	45	46	46	46	46	46	46	47	47	47	47	48	49	50	50	51	51	52	53	55	56	58	60	63	65	67	69	69	70	72	74	76	78	79	81	82	82	82	81	81	80	78	76	75	73	71	69	66	64	62	59	57	56	55	56	56	56	56	57	59	61	64	66	68	70	70	71	71	72	73	74	76	77	78	79	81	82	84	85	86	88	89	90	92	95	97	99	101	103	106	108	111	113	115	117	120	122	125	127	130	132	134	136	138	140	143	145	147	149	151	152	153	154	155	156	157	158	159	160	162	165	168	170	172	175	177	178	180	182	185	187	189	192	195	199	202	205	209	212	215	218	221	223	224	224	224	224	225	225	225	225	226	226	226	226	226	225	223	222	221	220	219	217	215	213	210	209	207	206	207	208	209	209	210	211	213	214	216	217	219	220	221	223	225	227	227	227	227	226	225	225	225	225	225	224	223	222	222	221	219	218	216	216	215	215	214	213	211	208	206	203	200	197	194	192	191	191	190	187	185	182	180	179	180	184	187	189	191	194	197	200	203	204	205	205	206	206	207	208	210	212	214	216	217	219	220	222	223	225	226	228	229	231	232	234	236	237	240	241	240	238	237	236	236	236	237	237	238	238	239	241	241	240	237	235	233	231	229	227	224	222	220	218	216	215	213	211	209	207	205	203	201	199	197	195	194	192	190	189	187	186	185	184	184	183	183	183	182	182	181	181	180	180	179	178	177	176	176	176	176	174	172	170	167	164	161	157	156	154	151	146	142	138	134	130	126	123	119	116	117	119	120	120	118	117	116	116	116	117	117	118	119	120	121	122	122	124	125	127	129	130	132	133	134	135	137	138	139	140	142	143	145	146	148	149	151	153	155	157	158	160	162	164	166	167	169	171	172	174	175	177	179	182	184	187	189	191	193	194	196	197	199	200	202	204	205	207	210	213	216	218	221	223	226	229	232	235	238	241	244	247	251	254	257	260	264	267	270	273	276	279	281	283	285	287	288	289	289	289	289	289	289	289	289	289	289	288	288	288	288	289	289	290	290	291	292	293	293	294	294	294	294	293	292	291	290	290	289	289	289	289	289	290	290	291	291	292	292	292	291	291	290	290	289	288	287	286	285	284	283	283	283	283	283	284	285	287	290	293	296	298	301	304	307	309	312	314	316	319	321	323	325	327	329	331	333	335	338	340	342	344	345	347	349	352	355	358	361	364	366	367	367	366	364	363	361	359	357	355	353	351	350	347	345	342	338	335	332	329	326	324	321	318	314	311	308	306	303	301	299	298	296	296	295	295	295	294	294	294	294	293	292	290	288	286	284	281	278	275	272	269	265	260	255	251	246	242	238	234	231	226	223	221	218	216	213	210	207	205	205	204	203	203	203	203	204	206	208	210	212	213	214	215	216	218	219	218	216	213	210	208	207	204	201	198	196	194	192	190	190	188	186	184	183	183	182	182	182	181	181	180	179	179	178	178	176	175	173	171	170	168	165	162	160	157	154	152	149	146	142	139	136	135	134	133	132
25	25	26	26	27	27	28	28	29	29	30	30	31	31	32	32	32	32	33	33	34	34	35	35	36	37	38	39	40	42	43	45	47	48	50	53	55	57	60	62	65	67	70	73	76	79	82	85	88	91	93	96	98	101	103	106	108	110	113	115	116	117	117	118	118	118	118	117	116	114	112	110	109	109	109	109	108	106	105	103	101	100	99	97	96	95	94	93	92	91	90	88	86	85	84	84	84	85	86	87	88	90	91	92	94	95	95	96	96	95	95	94	93	92	92	93	96	99	101	103	104	107	110	113	116	119	122	124	127	129	130	131	131	130	130	129	127	126	124	121	119	117	114	112	109	105	102	98	94	91	89	89	90	92	94	95	96	97	97	97	96	95	95	94	93	92	91	91	94	96	99	102	105	108	109	108	107	104	102	99	97	97	101	105	108	111	113	115	116	118	121	123	126	127	129	131	133	135	138	141	144	148	150	152	154	156	157	155	153	150	147	144	141	140	138	136	134	132	130	128	126	123	121	119	118	117	116	116	115	114	113	110	107	104	101	98	95	93	90	87	84	81	78	75	73	70	67	65	65	67	68	69	69	69	69	68	68	68	68	68	68	69	70	71	72	74	76	77	79	80	81	82	83	83	82	79	77	75	73	71	69	67	65	63	62	62	63	64	64	64	64	62	61	59	58	56	54	52	51	49	48	47	47	47	47	47	47	46	46	46	46	46	46	45	45	45	45	45	45	45	45	45	45	45	45	45	45	45	45	45	45	45	45	45	45	46	46	46	46	46	46	47	47	47	47	48	49	50	51	51	52	53	55	57	59	61	62	64	66	67	68	69	70	72	74	75	77	79	81	82	82	82	82	81	80	79	77	75	73	72	70	67	65	63	60	58	56	55	56	56	56	56	58	60	64	66	68	69	70	70	71	72	73	74	75	76	77	78	79	80	82	83	84	85	87	88	89	91	93	95	97	99	102	105	108	110	112	115	117	120	122	125	128	130	133	135	137	139	142	144	147	149	151	152	153	155	156	157	159	160	161	162	163	165	167	169	172	174	177	179	181	182	184	186	188	190	193	196	200	203	207	210	213	216	219	221	223	223	223	223	223	223	224	224	224	224	225	225	225	224	223	222	220	219	218	217	215	214	212	209	208	206	206	206	207	208	209	210	211	212	213	215	216	217	219	220	222	224	225	226	226	225	224	224	224	223	223	222	222	221	220	219	218	217	215	214	213	212	211	210	208	207	205	203	201	198	195	192	190	188	187	186	184	182	180	178	178	182	186	189	192	194	196	199	201	203	205	205	206	207	207	209	210	211	213	215	217	218	220	221	223	224	226	227	228	230	232	233	235	236	238	240	241	239	236	234	233	233	233	233	234	234	235	236	237	238	238	237	234	232	230	228	225	223	220	218	216	214	213	212	210	208	206	203	201	199	197	195	194	192	190	189	187	186	184	183	182	182	181	180	180	180	179	179	178	178	177	177	176	175	174	174	174	174	173	171	169	167	164	160	157	154	152	149	145	141	137	133	129	126	123	119	116	115	117	117	117	115	115	115	115	116	116	117	118	119	120	121	122	123	125	127	128	130	131	133	134	135	136	137	139	140	141	143	144	146	147	149	151	152	154	156	158	160	162	163	165	167	169	170	172	174	175	177	179	181	183	186	188	190	192	193	195	196	198	199	201	203	204	206	208	211	214	216	219	222	224	227	230	233	236	240	243	246	249	252	255	258	262	265	268	271	274	277	279	281	283	285	286	287	287	288	288	288	288	288	288	288	287	287	287	286	286	286	286	286	286	287	288	289	290	290	291	291	291	291	291	289	288	287	287	286	286	287	287	287	287	288	288	289	289	289	289	289	288	287	287	286	286	285	284	283	282	282	281	281	282	283	284	285	287	289	292	295	298	300	303	306	308	311	313	316	318	320	322	324	326	327	329	331	332	335	337	339	340	342	344	346	349	352	355	358	361	363	364	364	362	361	359	357	355	354	352	350	348	347	344	342	339	335	332	329	327	324	322	319	316	313	309	306	303	300	298	296	294	293	292	291	291	291	291	291	291	291	290	289	288	286	285	282	280	277	275	272	269	265	260	255	250	246	242	238	234	231	227	224	221	219	215	212	209	206	204	203	202	202	201	201	202	203	204	205	207	209	210	211	212	213	214	215	216	215	212	210	208	205	203	200	197	195	193	192	191	190	189	188	187	186	185	185	184	184	184	183	182	182	181	180	179	178	176	174	172	170	168	165	162	160	157	155	153	151	148	144	140	138	136	134	133	132
26	27	27	27	28	28	29	29	29	30	31	31	32	32	33	33	33	33	33	34	34	35	35	36	37	38	39	40	41	42	43	45	47	48	50	53	55	58	60	62	65	67	70	73	76	80	83	86	89	92	94	97	99	102	104	107	109	111	112	113	114	115	116	116	116	116	116	116	114	112	109	108	107	106	106	106	106	105	103	101	99	97	96	95	94	93	92	90	89	88	87	85	83	82	81	81	81	82	83	84	86	87	88	89	91	92	92	92	92	92	91	90	89	89	89	90	93	95	98	100	103	107	110	113	116	118	121	123	125	128	129	130	129	129	128	128	126	124	123	121	118	116	114	111	108	104	101	97	93	90	87	86	87	88	90	91	92	92	93	93	92	92	91	91	90	89	89	91	93	96	99	101	104	107	106	105	103	102	99	97	94	94	97	101	104	107	109	111	113	115	118	120	122	124	127	129	131	134	137	140	143	146	149	151	153	155	156	155	153	150	148	145	143	142	140	139	136	134	132	130	128	126	124	122	121	120	119	119	119	117	114	111	108	105	102	99	96	94	91	88	85	82	79	76	74	71	68	66	64	64	66	67	67	67	67	66	66	67	67	67	68	68	69	70	72	73	75	77	78	79	80	82	83	83	82	80	78	75	73	71	69	67	66	65	64	64	65	65	65	65	64	62	61	59	57	56	54	52	51	50	49	48	47	47	47	47	47	47	46	46	46	46	45	45	45	45	45	45	45	45	45	45	45	45	45	45	45	45	45	45	45	45	45	45	45	45	46	46	46	46	46	47	47	47	47	48	50	51	51	52	53	54	56	59	61	63	64	65	66	67	68	69	70	71	73	75	77	78	80	82	83	83	82	81	81	79	77	76	74	72	70	68	66	64	61	59	56	55	56	56	56	57	59	63	66	68	69	70	70	71	71	72	73	73	74	75	76	77	78	80	81	82	83	84	86	87	88	90	91	93	95	98	100	103	107	109	112	115	117	120	123	125	128	131	133	136	138	141	143	145	148	150	153	154	155	157	158	159	161	162	164	165	166	167	169	171	174	176	179	181	183	185	186	188	190	191	194	197	201	204	208	211	214	217	220	220	221	220	221	221	221	222	222	222	223	223	223	224	223	222	221	220	219	217	216	215	214	212	211	209	207	205	205	206	207	208	208	209	210	211	212	214	215	217	218	219	221	223	224	224	224	223	223	222	222	222	221	220	220	219	218	217	217	215	214	212	211	209	208	206	205	203	202	201	199	197	194	191	188	186	184	182	181	179	177	177	180	184	188	191	194	196	198	200	202	203	205	206	207	208	209	210	211	213	214	216	218	220	221	222	224	225	227	228	229	230	232	234	236	237	239	241	240	237	234	232	231	230	230	230	230	230	231	232	233	234	236	236	234	231	229	227	224	221	219	217	214	213	211	210	208	206	204	202	200	198	196	194	192	190	189	187	185	184	183	182	180	180	179	178	178	178	177	177	176	176	175	175	174	173	172	172	172	172	171	170	168	166	162	158	155	152	149	146	143	139	136	132	128	125	123	119	116	114	114	114	113	113	113	114	115	115	116	117	118	119	120	121	123	124	126	128	129	131	132	133	135	136	137	138	140	141	142	144	145	147	149	150	152	154	155	157	159	161	163	165	167	169	171	172	174	175	177	179	180	182	185	187	189	191	192	194	195	197	198	200	202	203	205	206	209	211	214	217	220	222	225	228	231	234	238	241	244	247	250	253	256	260	263	266	269	272	275	278	280	281	283	285	286	286	286	286	286	287	287	286	286	286	286	285	285	284	284	284	283	284	284	284	285	286	287	288	288	288	288	288	288	287	286	284	284	283	283	284	284	284	285	285	286	286	286	286	286	286	285	285	284	284	283	283	282	281	281	280	280	280	281	282	283	285	286	289	292	295	297	300	303	305	308	310	313	315	317	319	321	322	324	326	327	328	330	332	334	336	337	339	341	344	347	350	353	356	358	361	362	361	359	357	355	354	352	350	348	347	345	344	342	339	336	333	330	327	325	323	320	317	315	311	308	304	301	298	295	292	290	289	288	287	287	288	288	288	288	288	288	287	286	285	283	281	279	276	274	272	269	265	261	255	250	246	242	238	235	231	228	224	221	218	215	212	209	206	204	202	201	200	199	200	200	201	201	202	204	205	207	208	209	209	210	211	212	211	210	207	205	203	201	198	196	194	192	190	190	189	189	189	188	188	187	187	187	186	186	185	185	184	183	182	180	178	176	174	172	170	168	165	162	160	158	156	154	152	150	147	143	141	139	136	134	133
27	27	28	28	29	29	29	30	30	31	32	32	33	33	34	34	34	34	34	34	35	35	36	37	38	38	39	40	41	42	44	45	47	49	51	53	55	58	60	63	65	68	70	74	77	80	83	87	90	92	95	97	100	103	105	107	109	110	110	111	112	113	113	113	114	114	114	113	112	109	107	105	104	103	103	103	103	102	101	99	97	95	94	93	91	90	89	88	86	85	83	82	81	79	78	78	79	79	80	82	83	84	85	86	88	88	89	89	89	88	88	87	87	87	88	89	91	94	97	100	103	107	110	113	115	117	120	122	124	126	128	128	128	128	127	126	125	123	121	120	118	115	113	111	108	104	100	96	92	89	85	83	84	85	87	88	89	89	89	89	89	89	88	88	87	87	88	90	93	96	98	101	104	105	104	102	100	99	97	94	92	91	93	97	100	103	105	107	109	112	114	117	120	122	125	128	130	133	136	139	142	145	148	150	152	154	156	155	153	151	149	148	146	144	142	140	138	136	133	131	129	128	126	125	124	123	123	123	121	118	115	112	109	106	104	101	98	95	92	89	86	83	80	78	75	72	69	67	64	63	63	64	65	65	65	65	65	65	66	66	67	68	69	70	71	73	74	76	78	79	80	81	82	83	82	80	78	75	73	71	69	68	67	67	66	66	67	67	66	65	64	62	60	58	57	56	55	53	52	51	50	49	48	47	47	47	47	47	47	46	46	45	45	45	45	45	45	45	45	45	45	45	45	45	45	45	45	45	45	45	45	45	45	45	45	45	46	46	46	46	46	46	47	47	47	48	50	51	52	52	53	55	57	60	63	64	65	65	66	67	68	69	70	71	73	74	76	78	80	82	83	83	82	82	81	79	78	76	74	73	71	69	67	64	62	59	57	56	56	56	57	58	61	65	67	69	70	70	70	71	71	71	72	73	73	74	75	76	77	78	79	81	82	83	85	86	87	88	90	91	94	97	100	103	106	109	112	115	118	120	123	126	129	131	134	136	139	141	144	146	149	151	154	156	157	159	160	161	163	165	166	168	169	170	171	173	175	178	180	183	185	187	189	190	191	194	196	199	202	206	209	212	216	218	218	218	219	219	219	219	220	220	220	221	221	221	222	222	222	221	220	219	217	216	215	214	213	211	210	208	206	204	204	205	206	207	207	208	209	210	211	213	214	215	217	218	220	221	222	222	222	222	221	221	221	220	220	219	218	218	217	216	215	214	212	211	209	207	206	204	202	200	199	198	197	195	192	189	186	184	181	179	178	176	176	179	183	187	191	193	195	198	200	202	203	205	206	207	209	210	211	212	213	215	216	217	219	221	222	224	225	226	227	229	230	231	233	234	236	238	240	241	238	235	232	230	228	227	226	226	226	227	227	228	229	230	232	233	233	231	228	226	223	220	218	215	213	211	209	208	207	205	203	201	198	196	194	192	190	189	187	185	184	182	181	180	179	178	177	176	176	175	175	174	174	173	173	172	172	171	170	170	171	170	170	168	167	164	160	157	154	150	146	143	140	137	133	130	127	125	122	119	116	113	113	112	111	111	112	113	114	115	115	117	118	119	120	122	123	125	127	129	131	132	133	134	136	137	138	139	140	142	143	145	146	148	150	151	153	155	157	159	161	163	165	167	168	170	172	174	175	177	179	180	182	184	186	189	191	192	193	195	196	198	199	200	202	204	205	207	210	212	215	218	220	223	226	229	232	235	239	242	245	248	251	254	257	260	264	267	270	273	276	278	280	281	282	284	284	285	285	285	285	285	285	285	284	284	284	284	283	283	282	282	282	281	282	282	283	284	285	285	286	286	286	286	285	284	282	281	280	280	280	280	281	281	282	283	283	284	284	284	284	283	283	283	282	281	281	281	280	279	279	278	278	279	280	282	283	284	286	289	292	294	297	300	302	305	307	310	312	314	316	318	319	321	322	323	325	326	328	329	331	333	335	337	339	342	345	348	351	353	356	358	359	358	356	354	352	350	348	347	345	344	342	341	339	337	334	331	328	326	324	321	319	316	313	310	307	303	299	295	292	289	287	285	284	284	284	284	285	285	285	285	285	284	284	283	282	280	278	275	273	271	269	266	261	255	250	246	243	239	235	232	229	225	222	219	216	212	209	206	204	202	200	198	198	198	198	198	198	199	200	202	203	204	205	206	207	208	208	208	207	205	202	200	198	195	193	191	189	188	188	187	188	188	188	188	188	189	189	189	188	188	187	186	184	182	180	178	176	174	172	170	168	165	162	160	158	157	155	153	151	149	145	143	141	139	136	134
28	28	28	29	29	29	30	31	31	32	33	33	34	34	35	35	35	35	35	35	35	36	37	38	38	39	40	41	42	43	44	46	47	49	51	53	56	58	61	63	66	68	71	74	77	81	84	87	91	93	96	98	101	103	105	106	107	107	107	108	108	109	109	109	110	110	110	110	109	107	105	102	100	100	100	100	100	99	98	96	94	92	91	90	89	88	87	86	84	82	80	79	78	76	75	75	76	76	78	79	80	81	82	83	84	85	86	86	85	85	85	85	85	85	86	88	90	94	97	100	104	107	110	112	114	116	119	121	123	125	127	127	127	126	126	125	123	122	120	118	117	115	113	110	107	103	99	96	92	88	83	81	81	82	84	85	86	87	87	86	86	86	86	86	85	85	87	90	93	96	99	101	103	102	101	99	98	96	94	92	89	88	90	94	97	100	102	105	107	110	112	115	118	121	124	127	130	133	136	139	142	144	147	150	152	154	155	155	154	152	151	150	148	146	144	142	139	137	134	133	131	130	129	128	127	127	126	125	122	119	116	113	111	108	105	102	99	96	93	90	87	84	81	78	75	73	70	67	65	64	63	63	63	63	63	63	64	64	64	65	66	67	68	69	70	72	73	75	76	78	79	80	82	83	82	80	78	76	73	72	70	69	69	69	68	68	68	68	66	65	64	61	59	58	57	57	56	55	54	53	52	50	49	48	47	47	47	47	46	46	46	45	45	45	45	45	45	45	45	45	45	45	45	45	45	45	45	45	45	45	45	45	45	45	45	45	46	46	46	46	46	46	47	47	47	48	50	51	52	53	54	56	58	61	63	64	64	64	65	66	67	68	69	71	72	74	76	77	79	81	83	83	83	82	81	80	78	76	75	73	72	70	67	65	62	60	57	56	56	57	57	60	64	67	68	69	70	71	71	71	71	71	71	72	72	73	74	75	76	77	78	80	81	82	84	85	87	88	89	90	93	96	99	102	106	109	112	115	118	121	123	126	129	132	134	137	139	142	144	147	149	152	155	157	159	161	162	163	165	167	168	170	171	172	173	175	177	179	182	184	187	189	191	192	194	196	199	202	205	208	211	213	216	216	216	216	217	217	217	218	218	218	219	219	220	220	220	220	220	220	219	218	217	215	214	213	212	211	210	208	205	203	203	204	205	205	206	207	208	209	210	211	212	213	215	216	218	220	221	221	220	220	220	220	220	219	219	218	217	217	216	216	215	213	212	210	208	206	204	202	200	198	196	195	194	193	190	188	185	183	180	177	175	175	178	182	185	189	192	195	197	199	201	203	205	206	208	209	210	212	213	214	215	216	217	219	220	222	223	225	226	227	228	229	230	232	233	234	236	238	240	239	236	233	230	227	226	224	223	223	223	223	224	225	226	227	228	230	230	229	227	225	222	219	217	214	211	209	207	206	205	203	201	199	197	195	192	190	189	187	185	184	182	180	179	178	177	176	175	174	174	173	173	172	172	171	171	170	170	169	169	169	169	169	168	167	165	163	160	156	152	148	144	140	137	134	131	128	126	124	121	118	116	113	111	111	110	110	112	113	113	114	115	117	118	120	121	122	124	126	128	130	131	133	134	135	136	138	139	140	141	143	144	146	147	149	151	152	154	156	158	160	162	164	166	168	170	172	173	175	177	179	180	182	184	186	188	190	192	193	194	195	197	198	199	201	203	204	206	208	210	213	216	219	221	224	227	230	233	236	239	242	246	249	252	255	258	261	264	267	270	273	276	279	280	281	282	283	283	283	284	284	284	284	283	283	283	283	283	282	282	282	281	281	280	280	280	280	281	282	283	284	285	285	285	284	283	281	279	278	277	276	277	277	278	278	279	280	281	281	282	282	281	281	281	280	280	279	279	278	278	277	277	276	277	278	280	282	283	284	286	289	291	294	296	299	301	304	306	309	311	313	314	316	318	319	320	321	323	324	325	327	328	330	332	334	337	340	343	346	350	352	355	356	356	355	353	352	349	347	345	343	342	341	339	337	336	334	332	329	327	325	322	320	317	315	312	309	305	301	297	293	290	287	285	283	281	281	280	281	281	281	281	281	281	281	281	280	280	279	277	275	273	271	269	266	261	256	251	247	243	240	237	234	230	227	223	220	217	214	210	207	205	203	200	198	196	195	195	194	194	195	197	199	200	201	202	203	204	205	205	205	204	202	200	198	195	193	190	188	187	186	185	185	185	185	185	185	186	187	189	189	190	190	188	186	184	181	179	176	174	172	170	168	167	165	163	160	158	156	155	154	152	150	147	144	142	139	137	134
28	28	29	29	29	30	31	31	32	33	34	34	35	36	36	36	36	36	36	36	37	37	38	39	39	40	41	41	42	43	45	46	47	49	51	54	56	59	61	64	66	69	72	75	78	82	85	88	91	94	96	98	100	101	103	104	104	105	105	105	105	105	105	105	105	106	106	107	106	105	102	100	97	96	96	96	96	96	94	93	91	90	88	87	87	86	85	84	82	79	77	76	74	73	72	72	73	74	75	76	77	78	79	81	81	82	83	82	82	82	82	82	82	83	85	87	91	94	97	101	104	107	110	112	114	116	118	120	122	124	126	126	126	125	125	124	122	120	119	117	116	114	112	109	106	103	99	95	92	87	83	80	79	80	82	83	84	84	84	84	84	84	84	83	83	85	87	90	93	96	99	100	101	100	98	97	95	93	91	89	87	87	88	92	95	98	100	103	106	108	111	114	117	120	124	127	130	133	135	138	141	144	147	150	152	154	155	156	155	154	152	151	150	148	146	143	141	138	137	135	133	132	131	130	130	130	129	126	122	119	116	114	111	108	106	102	99	96	93	90	87	85	82	79	76	73	70	68	66	64	63	62	61	61	61	61	62	62	62	64	65	66	67	68	69	70	71	73	75	77	78	80	81	82	82	80	78	76	74	73	71	71	71	71	71	70	70	69	67	65	64	61	59	58	58	58	58	56	55	54	53	52	50	49	48	47	47	47	46	46	45	45	45	45	45	45	45	45	45	45	45	45	45	45	45	45	45	45	45	45	45	45	45	45	45	45	45	46	46	46	46	46	47	47	47	48	49	51	52	53	55	57	59	61	63	63	63	63	64	65	66	68	69	70	72	73	75	77	78	80	82	83	83	82	81	80	79	77	75	74	72	70	68	65	63	60	58	56	57	59	60	63	66	68	69	70	71	72	72	71	70	70	69	70	71	72	73	75	76	77	78	79	80	81	83	84	86	87	88	89	92	95	98	102	105	109	112	114	117	120	123	126	129	131	134	137	139	142	144	147	150	153	156	158	161	163	164	165	167	168	170	171	173	173	175	177	179	181	183	186	188	191	192	193	195	198	202	204	207	210	212	214	215	214	214	215	215	215	216	216	216	217	217	218	219	219	219	219	218	218	218	217	216	215	213	212	211	210	209	207	204	202	202	203	204	204	205	206	207	207	208	209	210	211	212	213	215	217	219	219	219	220	220	219	219	218	218	217	217	216	216	215	214	213	212	210	208	206	203	200	198	195	193	192	191	190	188	186	184	181	177	174	174	177	180	184	187	191	193	196	199	201	203	205	206	208	209	210	212	213	214	216	217	218	219	220	222	223	225	226	227	228	229	230	231	232	234	235	236	238	239	237	233	230	227	225	223	221	221	220	220	220	221	222	223	224	225	226	227	226	226	224	221	218	216	213	210	208	206	204	203	201	199	197	195	193	191	189	187	185	184	182	180	179	177	176	175	174	173	172	172	171	170	170	169	169	168	168	168	167	167	167	167	167	166	165	163	161	159	156	152	147	142	138	134	131	129	127	125	122	120	117	115	112	111	110	109	110	111	112	113	114	116	117	118	120	121	123	125	127	129	131	132	133	135	136	137	138	140	141	142	143	145	147	148	150	152	153	155	157	159	161	163	165	167	169	171	173	175	177	179	180	182	184	185	188	189	191	192	193	195	196	197	199	200	201	203	204	206	208	211	214	217	219	222	225	228	231	234	237	240	243	246	249	252	255	258	261	264	267	270	273	276	278	279	280	281	282	282	282	282	283	283	282	282	282	282	281	281	281	281	280	280	279	278	277	277	278	278	279	280	281	283	283	283	282	280	278	276	274	273	273	273	274	275	276	277	278	278	279	279	279	279	279	278	278	277	277	276	276	275	275	274	275	276	278	280	281	283	284	286	288	290	293	295	298	300	303	305	308	310	311	313	315	316	317	318	319	320	322	323	325	326	328	329	332	335	338	341	345	348	351	353	354	354	353	351	349	346	344	342	340	338	337	336	334	332	331	329	327	325	323	321	318	316	314	311	308	304	300	296	292	288	285	282	280	279	278	277	277	277	277	277	277	277	277	277	277	278	278	277	275	272	271	269	266	262	257	252	248	245	242	239	235	232	228	225	222	219	215	212	208	206	204	201	199	196	194	192	191	191	192	193	196	197	199	200	200	201	202	202	202	202	200	198	196	193	191	188	186	185	183	183	183	182	182	182	182	183	184	186	187	188	189	187	185	182	179	177	174	172	170	169	167	165	164	163	160	158	156	154	153	152	150	148	145	142	139	137	135
28	28	29	29	30	30	31	32	33	34	35	36	36	36	36	36	36	36	36	37	38	39	39	40	41	41	42	42	43	44	46	47	48	49	52	54	57	59	62	64	67	70	72	75	79	82	86	89	91	93	95	96	97	98	99	100	101	101	102	102	102	102	101	101	101	102	103	104	104	103	100	97	94	92	92	93	93	92	91	90	88	87	86	84	84	84	83	82	80	77	75	73	71	70	70	69	70	71	72	73	74	75	77	78	78	79	79	79	78	78	79	79	80	82	85	88	91	94	97	101	104	107	110	112	114	116	118	120	122	124	125	125	124	124	124	122	121	119	117	116	114	113	111	108	105	102	99	95	92	87	82	79	77	78	80	81	82	82	82	82	82	82	81	81	82	85	88	91	93	96	98	98	98	97	96	95	93	91	89	87	85	85	87	90	93	96	99	102	105	108	111	114	117	120	124	127	130	133	136	138	141	144	147	150	152	154	155	156	156	155	154	152	151	149	147	144	142	141	139	137	135	133	132	131	131	131	129	126	123	119	116	113	111	108	105	102	99	96	93	90	87	85	82	79	76	73	70	68	67	65	63	62	61	61	60	60	60	60	61	62	63	65	66	67	68	69	70	71	73	76	78	79	81	83	83	81	79	78	76	75	73	73	73	73	73	72	71	70	68	66	64	62	61	60	60	60	59	58	56	55	54	53	52	50	48	47	47	46	46	45	45	45	45	45	45	45	45	45	45	45	45	45	45	45	45	44	44	44	45	45	45	45	45	45	45	45	45	46	46	46	46	46	47	47	47	48	49	50	51	53	54	56	58	60	61	62	62	62	63	64	65	67	68	69	71	72	74	76	78	80	81	83	83	82	81	81	79	77	76	74	72	70	68	66	63	61	58	56	58	62	63	65	67	68	69	70	71	72	71	70	69	66	66	68	70	72	73	75	77	78	79	79	80	81	82	84	85	87	88	89	91	95	98	101	105	108	111	114	116	119	122	125	128	131	133	136	139	141	144	147	150	153	156	158	160	163	165	166	168	169	171	172	174	175	177	179	181	183	185	187	190	192	194	195	197	200	203	207	209	212	213	214	213	212	212	213	213	213	214	214	215	216	216	217	218	218	217	217	217	217	216	215	215	214	213	211	211	210	209	207	204	201	201	202	202	203	204	204	205	206	207	207	208	209	210	211	213	215	217	219	219	219	219	219	218	218	217	217	216	216	216	216	214	213	211	210	208	206	203	199	196	192	190	189	188	186	185	183	181	178	174	173	176	179	183	186	189	192	195	197	200	202	204	206	208	209	210	212	213	215	216	217	218	220	221	222	223	225	226	227	228	229	230	231	232	233	234	236	237	238	237	233	230	227	224	222	220	219	218	217	217	218	218	219	220	221	222	223	223	223	223	222	220	217	214	212	209	207	205	203	201	199	198	196	193	191	189	187	185	184	182	180	179	177	176	174	173	172	171	170	169	169	168	167	167	166	166	166	166	165	165	165	165	165	164	163	162	160	158	155	151	146	141	136	133	130	128	125	123	121	118	116	114	111	110	109	109	111	112	113	114	115	116	117	119	120	122	124	126	128	130	132	133	134	135	137	138	139	141	142	143	144	146	148	149	151	153	154	156	158	160	162	164	166	168	170	172	174	176	178	179	181	183	185	187	189	191	192	193	194	196	197	198	199	201	202	204	205	207	209	212	215	217	220	223	226	228	231	234	237	240	243	246	249	252	255	258	261	264	267	270	273	275	278	279	280	281	281	281	281	281	281	281	281	281	280	280	280	280	280	280	279	279	278	277	275	274	275	275	276	277	279	280	281	281	280	278	276	274	271	270	269	270	271	272	273	274	275	276	276	277	277	277	276	276	276	275	275	274	274	273	273	273	274	276	278	279	281	282	284	286	287	290	292	294	297	299	302	305	307	309	310	312	313	314	315	316	317	318	319	321	323	324	326	327	330	332	335	339	343	347	350	352	352	351	350	348	346	343	341	338	336	335	334	333	331	329	328	326	325	323	321	319	317	315	312	310	306	302	298	294	290	286	283	280	278	276	275	274	273	273	273	273	273	274	274	274	274	275	276	276	274	272	271	269	267	263	258	253	250	247	244	241	237	234	230	227	224	220	217	213	210	207	204	202	200	197	193	191	189	189	190	191	193	194	196	197	198	199	199	200	200	199	198	196	194	191	189	187	185	183	181	180	180	180	179	179	179	180	181	183	184	185	187	186	183	180	178	175	172	169	168	167	165	164	163	162	160	158	156	154	153	152	150	148	145	142	139	137	135
28	29	29	30	30	31	32	32	33	34	35	37	37	37	37	37	37	37	37	38	39	40	40	41	42	42	43	44	45	46	47	48	49	50	52	55	58	60	63	65	68	70	73	76	79	83	85	88	90	91	92	93	94	95	96	96	97	97	98	98	98	98	98	97	98	98	99	101	101	100	98	95	92	90	89	90	90	89	88	87	86	84	83	82	81	81	81	80	77	75	72	70	69	68	67	67	67	68	70	71	72	73	74	75	75	76	76	75	75	75	75	76	78	82	85	88	91	94	97	101	104	107	109	112	114	116	117	119	121	123	124	124	124	123	122	121	119	118	116	114	113	111	109	107	104	101	98	95	91	87	82	79	76	76	77	78	79	79	79	79	80	80	80	81	83	85	88	90	93	94	96	96	95	95	94	92	91	89	87	85	83	83	86	90	92	95	98	101	104	107	110	113	117	120	124	127	130	133	136	138	141	144	146	149	152	154	155	157	157	156	154	153	152	150	148	147	145	143	141	139	137	135	134	132	131	131	129	126	123	119	116	113	110	107	104	101	98	95	93	90	87	84	81	78	76	73	70	69	67	65	64	63	62	61	61	60	60	59	59	60	61	63	64	66	67	68	69	71	73	76	78	79	81	83	83	83	81	80	78	77	76	76	76	76	75	74	73	71	69	67	66	64	63	63	62	62	60	59	58	56	55	54	53	51	49	48	47	46	46	45	45	45	45	45	45	45	45	45	45	45	45	45	44	44	44	44	44	44	44	45	45	45	45	45	45	45	45	45	46	46	46	46	47	47	47	47	49	50	51	52	53	55	56	58	59	60	60	60	61	63	64	66	67	69	70	72	73	75	77	79	80	82	83	82	81	81	80	78	76	74	73	71	69	66	64	61	59	56	59	63	65	66	67	69	70	71	71	71	70	67	64	63	63	65	69	71	73	76	78	80	80	80	81	81	82	83	85	86	88	89	91	95	98	101	104	107	110	112	115	118	121	124	126	129	132	135	138	141	144	147	150	152	155	157	159	161	163	166	168	169	171	173	175	177	178	180	183	185	187	189	191	193	195	197	199	202	205	208	211	212	213	212	211	211	211	211	211	212	212	213	214	215	215	216	217	216	216	216	216	215	215	214	213	213	212	211	210	209	208	206	203	201	200	201	201	202	202	202	203	204	205	205	206	207	208	209	210	212	215	217	218	218	218	218	217	217	215	213	211	210	211	215	215	213	212	210	208	206	203	198	194	190	188	186	184	182	181	179	177	174	172	175	178	181	185	188	191	193	196	198	201	203	205	207	209	210	212	213	215	216	218	219	220	221	222	224	225	226	227	228	229	230	231	232	233	234	235	236	237	236	233	230	226	224	221	219	217	216	215	214	214	215	215	216	217	218	219	219	220	220	220	220	219	216	214	211	208	206	204	201	199	198	196	194	192	190	188	186	184	182	180	179	177	175	174	172	171	170	169	168	167	167	166	165	165	164	164	164	163	163	163	163	163	163	162	161	160	159	157	154	150	145	140	135	132	130	128	125	122	119	117	115	112	110	109	109	110	111	112	113	114	115	116	117	119	120	121	124	126	129	131	132	133	135	136	137	139	140	141	143	144	145	147	149	150	152	154	155	157	159	161	163	165	167	169	171	173	175	177	179	180	182	184	186	188	190	191	193	194	195	196	198	199	200	201	203	204	206	208	210	212	215	218	221	223	226	229	232	235	237	240	243	246	249	252	254	257	260	263	266	269	272	274	277	279	280	280	281	280	280	280	280	280	280	279	279	279	279	278	278	278	278	277	276	274	273	272	272	272	273	275	276	277	278	278	277	276	274	272	269	268	267	267	268	269	271	272	273	274	274	274	274	274	274	274	273	273	272	272	271	271	271	272	274	276	277	279	281	282	284	285	287	289	291	293	296	298	301	303	305	307	308	310	311	312	313	314	315	316	317	319	321	322	324	326	328	330	333	337	341	345	348	349	349	349	347	345	343	340	338	335	333	331	330	329	328	326	325	323	322	320	318	317	315	313	311	308	305	301	297	293	288	284	281	278	276	274	273	271	270	269	269	269	269	270	270	271	271	272	273	273	273	272	270	269	267	263	258	255	252	249	246	243	240	236	233	229	225	222	218	215	211	208	206	203	200	197	194	191	189	188	188	189	190	192	193	194	195	196	197	197	197	197	196	194	192	190	188	186	183	181	179	178	177	177	177	176	177	178	179	180	181	183	184	183	181	179	176	173	170	168	167	165	164	162	161	161	160	158	156	154	152	151	150	148	145	142	139	138	136
28	29	29	30	30	31	32	33	34	35	36	37	38	38	38	38	38	38	38	39	40	41	42	42	43	44	45	46	47	48	49	49	50	52	54	56	58	61	64	66	69	71	73	76	79	82	84	85	87	88	90	91	91	92	92	92	93	93	94	94	95	95	94	94	94	94	95	96	97	97	95	93	91	88	87	87	86	86	85	84	83	81	80	79	78	78	78	77	75	73	70	68	66	65	65	64	65	66	67	68	69	70	71	71	72	73	72	72	71	71	72	75	78	82	86	89	92	95	97	100	103	106	109	111	113	115	117	119	121	123	123	123	122	122	121	119	118	116	115	113	112	110	108	105	102	100	97	94	90	87	82	79	76	74	73	74	75	76	76	77	78	78	79	80	83	85	88	90	91	93	93	93	93	92	91	90	88	87	85	82	81	82	86	89	92	95	98	101	104	106	109	112	116	119	123	126	129	132	135	137	140	143	146	148	151	153	155	157	158	157	155	154	152	151	150	149	147	146	143	141	139	137	136	134	132	131	129	126	122	118	115	112	109	106	103	100	97	94	91	89	87	84	81	78	75	72	70	68	67	66	64	63	63	62	61	61	60	59	58	58	60	61	63	65	67	69	70	72	74	76	78	80	81	83	84	84	83	81	80	79	78	78	78	78	77	76	75	73	71	69	68	67	66	65	64	63	61	60	59	57	56	55	54	52	50	48	46	46	45	45	45	45	45	45	45	45	45	45	45	45	44	44	44	44	44	44	44	44	44	44	45	45	45	45	45	45	45	45	46	46	46	46	46	47	47	47	48	49	50	51	52	53	54	56	57	58	58	59	60	62	64	65	67	68	69	71	72	74	76	78	79	81	82	82	81	81	80	79	77	75	73	71	69	66	64	62	59	56	58	62	64	67	68	69	70	71	71	70	67	64	62	62	62	64	68	71	74	77	79	81	82	82	82	82	83	84	85	87	88	89	92	95	98	101	104	106	109	111	114	117	119	122	125	128	131	134	137	140	143	146	149	151	153	155	158	159	162	164	167	169	171	174	176	178	180	182	184	186	188	189	191	194	196	198	201	203	206	209	211	212	211	210	209	209	209	210	210	211	211	212	213	214	215	215	216	215	215	215	215	215	213	213	212	211	211	210	209	209	207	205	203	201	200	200	200	200	200	200	201	202	203	204	204	205	206	207	208	210	212	215	217	218	218	217	217	216	211	208	207	207	207	211	216	214	212	211	209	206	202	197	192	189	186	183	181	179	177	176	173	171	173	177	180	183	186	190	192	194	197	199	202	204	206	208	210	211	213	214	216	217	219	221	222	223	224	225	226	227	228	229	229	230	232	233	234	235	236	235	234	232	229	226	223	221	219	216	215	213	212	212	212	212	212	213	214	214	215	216	216	217	217	217	217	216	213	211	208	205	203	200	198	196	194	192	190	188	186	184	182	181	179	177	175	174	172	171	169	168	167	166	165	165	164	163	163	162	162	161	161	161	160	160	160	160	159	159	158	157	156	153	149	144	139	135	131	129	127	124	121	118	116	113	111	109	109	109	110	111	112	113	114	115	116	117	118	119	121	123	127	130	132	133	134	135	136	138	139	140	142	143	144	146	148	149	151	153	154	156	158	160	162	163	165	167	169	171	173	175	177	179	181	183	185	186	188	190	192	193	194	196	197	198	200	201	202	203	205	206	208	211	213	216	219	221	224	226	229	232	235	237	240	243	246	248	251	254	257	260	263	265	268	271	273	276	278	279	280	280	280	280	279	279	279	279	278	278	277	277	277	277	276	276	275	274	272	270	269	269	270	270	272	273	275	275	275	275	273	272	270	268	267	266	266	266	267	268	270	271	271	272	272	272	272	272	272	271	271	270	269	269	269	270	272	273	275	277	279	280	282	284	285	287	289	291	293	295	297	300	302	303	305	306	307	308	309	310	311	312	313	315	317	318	320	322	324	326	329	332	335	339	342	345	346	346	345	343	341	339	337	335	332	330	328	327	325	324	323	322	320	319	317	316	314	312	311	308	306	303	299	296	292	288	284	280	277	274	272	270	268	266	264	264	264	264	265	265	266	267	269	270	271	271	271	270	269	267	263	259	256	254	251	248	245	242	238	234	230	226	223	219	216	213	210	207	204	201	197	194	192	189	187	186	187	188	189	191	192	193	193	194	194	195	194	194	192	191	189	186	184	182	180	178	176	174	174	174	174	174	175	176	177	178	180	181	181	179	177	174	172	169	167	165	164	162	160	159	159	158	157	156	154	152	151	150	148	145	142	140	138	136
28	29	29	30	30	31	32	33	34	35	36	37	38	38	38	38	38	38	39	40	41	42	43	43	44	45	46	47	48	49	50	51	51	53	55	57	60	62	65	67	69	71	74	76	79	80	80	82	83	85	86	88	89	89	89	89	89	89	90	91	91	91	91	90	90	90	91	92	94	94	94	92	89	87	85	84	83	83	82	82	81	79	77	76	75	75	75	75	73	71	69	66	64	63	62	62	63	64	65	66	67	67	68	69	69	70	69	69	69	69	71	75	79	82	86	89	92	95	98	100	103	106	109	111	113	115	117	120	122	122	122	121	120	120	119	118	117	115	113	112	110	108	106	104	101	98	96	93	90	86	83	79	76	72	71	71	71	72	73	75	76	77	78	79	81	84	86	88	89	90	91	91	90	90	89	88	86	85	82	80	78	81	86	90	93	95	98	101	103	106	108	111	115	118	122	125	128	131	133	136	139	142	145	148	150	153	155	157	158	158	156	155	154	153	152	151	150	148	146	143	141	139	137	134	132	130	128	125	121	118	114	111	109	106	103	100	96	93	90	89	87	84	82	79	76	73	70	68	67	66	65	65	64	63	62	61	60	59	58	58	58	60	62	64	67	69	71	73	75	77	78	80	81	83	84	84	84	83	81	81	80	81	81	80	80	78	77	75	73	72	70	69	68	67	66	64	63	61	59	58	57	55	54	52	50	49	47	46	45	45	45	45	45	45	45	45	45	45	44	44	44	44	44	44	44	44	44	44	44	44	45	45	45	45	45	45	45	45	46	46	46	46	46	47	47	47	48	48	49	49	50	51	53	54	55	56	57	58	60	62	63	65	66	68	69	70	72	73	75	77	79	80	82	82	81	81	80	79	77	75	73	71	69	67	64	62	59	57	57	61	64	67	69	70	70	70	70	67	63	61	62	62	62	63	67	71	74	78	80	82	83	83	83	83	84	85	86	87	88	90	92	94	97	100	103	106	108	110	112	115	118	121	124	127	130	133	136	139	142	145	148	150	152	154	156	158	160	162	165	168	171	174	176	179	181	183	185	186	188	189	191	194	196	198	201	203	206	208	210	210	209	208	208	208	208	209	209	210	211	212	212	213	214	215	215	214	215	215	215	214	213	212	211	210	209	209	208	207	206	204	202	200	199	199	199	199	198	197	198	199	200	201	202	204	205	206	207	208	210	212	215	217	217	217	217	214	209	207	207	207	207	209	215	215	213	211	209	206	202	197	193	189	186	182	179	176	174	172	170	171	175	178	181	185	188	191	193	196	198	200	203	205	207	209	211	212	214	216	217	219	220	222	224	225	226	226	227	228	228	229	230	231	233	234	234	234	233	230	229	227	225	223	220	218	215	213	211	210	209	209	209	209	209	210	210	211	212	212	213	213	214	214	215	215	213	210	208	205	203	200	197	195	193	191	189	187	185	183	181	179	177	175	174	172	171	169	167	166	165	165	164	163	162	161	161	160	160	159	159	158	158	158	158	157	157	156	156	155	154	152	149	144	139	135	131	129	126	123	121	118	115	112	109	108	108	109	110	110	111	112	113	114	116	117	118	119	120	123	127	130	132	133	134	136	137	138	139	141	142	143	145	146	148	150	151	153	155	156	158	160	162	163	165	167	169	171	174	176	178	180	181	183	185	187	189	190	192	193	195	196	198	199	200	201	203	204	205	207	209	212	214	216	219	221	224	227	229	232	235	237	240	243	245	248	251	253	256	259	261	264	267	269	272	274	276	278	279	280	279	279	279	278	278	277	277	276	275	275	274	274	274	274	273	272	270	268	267	266	267	268	269	271	272	273	273	272	271	270	267	265	264	264	263	263	263	265	267	268	269	269	270	270	270	270	269	269	268	267	267	267	268	269	271	273	274	276	278	280	281	283	285	287	289	291	293	294	296	298	299	301	302	304	305	306	307	308	309	310	311	313	314	316	318	321	323	326	328	331	334	337	339	342	343	342	340	339	338	336	334	332	329	327	325	323	322	321	319	318	317	316	315	313	311	310	308	305	303	300	297	294	291	287	283	279	275	272	270	268	265	262	259	257	257	258	259	260	261	262	264	267	268	269	269	269	268	266	263	260	258	255	252	250	247	243	239	235	231	227	223	220	217	214	211	207	204	201	198	195	193	190	188	185	184	185	187	188	189	190	191	191	192	192	192	191	190	189	187	185	183	181	178	176	174	172	171	171	171	171	172	173	174	176	177	178	178	177	175	172	170	168	166	164	162	160	159	157	157	156	156	155	153	152	151	149	147	144	142	139	137	135
29	29	30	30	30	31	31	32	33	35	36	36	37	37	37	37	37	38	39	40	41	42	43	44	45	46	47	48	49	50	51	52	53	54	56	59	61	63	66	68	70	72	73	75	76	77	77	78	79	81	82	84	86	88	88	87	86	86	86	87	87	88	87	87	86	87	88	89	91	91	91	89	87	85	82	80	79	79	79	79	78	76	75	73	72	72	72	72	71	69	67	65	62	60	60	60	60	61	62	63	64	65	65	66	67	67	67	67	67	68	71	75	79	82	86	90	93	95	98	101	103	106	109	112	114	116	118	120	121	121	119	119	118	117	117	116	115	113	112	110	108	107	105	102	100	97	94	91	89	85	82	79	75	72	70	70	70	70	71	72	74	76	77	78	80	82	84	85	87	88	88	88	87	87	86	86	84	83	81	78	78	82	86	90	93	95	98	100	103	105	108	111	114	117	121	124	127	130	132	135	138	141	144	147	150	153	155	157	158	158	157	156	155	154	153	152	151	150	148	145	142	140	137	135	133	131	128	124	121	118	115	111	109	106	104	100	96	93	90	89	87	85	82	79	76	73	70	69	68	67	67	67	66	65	63	62	60	60	58	57	57	59	61	64	66	69	71	73	75	77	78	80	81	82	84	85	85	84	83	83	83	83	83	83	82	81	79	78	76	75	73	71	70	68	67	65	64	62	60	58	57	56	54	53	51	50	48	46	45	45	45	45	45	45	45	45	44	44	44	44	44	44	44	44	44	44	44	44	44	44	44	45	45	45	45	45	45	45	46	46	46	46	46	47	47	47	47	48	48	48	49	50	51	53	54	54	56	57	59	61	63	64	66	67	68	70	71	72	74	76	78	79	81	81	80	80	80	79	77	75	73	71	69	67	64	62	59	57	57	60	63	66	69	69	69	69	67	63	61	61	62	62	62	63	67	71	75	79	82	83	84	84	84	85	85	86	87	88	89	90	92	94	97	100	102	105	107	109	111	114	117	120	123	126	128	132	135	138	141	144	146	149	150	152	154	156	158	161	164	168	171	173	176	179	181	183	184	185	186	188	190	192	194	196	198	201	203	205	207	207	207	206	207	207	208	209	209	210	211	212	213	213	214	214	214	215	215	215	214	213	212	211	210	209	208	208	207	206	205	203	201	200	199	198	197	196	195	195	195	197	198	199	200	202	203	204	206	207	208	210	213	215	217	217	217	213	209	207	207	207	207	208	215	216	214	211	209	206	202	198	193	189	185	181	177	174	172	170	169	172	176	179	183	186	189	192	194	196	199	201	204	206	208	210	212	213	215	217	218	220	222	223	225	226	226	227	228	228	229	230	231	232	233	232	231	229	227	225	224	223	222	220	217	214	212	210	208	207	206	206	206	206	206	207	207	208	208	209	210	210	211	212	212	213	212	210	208	205	202	199	197	194	192	189	188	186	184	182	180	177	175	174	172	171	169	167	166	165	164	163	162	161	160	160	159	158	158	157	156	156	156	155	155	155	154	154	153	152	151	150	148	145	140	136	132	129	126	123	121	118	115	112	109	108	108	109	109	110	111	112	113	114	115	116	117	118	119	122	126	130	132	133	134	135	137	138	139	141	142	143	145	146	148	150	151	153	155	156	158	160	162	163	165	167	169	171	174	176	177	179	181	183	185	187	189	190	192	193	195	196	198	199	200	202	203	204	206	208	210	212	214	216	219	221	224	227	229	232	235	237	240	242	245	247	250	252	255	258	260	263	265	268	271	273	275	276	278	279	279	278	278	278	277	277	275	274	273	273	272	272	271	271	271	270	269	267	265	264	265	266	267	268	270	270	270	269	268	267	265	262	260	260	260	259	259	261	263	264	265	266	267	267	267	267	266	266	265	264	264	265	267	269	271	272	274	276	277	279	281	283	285	286	288	290	292	293	294	296	297	299	300	301	302	303	304	306	307	308	309	310	312	314	317	319	322	325	327	330	333	335	338	340	340	340	338	337	335	334	332	330	327	324	322	320	318	317	316	315	314	313	312	310	308	306	304	301	299	297	294	292	289	286	282	278	274	270	267	264	260	257	254	252	251	252	252	254	255	257	259	262	265	266	267	267	266	264	262	260	258	255	253	250	247	243	239	235	231	227	223	220	217	214	211	208	205	202	199	196	194	191	189	186	183	182	184	185	186	187	188	189	189	189	189	189	188	187	185	183	181	179	177	175	173	170	169	168	168	168	169	170	171	173	174	175	175	175	173	171	169	168	166	163	160	159	157	155	155	154	154	153	152	151	150	148	145	143	141	138	136	133
