0	0	0	0	0	0	0	0	0	0	0	0	0	0	0	0	0	0	0	0	0	0	0	0	0	0	0	0	0	0	0	0	0	0	0	0	0	0	0	0	0	0	0	0	0	0	0	0	0	0	0	0	0	0	0	0	0	0	0	0	0	0	0	0	0	0	0	0	0	0	0	0	0	0	0	0	0	0	0	0	0	0	0	0	0	0	0	0	0	0	0	0	0	0	0	0	0	0	0	0	0	0	0	0	0	0	0	0	0	0	0	0	0	0	0	0	0	0	0	0	0	0	0	0	0	0	0	0	0	0	0	0	0	0	0	0	0	0	0	0	0	0	0	0	0	0	0	0	0	0	0	0	0	0	0	0	0	0	0	0	0	0	0	0	0	0	0	0	0	0	0	0	0	0	0	0	0	0	0	0	0	0	0	0	0	0	0	0	0	0	0	0	0	0	0	0	0	0	0	0	0	0	0	0	0	0	0	0	0	0	0	0	0	0	0	0	0	0	0	0	0	0	0	0	0	0	0	0	0	0	0	0	0	0	0	0	0	0	0	0	0	0	0	0	0	0	0	0	0	0	0	0	0	0	0	0	0	0	0	0	0	0	0	0	0	0	0	0	0	0	0	0	0	0	0	0	0	0	0	0	0	0	0	0	0	0	0	0	0	0	0	0	0	0	0	0	0	0	0	0	0	0	0	0	0	0	0	0	0	1	1	1	2	5	12	17	19	22	24	26	29	31	33	35	36	38	40	42	44	47	49	52	55	59	62	64	66	68	70	70	71	72	72	73	75	76	78	80	81	83	84	86	88	89	91	92	94	95	97	99	101	103	105	108	111	114	118	121	124	127	129	130	130	130	129	129	128	127	125	123	122	121	120	120	119	119	119	118	118	117	117	117	117	117	116	115	113	112	110	108	106	104	101	98	95	93	90	87	84	81	79	76	74	72	69	66	64	61	60	59	59	58	57	55	53	52	52	52	51	49	47	45	43	41	38	36	33	31	28	27	25	23	21	20	19	18	18	18	16	14	15	15	14	10	7	7	7	7	7	7	7	7	7	7	7	7	7	7	8	8	9	9	10	10	11	11	12	13	14	15	16	17	18	20	21	21	23	24	26	27	28	30	31	33	35	36	37	42	46	48	49	49	49	49	50	52	54	55	56	57	59	59	60	61	62	65	68	70	72	73	75	77	79	81	82	84	85	87	89	91	93	95	98	100	102	104	105	107	109	110	112	114	115	116	117	118	118	118	118	118	118	119	120	122	122	121	122	124	127	130	132	133	134	135	136	136	137	139	142	145	148	152	156	160	164	167	170	174	177	181	184	186	189	192	194	196	199	201	202	204	206	208	210	212	214	217	218	220	223	226	226	227	232	236	240	246	250	252	254	255	257	257	258	259	261	264	265	267	268	269	270	270	270	271	273	275	278	282	286	290	293	297	301	304	308	314	319	323	327	331	333	336	339	341	344	347	350	353	356	360	364	367	370	373	375	377	377	377	376	375	374	372	371	369	367	365	363	361	359	357	355	353	350	347	345	342	339	336	333	330	328	326	324	321	318	315	312	309	306	304	303	302	301	299	297	296	296	297	298	299	300	301	301	302	302	302	303	304	305	306	305	305	304	302	301	300	298	296	293	289	285	282	278	275	274	276	276	275	274	273	272	272	272	272	272	273	274	274	275	275	276	276	277	278	278	279	281	282	284	286	288	290	291	292	293	295	297	299	302	305	307	310	313	316	320	323	325	327	329	331	333	335	338	340	342	345	348	350	352	354	355	356	357	358	359	360	361	361	361	361	360	359	358	357	356	355	354	353	352	350	349	347	345	344	342	340	338	337	336	335	334	334	333	333	333	333	333	333	332	332	332	332	332	332	332	333	335	335	336	337	338	338	337	336	336	334	332	331	331	332	333	333	333	334	333	331	330	332	332	331	329	330	333	339	343	345	348	350	353	354	356	358	361	363	365	368	369	370	371	371	372	374	376	378	379	380	381	381	382	382	382	382	383	385	387	390	393	395	395	395	397	399	401	404	407	409	410	412	415	417	419	421	423	425	428	430	432	434	436	437	437	437	437	436	435	434	433	431	429	426	423	422	422	422	421	419	417	415	415	415	415	414	413	412	412	411	410	409	408	408	408	408	408	409	409	410	410	410	411	412	414	415	417	418	420	420	420	420	421	423	425	427	429	431	434	436	439	440	442	444	444	444	443	441	439	438	437	436	434	433	431	429	427	424	421	419	416	413	411	409	407	404	401	399	397	395	394	393	393	392
0	0	0	0	0	0	0	0	0	0	0	0	0	0	0	0	0	0	0	0	0	0	0	0	0	0	0	0	0	0	0	0	0	0	0	0	0	0	0	0	0	0	0	0	0	0	0	0	0	0	0	0	0	0	0	0	0	0	0	0	0	0	0	0	0	0	0	0	0	0	0	0	0	0	0	0	0	0	0	0	0	0	0	0	0	0	0	0	0	0	0	0	0	0	0	0	0	0	0	0	0	0	0	0	0	0	0	0	0	0	0	0	0	0	0	0	0	0	0	0	0	0	0	0	0	0	0	0	0	0	0	0	0	0	0	0	0	0	0	0	0	0	0	0	0	0	0	0	0	0	0	0	0	0	0	0	0	0	0	0	0	0	0	0	0	0	0	0	0	0	0	0	0	0	0	0	0	0	0	0	0	0	0	0	0	0	0	0	0	0	0	0	0	0	0	0	0	0	0	0	0	0	0	0	0	0	0	0	0	0	0	0	0	0	0	0	0	0	0	0	0	0	0	0	0	0	0	0	0	0	0	0	0	0	0	0	0	0	0	0	0	0	0	0	0	0	0	0	0	0	0	0	0	0	0	0	0	0	0	0	0	0	0	0	0	0	0	0	0	0	0	0	0	0	0	0	0	0	0	0	0	0	0	0	0	0	0	0	0	0	0	0	0	0	0	0	0	0	0	0	0	0	0	0	0	0	0	0	1	1	1	2	2	5	13	16	19	21	23	25	27	29	31	33	34	37	39	41	43	46	49	52	55	59	62	65	67	69	71	72	73	73	74	75	76	78	79	81	83	84	85	87	88	90	91	93	95	97	99	100	102	104	106	109	112	115	118	121	124	127	130	131	132	132	132	131	130	129	128	126	125	124	123	123	123	122	122	122	121	120	120	120	120	119	118	117	115	113	111	109	107	105	102	99	96	93	90	87	84	81	79	76	74	71	68	65	63	61	59	58	57	56	55	53	51	50	50	50	50	49	47	45	42	40	39	36	34	31	29	27	26	23	21	20	19	19	19	18	16	15	15	16	15	10	8	7	7	7	7	7	7	7	7	7	7	7	7	7	8	8	9	9	10	10	11	11	12	13	15	15	16	16	18	19	20	21	23	24	25	26	27	29	31	33	35	36	36	40	45	48	49	49	48	48	49	51	52	53	54	56	57	57	59	60	62	66	69	71	73	74	76	77	79	81	82	84	86	87	89	91	94	96	98	100	101	103	105	107	108	110	111	112	114	115	116	116	116	116	116	116	116	117	119	119	119	120	121	124	127	130	132	132	133	134	135	135	136	138	141	144	148	151	155	159	163	166	170	173	177	180	183	185	188	190	192	195	197	198	200	202	203	205	207	209	211	214	216	217	219	221	222	224	229	235	238	242	247	249	250	251	252	253	254	256	258	261	262	263	264	266	266	266	266	267	270	273	276	280	285	289	292	296	299	303	308	313	318	322	326	329	331	333	336	339	342	345	349	352	355	358	362	365	368	371	373	374	375	374	374	373	372	370	369	367	365	364	362	360	358	357	355	353	350	347	345	342	339	336	333	330	328	325	323	321	318	314	311	308	306	304	303	302	299	297	295	294	294	295	296	297	297	298	298	298	298	299	301	302	303	304	303	303	302	301	300	299	298	296	294	290	287	284	282	279	277	277	277	276	275	274	273	273	273	273	272	272	273	273	274	274	275	275	276	277	278	280	281	283	285	287	289	290	292	293	294	296	297	300	302	304	307	310	313	316	320	323	325	327	329	331	333	335	337	339	341	343	345	348	350	351	352	353	355	357	358	360	361	361	361	361	361	360	359	358	357	355	354	353	352	350	348	346	345	343	341	339	338	336	335	334	334	333	333	333	333	333	333	333	333	333	332	332	333	333	333	334	335	335	336	337	338	338	337	336	336	334	332	330	330	331	331	332	332	332	331	329	328	329	329	328	328	331	336	341	344	346	349	352	353	354	356	358	361	363	365	367	368	369	369	370	371	372	374	376	377	378	378	378	378	379	380	381	382	384	386	390	393	394	395	395	397	399	402	404	407	408	410	412	414	416	418	420	422	424	427	429	431	433	435	436	436	436	435	435	434	433	432	431	429	426	423	421	420	419	417	415	413	413	413	412	412	411	410	409	409	408	407	406	405	405	406	407	407	408	409	409	410	411	412	413	415	417	419	420	421	422	422	422	422	424	425	428	430	432	435	437	440	442	443	444	445	444	443	440	439	437	436	436	435	433	431	429	427	424	421	417	415	412	409	407	405	402	400	399	398	396	394	393	393	392
0	0	0	0	0	0	0	0	0	0	0	0	0	0	0	0	0	0	0	0	0	0	0	0	0	0	0	0	0	0	0	0	0	0	0	0	0	0	0	0	0	0	0	0	0	0	0	0	0	0	0	0	0	0	0	0	0	0	0	0	0	0	0	0	0	0	0	0	0	0	0	0	0	0	0	0	0	0	0	0	0	0	0	0	0	0	0	0	0	0	0	0	0	0	0	0	0	0	0	0	0	0	0	0	0	0	0	0	0	0	0	0	0	0	0	0	0	0	0	0	0	0	0	0	0	0	0	0	0	0	0	0	0	0	0	0	0	0	0	0	0	0	0	0	0	0	0	0	0	0	0	0	0	0	0	0	0	0	0	0	0	0	0	0	0	0	0	0	0	0	0	0	0	0	0	0	0	0	0	0	0	0	0	0	0	0	0	0	0	0	0	0	0	0	0	0	0	0	0	0	0	0	0	0	0	0	0	0	0	0	0	0	0	0	0	0	0	0	0	0	0	0	0	0	0	0	0	0	0	0	0	0	0	0	0	0	0	0	0	0	0	0	0	0	0	0	0	0	0	0	0	0	0	0	0	0	0	0	0	0	0	0	0	0	0	0	0	0	0	0	0	0	0	0	0	0	0	0	0	0	0	0	0	0	0	0	0	0	0	0	0	0	0	0	0	0	0	0	0	0	0	0	0	0	0	0	0	0	1	1	2	2	2	5	11	16	18	21	23	24	26	27	29	31	33	36	38	40	43	46	49	52	56	60	63	65	68	70	72	73	74	75	75	76	78	79	81	83	84	86	87	88	89	91	93	94	96	98	100	102	104	106	108	111	113	116	119	122	125	128	131	133	134	134	134	133	133	132	130	129	128	127	126	126	125	125	125	125	124	124	123	123	122	122	120	119	117	115	113	110	108	105	102	99	96	93	90	88	85	82	80	77	74	71	68	65	64	61	59	57	56	55	54	52	50	48	48	48	48	46	45	43	41	39	38	36	34	31	29	27	25	23	21	20	19	19	19	18	16	16	15	15	14	11	8	7	7	7	7	7	7	7	7	7	7	7	7	7	7	8	8	9	9	10	11	12	13	14	16	16	16	17	18	19	20	21	23	24	25	26	27	28	30	32	34	36	36	40	45	47	49	48	47	47	48	49	51	52	53	55	56	57	59	61	63	67	70	72	73	74	76	78	79	81	83	85	86	88	90	92	94	96	98	100	101	103	105	106	107	109	110	111	112	113	114	114	114	114	114	114	115	116	117	118	118	119	121	123	126	129	131	131	132	134	135	135	136	138	141	144	147	151	155	159	162	166	169	173	176	179	182	184	187	189	191	193	194	196	198	199	201	202	204	206	208	210	213	214	215	217	219	222	227	232	235	238	242	245	247	247	248	249	251	253	255	257	259	260	261	262	263	263	263	265	267	271	275	279	283	288	291	294	298	302	307	312	317	321	324	327	329	331	334	337	340	344	347	350	353	356	360	363	366	369	371	372	372	372	372	371	370	368	367	365	364	362	360	359	357	356	354	352	349	347	345	342	339	336	333	330	327	324	322	320	317	314	311	308	306	304	302	301	298	296	293	292	292	293	294	295	295	295	294	295	295	297	299	300	301	302	301	301	301	300	299	298	297	295	294	291	288	286	284	282	280	279	278	277	276	275	274	275	276	275	274	273	273	273	273	274	275	276	277	278	280	281	283	284	286	288	289	291	294	296	297	298	300	301	303	305	308	311	314	317	320	323	325	327	328	330	332	334	336	337	339	341	343	345	347	349	350	351	353	355	357	359	360	361	361	361	361	360	359	358	357	356	354	353	352	350	348	346	344	343	341	339	337	336	335	334	334	333	333	333	333	333	333	333	333	333	333	333	333	333	334	334	335	336	337	338	338	338	337	336	335	333	331	329	329	329	330	330	330	330	328	326	325	326	327	328	330	332	337	340	343	346	349	351	352	354	356	359	361	362	363	366	367	368	368	368	369	371	373	374	375	375	375	375	375	377	379	380	382	383	385	388	391	391	392	394	397	400	402	404	406	407	409	411	413	415	417	420	422	424	426	428	430	432	433	434	435	434	434	433	432	431	431	429	427	425	422	420	418	416	414	412	411	411	411	410	409	408	407	406	405	405	404	404	404	404	404	406	406	407	408	409	410	412	413	415	416	418	420	422	423	424	423	423	423	424	426	428	430	433	435	437	440	442	443	444	445	444	442	440	438	437	436	435	434	433	431	429	427	424	421	417	414	411	408	406	404	402	400	400	399	398	395	394	393	392
0	0	0	0	0	0	0	0	0	0	0	0	0	0	0	0	0	0	0	0	0	0	0	0	0	0	0	0	0	0	0	0	0	0	0	0	0	0	0	0	0	0	0	0	0	0	0	0	0	0	0	0	0	0	0	0	0	0	0	0	0	0	0	0	0	0	0	0	0	0	0	0	0	0	0	0	0	0	0	0	0	0	0	0	0	0	0	0	0	0	0	0	0	0	0	0	0	0	0	0	0	0	0	0	0	0	0	0	0	0	0	0	0	0	0	0	0	0	0	0	0	0	0	0	0	0	0	0	0	0	0	0	0	0	0	0	0	0	0	0	0	0	0	0	0	0	0	0	0	0	0	0	0	0	0	0	0	0	0	0	0	0	0	0	0	0	0	0	0	0	0	0	0	0	0	0	0	0	0	0	0	0	0	0	0	0	0	0	0	0	0	0	0	0	0	0	0	0	0	0	0	0	0	0	0	0	0	0	0	0	0	0	0	0	0	0	0	0	0	0	0	0	0	0	0	0	0	0	0	0	0	0	0	0	0	0	0	0	0	0	0	0	0	0	0	0	0	0	0	0	0	0	0	0	0	0	0	0	0	0	0	0	0	0	0	0	0	0	0	0	0	0	0	0	0	0	0	0	0	0	0	0	0	0	0	0	0	0	0	0	0	0	0	0	0	0	0	0	0	0	0	0	0	0	0	0	0	0	1	1	2	2	3	4	9	15	19	21	22	24	25	27	29	31	33	35	37	40	44	47	49	53	57	60	63	65	67	70	72	73	74	75	76	77	78	80	82	84	85	86	88	89	90	92	94	95	97	100	102	104	106	108	110	113	115	117	120	123	126	129	132	134	135	136	136	136	135	134	133	132	131	130	130	129	129	129	128	128	127	127	126	126	125	124	123	121	119	116	114	111	108	105	102	99	96	94	91	89	87	84	82	78	75	72	68	66	64	61	58	57	56	55	54	52	49	47	46	45	45	43	42	40	39	37	37	36	33	30	28	26	24	22	21	19	19	18	18	18	17	16	15	15	13	10	8	7	7	7	7	7	7	6	6	6	7	7	7	7	7	8	8	9	10	11	13	14	15	17	18	18	18	19	20	20	20	21	23	24	24	26	27	28	29	31	34	36	37	41	45	47	48	48	47	47	47	49	50	51	53	55	56	58	60	62	65	68	70	72	73	75	77	78	80	81	83	85	87	88	90	92	94	96	97	99	101	103	104	105	106	108	109	110	111	111	112	112	112	112	112	113	114	115	116	117	117	118	120	122	125	128	129	130	131	132	134	135	136	139	142	145	148	151	155	159	162	166	169	172	175	178	181	183	185	187	189	190	192	194	195	197	198	199	201	202	204	206	208	210	212	214	217	221	226	231	234	236	239	241	243	243	244	245	248	250	252	253	255	257	258	259	259	259	260	263	266	270	274	278	282	286	290	294	298	302	307	311	316	319	323	326	328	330	333	335	338	342	345	348	351	355	358	361	364	367	369	370	370	370	369	368	367	366	365	364	362	360	359	357	356	354	353	351	348	346	344	341	338	335	332	329	326	323	320	319	316	314	311	308	306	303	301	299	297	294	291	290	290	291	292	293	293	292	292	292	293	294	297	298	299	299	299	299	299	298	298	297	296	294	293	292	290	288	286	284	282	280	279	278	276	276	275	276	277	277	275	274	274	274	274	275	276	277	279	280	282	284	285	286	288	289	290	292	295	297	299	301	303	304	305	307	310	313	315	318	321	323	325	327	328	330	331	333	335	336	338	340	341	343	345	346	348	350	352	354	356	358	360	361	361	361	361	360	359	358	357	355	354	353	351	350	348	346	345	343	341	339	337	335	335	334	333	333	333	333	333	333	333	333	333	333	333	333	334	334	334	335	335	336	337	338	338	337	337	336	334	333	331	329	328	328	328	328	327	326	325	325	325	326	327	329	331	334	336	340	343	345	347	350	351	353	356	359	360	361	362	364	365	365	365	366	367	369	371	372	372	373	373	373	374	376	378	380	381	382	384	386	387	389	390	394	397	400	402	404	404	406	409	411	412	414	416	418	420	423	426	428	429	431	432	432	432	432	432	431	430	430	429	427	425	423	421	418	415	413	411	409	409	409	409	407	406	405	404	403	403	402	402	402	402	403	403	404	406	407	408	410	411	413	415	416	418	420	422	424	425	425	424	424	424	425	426	428	430	433	435	437	439	441	442	443	444	443	441	439	437	436	435	435	434	433	431	429	427	424	421	418	414	411	409	407	404	402	400	400	400	398	397	395	394	392
0	0	0	0	0	0	0	0	0	0	0	0	0	0	0	0	0	0	0	0	0	0	0	0	0	0	0	0	0	0	0	0	0	0	0	0	0	0	0	0	0	0	0	0	0	0	0	0	0	0	0	0	0	0	0	0	0	0	0	0	0	0	0	0	0	0	0	0	0	0	0	0	0	0	0	0	0	0	0	0	0	0	0	0	0	0	0	0	0	0	0	0	0	0	0	0	0	0	0	0	0	0	0	0	0	0	0	0	0	0	0	0	0	0	0	0	0	0	0	0	0	0	0	0	0	0	0	0	0	0	0	0	0	0	0	0	0	0	0	0	0	0	0	0	0	0	0	0	0	0	0	0	0	0	0	0	0	0	0	0	0	0	0	0	0	0	0	0	0	0	0	0	0	0	0	0	0	0	0	0	0	0	0	0	0	0	0	0	0	0	0	0	0	0	0	0	0	0	0	0	0	0	0	0	0	0	0	0	0	0	0	0	0	0	0	0	0	0	0	0	0	0	0	0	0	0	0	0	0	0	0	0	0	0	0	0	0	0	0	0	0	0	0	0	0	0	0	0	0	0	0	0	0	0	0	0	0	0	0	0	0	0	0	0	0	0	0	0	0	0	0	0	0	0	0	0	0	0	0	0	0	0	0	0	0	0	0	0	0	0	0	0	0	0	0	0	0	0	0	0	0	0	0	0	0	0	0	0	1	2	2	2	3	4	9	15	19	21	22	24	25	26	28	31	33	35	36	40	45	47	49	53	57	61	63	64	66	69	71	72	73	75	76	77	78	80	82	84	85	87	88	89	91	92	94	96	98	100	103	105	107	109	111	113	116	118	121	124	127	130	132	135	136	138	138	138	138	137	136	135	134	133	133	132	132	132	132	131	130	130	129	129	128	127	125	123	120	117	114	112	108	105	102	100	97	95	93	91	89	86	84	80	77	73	70	67	64	61	58	57	56	56	54	52	49	47	45	44	42	41	39	37	36	35	35	34	32	29	27	25	23	22	21	20	19	19	19	18	17	16	15	14	13	11	8	7	7	7	7	7	7	6	6	6	6	7	6	7	8	8	9	11	12	13	15	17	18	19	21	22	22	23	23	23	23	23	25	25	26	26	27	29	31	33	36	38	40	43	46	48	48	48	48	48	48	49	50	52	53	55	57	59	62	64	66	68	70	72	74	75	77	78	80	82	84	86	87	89	91	92	94	96	97	99	100	102	103	104	105	106	108	108	109	110	110	110	110	110	111	112	113	114	114	115	116	117	119	122	125	127	128	130	131	132	133	134	136	139	143	145	148	152	155	159	162	166	169	172	175	177	180	182	184	186	187	188	189	191	192	194	195	196	197	198	200	201	204	207	210	213	216	220	225	230	233	234	236	237	239	239	239	241	244	247	249	250	252	253	255	255	256	256	258	261	265	269	274	278	281	286	290	293	298	302	306	310	314	318	322	325	327	329	331	334	336	340	343	347	350	353	356	359	362	365	368	369	369	368	367	366	365	364	363	362	360	359	357	356	355	353	351	350	347	345	343	340	337	334	331	328	325	322	319	317	315	313	310	308	306	303	301	298	295	292	290	289	289	288	289	289	289	289	290	291	291	293	295	297	297	298	298	298	297	296	296	295	294	293	292	291	290	288	287	285	283	281	279	278	277	276	276	276	277	277	276	275	274	275	276	277	278	279	281	283	285	286	287	289	290	291	292	294	296	299	301	304	306	307	308	310	312	315	318	321	323	325	326	327	328	329	331	332	334	335	337	338	340	341	343	344	346	348	350	353	355	357	359	360	360	360	360	360	359	358	357	355	354	353	351	350	348	347	345	343	341	338	337	335	334	334	333	333	333	333	333	333	333	333	333	333	333	333	334	334	335	335	335	336	337	338	338	337	337	335	334	332	331	329	327	327	327	326	325	324	323	324	324	327	329	330	332	334	336	340	343	345	347	350	351	353	355	358	359	360	360	362	363	363	363	364	365	367	368	369	369	370	370	371	373	375	377	379	380	382	384	385	386	387	390	393	396	399	401	402	403	405	407	409	411	414	416	417	419	422	424	426	428	430	430	431	430	430	429	429	428	428	426	424	422	421	418	416	413	411	409	407	406	407	406	405	403	402	402	401	400	400	400	400	402	402	403	404	405	407	408	410	413	415	417	418	420	421	423	424	425	424	424	424	424	425	426	428	430	433	435	436	438	440	442	443	443	442	440	438	436	435	434	434	433	432	431	429	426	424	421	417	414	411	410	407	405	402	400	400	400	399	397	396	394	392
0	0	0	0	0	0	0	0	0	0	0	0	0	0	0	0	0	0	0	0	0	0	0	0	0	0	0	0	0	0	0	0	0	0	0	0	0	0	0	0	0	0	0	0	0	0	0	0	0	0	0	0	0	0	0	0	0	0	0	0	0	0	0	0	0	0	0	0	0	0	0	0	0	0	0	0	0	0	0	0	0	0	0	0	0	0	0	0	0	0	0	0	0	0	0	0	0	0	0	0	0	0	0	0	0	0	0	0	0	0	0	0	0	0	0	0	0	0	0	0	0	0	0	0	0	0	0	0	0	0	0	0	0	0	0	0	0	0	0	0	0	0	0	0	0	0	0	0	0	0	0	0	0	0	0	0	0	0	0	0	0	0	0	0	0	0	0	0	0	0	0	0	0	0	0	0	0	0	0	0	0	0	0	0	0	0	0	0	0	0	0	0	0	0	0	0	0	0	0	0	0	0	0	0	0	0	0	0	0	0	0	0	0	0	0	0	0	0	0	0	0	0	0	0	0	0	0	0	0	0	0	0	0	0	0	0	0	0	0	0	0	0	0	0	0	0	0	0	0	0	0	0	0	0	0	0	0	0	0	0	0	0	0	0	0	0	0	0	0	0	0	0	0	0	0	0	0	0	0	0	0	0	0	0	0	0	0	0	0	0	0	0	0	0	0	0	0	0	0	0	0	0	0	0	0	0	0	0	1	1	2	2	3	5	11	16	20	21	22	24	25	26	28	30	33	35	37	40	44	46	49	53	56	60	62	63	65	67	69	70	72	74	75	77	78	80	82	83	85	86	88	89	91	92	94	96	98	100	103	105	107	109	112	114	116	118	121	123	126	129	132	134	137	139	140	140	140	139	138	138	137	136	136	135	135	135	135	134	134	133	132	131	131	129	127	125	122	119	116	113	110	106	104	102	99	97	95	93	91	88	86	82	78	75	71	68	65	62	59	58	57	57	56	53	50	47	45	43	41	39	37	35	34	34	33	32	30	28	26	24	23	22	21	20	20	19	19	19	18	17	15	14	13	12	9	7	7	7	7	7	7	6	6	6	6	6	7	9	10	10	11	14	15	16	17	18	19	21	22	24	25	26	26	26	27	27	27	29	29	29	30	32	34	37	39	41	43	45	46	48	48	48	48	49	50	51	52	53	55	57	59	61	63	65	67	69	71	72	74	76	77	79	81	82	84	86	88	89	91	92	94	95	97	98	100	101	102	103	104	105	106	107	108	108	109	109	109	109	110	111	112	113	113	113	114	116	118	122	124	126	127	129	130	131	132	133	135	139	142	145	148	152	155	159	162	166	169	172	174	176	178	180	182	183	185	186	187	188	190	191	192	192	193	195	196	198	201	204	208	212	215	219	223	228	230	232	233	234	235	235	236	238	240	242	244	246	248	250	252	252	253	255	257	261	265	270	275	278	281	285	289	293	298	302	305	309	312	315	319	322	325	327	330	332	335	339	342	346	349	352	355	358	361	364	366	367	367	367	366	364	363	362	361	359	358	357	356	355	353	352	350	349	347	344	341	339	336	333	331	328	325	321	319	316	314	312	310	308	305	303	300	297	294	291	289	288	287	286	286	286	285	286	287	289	290	292	294	295	296	296	296	296	295	295	294	294	293	292	291	290	289	288	286	285	283	281	280	278	277	277	276	276	276	276	276	274	274	275	277	278	280	281	283	285	287	288	289	291	292	293	294	296	298	300	303	306	308	310	312	314	316	319	321	323	326	327	328	329	330	331	331	332	333	335	336	337	338	340	341	343	345	347	349	352	354	356	357	359	359	359	359	359	358	357	356	355	354	353	352	350	349	347	345	343	341	338	336	335	334	333	333	333	333	333	333	333	333	333	333	333	333	333	334	334	334	335	335	336	336	337	337	337	337	335	333	332	331	328	327	327	326	325	324	323	323	324	325	327	329	331	332	334	337	340	343	345	348	350	351	352	354	356	358	358	359	360	361	361	361	361	362	364	366	366	367	367	368	369	372	374	376	378	380	381	383	384	386	388	391	394	396	398	400	401	402	404	406	408	410	413	415	416	418	421	423	425	426	427	428	428	428	428	427	426	426	425	424	422	419	417	415	413	411	409	407	405	404	404	403	402	400	400	399	398	398	398	398	400	402	403	403	403	405	407	409	412	414	416	418	419	421	422	423	424	424	424	424	424	424	425	426	428	430	433	434	436	438	440	441	441	441	440	438	437	435	434	433	433	432	431	430	428	426	424	421	417	414	411	409	407	405	403	401	400	400	399	398	396	394	392
0	0	0	0	0	0	0	0	0	0	0	0	0	0	0	0	0	0	0	0	0	0	0	0	0	0	0	0	0	0	0	0	0	0	0	0	0	0	0	0	0	0	0	0	0	0	0	0	0	0	0	0	0	0	0	0	0	0	0	0	0	0	0	0	0	0	0	0	0	0	0	0	0	0	0	0	0	0	0	0	0	0	0	0	0	0	0	0	0	0	0	0	0	0	0	0	0	0	0	0	0	0	0	0	0	0	0	0	0	0	0	0	0	0	0	0	0	0	0	0	0	0	0	0	0	0	0	0	0	0	0	0	0	0	0	0	0	0	0	0	0	0	0	0	0	0	0	0	0	0	0	0	0	0	0	0	0	0	0	0	0	0	0	0	0	0	0	0	0	0	0	0	0	0	0	0	0	0	0	0	0	0	0	0	0	0	0	0	0	0	0	0	0	0	0	0	0	0	0	0	0	0	0	0	0	0	0	0	0	0	0	0	0	0	0	0	0	0	0	0	0	0	0	0	0	0	0	0	0	0	0	0	0	0	0	0	0	0	0	0	0	0	0	0	0	0	0	0	0	0	0	0	0	0	0	0	0	0	0	0	0	0	0	0	0	0	0	0	0	0	0	0	0	0	0	0	0	0	0	0	0	0	0	0	0	0	0	0	0	0	0	0	0	0	0	0	0	0	0	0	0	0	0	0	0	0	0	0	1	1	2	2	4	8	13	16	19	21	22	24	25	26	28	30	33	35	37	39	42	44	47	52	55	57	59	61	63	66	68	69	70	72	74	76	78	80	81	83	84	86	87	89	91	92	94	96	98	100	102	104	107	109	111	113	115	117	119	122	125	128	131	134	136	139	141	142	142	142	141	140	140	139	139	139	138	138	138	137	136	135	135	134	133	131	129	126	123	120	117	114	111	108	106	104	102	99	97	94	92	90	87	84	79	76	72	69	66	63	61	60	58	57	56	54	51	48	46	43	40	38	36	34	34	33	32	30	29	27	26	24	23	23	22	21	21	20	20	19	18	17	15	14	13	12	9	8	7	7	7	7	7	6	6	6	6	6	8	11	13	13	13	15	16	18	19	20	21	22	24	25	27	27	28	29	30	30	30	32	33	33	33	35	36	38	40	42	44	45	47	48	48	48	49	50	52	53	54	55	56	58	60	62	64	66	67	69	71	73	75	76	78	79	81	83	84	86	87	89	91	92	93	95	96	98	99	100	101	102	103	104	105	106	107	107	107	107	107	108	108	109	111	111	111	112	113	115	118	121	123	124	125	127	128	129	131	133	135	139	142	145	148	151	155	159	162	165	168	171	173	175	177	178	180	181	182	182	183	185	186	187	188	189	190	192	194	197	200	203	207	211	215	218	221	225	227	228	229	230	230	231	232	235	237	239	240	241	244	247	249	249	251	254	257	261	265	270	275	279	282	285	288	292	297	300	304	307	310	314	317	320	323	326	329	332	335	339	342	345	348	351	354	357	360	363	365	366	366	366	364	363	361	360	359	358	356	355	354	353	352	351	349	348	346	343	341	338	335	332	330	327	324	321	318	316	313	311	309	306	304	301	299	296	294	291	288	287	285	284	284	284	283	283	284	287	288	289	291	293	294	295	294	294	294	293	293	293	292	291	290	289	289	287	286	284	283	281	280	279	278	277	276	275	275	275	275	273	273	276	278	279	281	282	284	286	288	290	291	293	295	296	297	299	301	303	305	308	310	313	315	317	320	322	324	326	328	329	330	331	332	332	333	334	334	335	336	337	339	340	342	343	345	347	349	351	353	355	356	357	358	358	358	357	357	356	355	355	354	353	352	350	349	347	345	343	341	338	336	335	334	333	333	333	333	333	333	334	333	333	333	332	332	333	333	334	334	334	335	335	336	337	338	338	337	335	333	332	331	329	327	326	325	324	323	323	323	324	325	328	330	331	333	335	337	340	343	345	348	350	351	352	353	356	357	358	358	359	359	360	359	359	360	361	363	363	364	365	367	369	371	374	376	377	379	381	382	384	386	389	391	393	395	397	398	399	401	403	406	407	409	411	413	415	418	420	422	424	424	425	425	425	425	425	424	423	423	422	420	418	416	414	412	410	409	406	405	403	402	401	400	399	398	397	397	396	396	396	397	399	401	403	402	403	405	407	410	413	414	416	418	420	420	422	423	423	423	423	423	423	423	424	426	428	430	432	434	435	437	439	440	440	439	437	436	435	433	432	432	432	432	431	430	428	426	423	421	418	414	412	409	408	406	404	402	401	400	399	398	396	394	392
0	0	0	0	0	0	0	0	0	0	0	0	0	0	0	0	0	0	0	0	0	0	0	0	0	0	0	0	0	0	0	0	0	0	0	0	0	0	0	0	0	0	0	0	0	0	0	0	0	0	0	0	0	0	0	0	0	0	0	0	0	0	0	0	0	0	0	0	0	0	0	0	0	0	0	0	0	0	0	0	0	0	0	0	0	0	0	0	0	0	0	0	0	0	0	0	0	0	0	0	0	0	0	0	0	0	0	0	0	0	0	0	0	0	0	0	0	0	0	0	0	0	0	0	0	0	0	0	0	0	0	0	0	0	0	0	0	0	0	0	0	0	0	0	0	0	0	0	0	0	0	0	0	0	0	0	0	0	0	0	0	0	0	0	0	0	0	0	0	0	0	0	0	0	0	0	0	0	0	0	0	0	0	0	0	0	0	0	0	0	0	0	0	0	0	0	0	0	0	0	0	0	0	0	0	0	0	0	0	0	0	0	0	0	0	0	0	0	0	0	0	0	0	0	0	0	0	0	0	0	0	0	0	0	0	0	0	0	0	0	0	0	0	0	0	0	0	0	0	0	0	0	0	0	0	0	0	0	0	0	0	0	0	0	0	0	0	0	0	0	0	0	0	0	0	0	0	0	0	0	0	0	0	0	0	0	0	0	0	0	0	0	0	0	0	0	0	0	0	0	0	0	0	0	0	0	0	0	1	2	2	2	4	10	14	16	18	21	22	23	25	27	29	31	33	35	38	39	41	43	46	49	53	55	56	58	61	64	66	67	69	71	73	75	77	79	81	83	84	85	86	88	90	91	93	95	97	99	102	104	105	108	110	112	114	116	118	120	123	126	129	133	136	139	141	143	144	144	143	143	143	143	142	141	141	141	140	140	139	138	137	136	135	132	130	127	124	121	118	115	113	110	108	106	104	102	99	96	93	90	87	84	80	76	73	70	67	64	62	61	59	57	56	54	51	49	46	43	40	38	36	35	34	33	31	30	28	27	26	25	24	24	23	22	21	21	20	19	18	17	16	15	14	12	9	8	7	7	7	7	7	6	6	6	6	6	8	11	13	13	14	15	17	18	20	21	22	24	26	27	29	30	31	31	31	31	32	34	35	35	35	37	38	39	41	43	45	46	48	49	49	49	50	51	52	54	55	56	58	59	61	63	65	66	68	69	71	73	75	77	78	80	81	83	84	86	87	89	90	92	93	94	95	97	98	99	99	100	101	102	103	104	105	105	105	105	105	106	107	108	109	110	109	110	112	115	118	120	121	121	122	123	125	127	129	132	135	138	141	144	148	150	154	158	161	165	167	170	172	174	175	176	177	178	178	177	178	180	182	183	184	186	188	190	192	196	200	203	207	210	213	216	219	221	223	224	225	226	226	228	229	231	234	236	237	238	240	243	245	246	248	252	256	260	265	270	275	279	281	284	287	291	295	299	302	305	309	312	316	319	322	326	329	332	336	339	342	346	349	352	355	357	360	362	364	365	365	365	364	362	360	359	357	356	355	354	353	352	350	349	348	346	345	342	340	337	334	331	328	326	323	320	317	315	312	310	307	305	302	300	298	296	293	290	288	286	284	283	282	282	281	281	283	284	284	286	288	290	292	292	292	292	292	291	291	290	290	289	289	288	288	287	286	284	282	281	280	279	278	277	276	275	275	274	273	273	274	277	279	281	282	284	286	288	290	292	293	295	297	299	300	302	304	306	308	310	312	315	318	320	322	325	327	329	330	331	332	333	334	334	335	335	336	337	338	339	340	341	343	344	345	347	349	351	353	354	355	356	356	356	356	356	355	355	354	354	353	352	351	350	349	347	345	343	341	338	336	335	334	333	332	332	333	333	333	333	333	333	332	332	332	332	333	333	334	334	334	335	336	337	338	338	337	336	334	332	331	330	328	327	325	323	323	323	323	324	326	328	330	331	333	335	336	339	341	344	346	349	350	351	353	355	356	357	358	358	358	358	357	357	358	360	361	361	362	364	367	368	371	374	376	377	378	380	381	383	386	388	390	392	394	395	396	397	399	401	404	406	408	410	411	415	418	420	421	422	422	423	423	423	422	422	421	420	419	418	416	414	412	410	409	407	405	404	402	401	400	399	398	397	396	395	395	395	396	396	396	398	401	402	402	403	405	408	410	412	414	416	418	419	420	421	421	422	422	422	422	422	423	424	426	428	430	432	434	435	436	438	438	438	437	435	434	433	432	431	430	430	431	430	430	428	425	423	421	418	415	412	410	408	407	405	403	402	400	399	398	396	395	393
0	0	0	0	0	0	0	0	0	0	0	0	0	0	0	0	0	0	0	0	0	0	0	0	0	0	0	0	0	0	0	0	0	0	0	0	0	0	0	0	0	0	0	0	0	0	0	0	0	0	0	0	0	0	0	0	0	0	0	0	0	0	0	0	0	0	0	0	0	0	0	0	0	0	0	0	0	0	0	0	0	0	0	0	0	0	0	0	0	0	0	0	0	0	0	0	0	0	0	0	0	0	0	0	0	0	0	0	0	0	0	0	0	0	0	0	0	0	0	0	0	0	0	0	0	0	0	0	0	0	0	0	0	0	0	0	0	0	0	0	0	0	0	0	0	0	0	0	0	0	0	0	0	0	0	0	0	0	0	0	0	0	0	0	0	0	0	0	0	0	0	0	0	0	0	0	0	0	0	0	0	0	0	0	0	0	0	0	0	0	0	0	0	0	0	0	0	0	0	0	0	0	0	0	0	0	0	0	0	0	0	0	0	0	0	0	0	0	0	0	0	0	0	0	0	0	0	0	0	0	0	0	0	0	0	0	0	0	0	0	0	0	0	0	0	0	0	0	0	0	0	0	0	0	0	0	0	0	0	0	0	0	0	0	0	0	0	0	0	0	0	0	0	0	0	0	0	0	0	0	0	0	0	0	0	0	0	0	0	0	0	0	0	0	0	0	0	0	0	0	0	0	0	0	0	0	0	1	2	2	2	3	5	10	14	16	18	21	23	25	26	27	29	31	33	35	38	40	41	43	44	47	50	52	53	56	59	62	64	66	67	69	72	74	77	78	80	82	84	84	85	87	89	90	92	94	96	98	100	102	104	106	108	110	112	114	117	119	122	125	128	132	135	138	141	143	145	145	146	146	146	145	145	144	144	144	144	143	142	141	140	138	136	134	131	128	125	122	119	117	115	112	110	108	106	103	100	96	93	90	87	83	80	76	73	70	68	65	63	62	59	57	56	53	51	48	46	43	40	38	37	35	34	33	31	29	28	27	27	26	25	24	23	22	21	21	21	20	19	17	16	15	14	12	9	8	7	7	7	7	7	6	6	6	6	7	7	9	11	13	13	14	16	18	20	22	23	25	27	29	30	32	33	33	33	33	34	36	36	36	37	39	41	41	43	45	46	47	48	48	49	49	50	52	53	54	56	57	59	60	62	63	65	66	68	69	71	73	75	77	78	80	81	83	84	85	87	88	90	91	92	93	95	96	96	97	98	99	100	101	102	102	103	103	103	103	104	105	106	108	109	108	108	110	112	114	117	118	119	119	119	120	122	125	128	131	134	138	141	144	147	150	153	157	161	164	166	168	170	172	173	174	174	174	173	173	174	176	178	180	181	183	186	189	192	196	199	203	206	209	212	215	217	218	220	221	222	222	223	224	227	229	230	232	235	237	239	241	242	243	246	251	256	261	265	270	274	278	280	283	286	290	293	297	301	305	308	311	315	319	322	326	329	332	336	339	343	346	349	352	354	357	359	361	363	364	364	363	363	362	360	358	357	355	354	353	351	350	349	348	346	345	343	341	339	336	333	330	328	325	322	320	317	314	312	309	306	304	301	300	297	295	293	290	287	286	283	282	281	280	279	280	282	282	282	284	285	287	288	290	290	290	290	289	288	288	288	288	287	287	287	286	285	283	282	281	280	279	277	276	276	276	275	273	273	273	275	277	280	282	283	285	287	289	291	293	295	297	300	301	303	304	307	309	310	312	314	317	319	322	325	327	329	331	332	333	334	335	336	336	337	337	338	339	340	340	341	343	344	345	347	348	350	351	352	353	354	354	355	355	355	354	354	354	353	353	352	351	351	350	349	347	345	342	340	338	336	334	333	332	332	332	333	333	333	333	333	332	332	331	331	331	332	333	333	333	334	334	335	336	337	338	337	335	334	333	331	330	329	327	325	323	322	323	324	325	326	328	329	331	333	334	336	338	340	342	344	347	349	350	352	354	356	356	357	356	356	356	356	356	357	359	360	361	362	364	367	368	370	373	376	376	377	379	381	383	385	387	389	390	392	393	394	395	397	400	402	404	406	408	409	413	416	418	419	420	420	420	420	420	419	418	417	416	415	414	412	410	409	407	405	404	403	402	400	399	398	397	395	395	394	393	393	394	394	395	396	398	401	402	402	403	406	408	410	411	412	414	416	417	418	419	420	421	421	421	421	421	422	424	425	428	430	432	433	434	435	436	436	435	434	433	432	431	430	429	429	429	430	430	429	428	425	423	420	418	415	413	410	409	407	405	403	401	400	398	397	396	394	393
0	0	0	0	0	0	0	0	0	0	0	0	0	0	0	0	0	0	0	0	0	0	0	0	0	0	0	0	0	0	0	0	0	0	0	0	0	0	0	0	0	0	0	0	0	0	0	0	0	0	0	0	0	0	0	0	0	0	0	0	0	0	0	0	0	0	0	0	0	0	0	0	0	0	0	0	0	0	0	0	0	0	0	0	0	0	0	0	0	0	0	0	0	0	0	0	0	0	0	0	0	0	0	0	0	0	0	0	0	0	0	0	0	0	0	0	0	0	0	0	0	0	0	0	0	0	0	0	0	0	0	0	0	0	0	0	0	0	0	0	0	0	0	0	0	0	0	0	0	0	0	0	0	0	0	0	0	0	0	0	0	0	0	0	0	0	0	0	0	0	0	0	0	0	0	0	0	0	0	0	0	0	0	0	0	0	0	0	0	0	0	0	0	0	0	0	0	0	0	0	0	0	0	0	0	0	0	0	0	0	0	0	0	0	0	0	0	0	0	0	0	0	0	0	0	0	0	0	0	0	0	0	0	0	0	0	0	0	0	0	0	0	0	0	0	0	0	0	0	0	0	0	0	0	0	0	0	0	0	0	0	0	0	0	0	0	0	0	0	0	0	0	0	0	0	0	0	0	0	0	0	0	0	0	0	0	0	0	0	0	0	0	0	0	0	0	0	0	0	0	0	0	0	0	0	0	0	1	2	2	2	3	4	9	13	16	19	22	25	27	28	29	31	32	34	36	38	40	42	43	44	46	49	50	52	54	57	60	62	64	65	67	70	73	75	77	79	81	83	83	85	86	88	89	91	93	95	97	99	101	102	104	106	108	110	113	115	118	121	124	128	131	134	137	140	143	145	146	148	148	148	148	148	147	147	147	147	145	144	143	142	140	138	135	132	129	127	124	121	119	117	114	112	109	107	104	100	96	93	89	86	83	80	77	73	70	68	66	64	62	59	57	55	53	51	48	45	43	41	39	37	36	34	33	31	30	29	29	28	27	26	25	23	22	21	21	21	20	19	17	16	15	14	13	10	8	7	7	7	7	7	7	6	6	6	6	6	7	10	12	13	14	15	17	20	22	24	25	27	30	31	32	33	34	35	36	37	38	38	39	40	42	43	44	45	46	47	47	47	48	49	50	51	52	53	54	56	58	59	61	62	64	65	66	68	69	71	73	74	76	78	79	80	82	83	85	86	88	89	90	91	93	94	94	95	96	97	98	99	100	100	101	101	101	101	102	102	104	106	108	108	107	107	109	111	113	115	117	118	118	118	118	119	123	126	130	133	137	141	144	147	150	153	157	160	163	165	167	169	170	171	171	171	169	168	169	171	174	177	179	180	182	185	189	192	196	199	202	205	208	211	213	214	216	217	218	219	219	220	221	223	225	227	229	232	235	237	239	239	242	245	251	256	261	265	269	273	277	280	283	286	289	293	296	300	304	307	311	314	318	322	325	329	333	336	340	344	347	350	352	354	356	358	359	361	362	362	362	361	361	360	358	356	355	354	352	351	350	348	347	345	344	342	340	338	335	332	330	327	324	322	319	317	314	312	309	306	303	301	299	297	294	291	289	287	285	283	281	280	279	278	280	281	281	282	284	285	285	286	287	287	287	287	287	286	286	286	286	286	286	286	286	284	283	281	280	279	278	277	276	276	275	274	273	273	274	275	278	280	282	284	286	288	290	293	295	297	299	301	303	305	307	309	311	313	315	317	319	321	324	326	329	331	332	334	335	336	337	338	339	339	340	340	341	341	342	343	344	345	347	348	349	351	351	352	352	353	353	353	354	353	353	353	353	352	352	351	350	350	349	348	346	344	342	340	338	336	334	333	332	332	332	332	332	332	332	332	332	331	331	331	331	331	332	332	333	333	334	334	335	336	336	335	334	333	332	331	330	329	327	325	323	322	323	324	325	326	328	329	330	332	334	335	337	339	341	343	345	348	350	351	353	354	355	355	355	354	353	352	353	354	357	359	361	362	365	367	368	369	373	375	376	377	378	380	382	384	386	387	388	390	391	392	393	396	398	401	402	404	406	407	410	413	415	416	417	417	417	417	416	415	414	413	412	411	410	409	407	405	404	403	401	401	400	399	398	396	394	393	393	392	392	392	392	393	393	395	398	401	402	401	403	406	408	410	411	412	413	415	416	417	418	419	420	420	419	419	420	422	423	425	427	429	431	432	433	434	434	434	434	432	431	430	429	428	428	428	429	429	429	429	427	425	423	420	418	415	413	410	408	406	404	402	400	399	397	396	395	394	393
0	0	0	0	0	0	0	0	0	0	0	0	0	0	0	0	0	0	0	0	0	0	0	0	0	0	0	0	0	0	0	0	0	0	0	0	0	0	0	0	0	0	0	0	0	0	0	0	0	0	0	0	0	0	0	0	0	0	0	0	0	0	0	0	0	0	0	0	0	0	0	0	0	0	0	0	0	0	0	0	0	0	0	0	0	0	0	0	0	0	0	0	0	0	0	0	0	0	0	0	0	0	0	0	0	0	0	0	0	0	0	0	0	0	0	0	0	0	0	0	0	0	0	0	0	0	0	0	0	0	0	0	0	0	0	0	0	0	0	0	0	0	0	0	0	0	0	0	0	0	0	0	0	0	0	0	0	0	0	0	0	0	0	0	0	0	0	0	0	0	0	0	0	0	0	0	0	0	0	0	0	0	0	0	0	0	0	0	0	0	0	0	0	0	0	0	0	0	0	0	0	0	0	0	0	0	0	0	0	0	0	0	0	0	0	0	0	0	0	0	0	0	0	0	0	0	0	0	0	0	0	0	0	0	0	0	0	0	0	0	0	0	0	0	0	0	0	0	0	0	0	0	0	0	0	0	0	0	0	0	0	0	0	0	0	0	0	0	0	0	0	0	0	0	0	0	0	0	0	0	0	0	0	0	0	0	0	0	0	0	0	0	0	0	0	0	0	0	0	0	0	0	0	0	0	0	0	1	2	2	2	2	3	6	12	16	21	24	27	29	31	32	34	36	37	37	38	40	42	43	44	46	48	50	51	53	56	58	60	62	63	66	69	72	74	76	78	80	81	82	83	85	87	88	90	92	94	95	97	99	101	103	105	107	109	112	115	117	120	124	127	130	133	137	140	142	145	147	149	150	150	151	150	150	150	150	149	148	147	145	144	142	139	136	133	131	128	125	122	120	118	115	113	110	107	103	99	95	92	88	85	83	80	77	73	70	68	66	64	61	58	56	55	54	51	49	46	43	41	39	37	35	34	33	32	31	31	30	29	28	27	25	24	23	22	21	20	19	18	17	16	15	14	14	11	8	7	7	7	6	6	6	6	6	6	6	6	8	11	12	13	14	15	17	20	22	24	25	28	30	32	33	34	36	36	37	38	39	39	40	42	44	45	46	46	47	47	47	47	48	49	50	51	52	53	55	56	58	59	61	62	63	65	66	68	69	71	73	74	75	77	78	80	81	83	84	85	87	88	89	90	91	92	93	94	95	96	96	97	98	99	99	99	99	100	100	101	103	105	107	106	106	107	108	110	113	114	115	116	116	116	116	118	121	125	129	133	137	140	144	147	150	153	156	159	161	164	165	167	168	168	168	167	165	164	166	169	172	176	178	180	182	185	189	192	195	198	201	204	206	209	211	212	213	214	215	216	216	216	216	218	220	223	224	226	230	234	236	239	244	247	251	256	260	265	270	273	277	280	283	285	289	293	296	300	303	306	310	314	318	321	325	329	333	337	341	344	347	350	352	353	355	356	357	358	359	359	359	359	359	358	357	355	354	353	351	351	350	348	347	345	344	342	340	338	335	332	329	327	324	321	319	316	314	312	309	306	303	300	298	296	294	291	288	286	285	283	281	279	278	278	279	280	279	280	282	283	283	284	284	285	285	285	285	284	284	284	285	285	285	285	284	283	282	280	279	278	277	276	275	275	275	274	273	273	274	276	279	281	283	285	287	289	292	294	296	298	301	303	305	307	310	312	313	315	317	319	321	323	326	328	331	332	334	335	336	337	339	340	341	341	342	342	342	342	342	343	344	345	347	349	350	351	351	352	352	352	353	353	353	353	352	352	352	351	351	350	350	349	348	347	345	344	341	339	337	335	334	333	332	332	331	331	331	332	332	331	331	331	330	330	330	331	331	332	332	333	333	333	334	334	335	334	333	332	331	331	330	329	327	325	324	323	323	324	325	326	327	328	330	331	333	335	336	338	339	341	344	347	348	350	351	352	353	354	353	352	349	348	349	352	354	358	361	363	365	367	367	369	371	373	375	376	377	379	380	383	384	386	386	388	389	390	392	394	396	398	399	402	404	406	408	410	412	413	414	414	414	414	413	412	411	410	409	408	407	405	404	403	401	400	399	399	398	396	395	393	392	392	391	390	390	391	391	391	392	394	397	400	400	400	402	406	408	409	410	411	412	414	415	416	417	418	419	418	418	418	419	421	422	423	425	428	430	431	432	433	433	432	431	430	429	428	427	427	427	427	428	429	429	429	427	425	423	420	418	416	413	410	408	406	403	401	399	397	395	394	393	392	392
0	0	0	0	0	0	0	0	0	0	0	0	0	0	0	0	0	0	0	0	0	0	0	0	0	0	0	0	0	0	0	0	0	0	0	0	0	0	0	0	0	0	0	0	0	0	0	0	0	0	0	0	0	0	0	0	0	0	0	0	0	0	0	0	0	0	0	0	0	0	0	0	0	0	0	0	0	0	0	0	0	0	0	0	0	0	0	0	0	0	0	0	0	0	0	0	0	0	0	0	0	0	0	0	0	0	0	0	0	0	0	0	0	0	0	0	0	0	0	0	0	0	0	0	0	0	0	0	0	0	0	0	0	0	0	0	0	0	0	0	0	0	0	0	0	0	0	0	0	0	0	0	0	0	0	0	0	0	0	0	0	0	0	0	0	0	0	0	0	0	0	0	0	0	0	0	0	0	0	0	0	0	0	0	0	0	0	0	0	0	0	0	0	0	0	0	0	0	0	0	0	0	0	0	0	0	0	0	0	0	0	0	0	0	0	0	0	0	0	0	0	0	0	0	0	0	0	0	0	0	0	0	0	0	0	0	0	0	0	0	0	0	0	0	0	0	0	0	0	0	0	0	0	0	0	0	0	0	0	0	0	0	0	0	0	0	0	0	0	0	0	0	0	0	0	0	0	0	0	0	0	0	0	0	0	0	0	0	0	0	0	0	0	0	0	0	0	0	0	0	0	0	0	0	0	0	0	0	1	1	2	2	3	5	11	17	21	25	29	31	33	35	38	40	40	39	40	41	42	43	45	47	49	50	52	54	55	56	58	60	63	65	68	70	72	74	76	78	79	80	82	83	85	87	88	90	92	94	96	98	100	102	104	107	109	111	114	117	120	123	126	129	132	136	139	142	144	147	149	151	152	153	153	153	153	152	152	150	149	147	145	143	140	137	135	132	129	126	123	121	119	116	113	110	106	103	99	95	92	88	85	82	80	76	73	70	68	65	63	59	57	55	54	53	52	49	47	45	42	40	37	36	34	33	33	32	31	31	30	28	27	26	24	23	22	21	20	18	17	17	16	15	14	12	9	7	7	7	6	6	6	6	6	6	6	6	7	9	12	13	13	13	15	17	19	22	24	25	28	30	32	33	35	36	37	38	39	40	40	41	43	45	46	46	47	47	46	46	46	48	49	50	51	52	53	54	56	58	59	60	62	63	65	66	68	69	71	73	74	75	76	78	79	81	82	83	85	86	87	88	89	90	91	92	93	94	94	95	96	97	97	98	97	98	98	99	100	102	104	105	105	105	106	108	110	111	113	114	114	114	114	114	116	119	123	128	132	136	140	143	147	150	153	155	158	160	162	163	164	165	165	164	163	162	162	163	166	170	174	177	179	182	185	189	192	195	198	200	203	205	207	208	209	210	211	212	213	213	213	212	213	216	219	220	221	224	229	233	239	245	248	251	255	260	265	270	273	276	280	283	286	289	293	296	300	303	306	310	314	318	321	325	329	333	337	341	344	347	349	350	351	352	353	354	355	356	356	356	356	356	355	354	352	351	351	350	350	350	349	348	346	345	343	341	338	336	333	330	327	324	321	319	317	314	312	309	306	303	300	298	296	294	291	288	286	285	283	281	279	278	278	278	278	277	278	279	280	280	281	282	283	283	283	283	283	282	282	283	283	283	283	282	281	280	279	278	278	277	276	275	275	274	273	272	273	275	277	279	281	284	286	288	290	293	295	297	299	302	304	307	309	311	314	316	318	319	321	323	325	327	330	332	333	335	336	337	339	340	341	342	343	343	343	343	343	342	343	344	345	347	348	350	351	351	351	352	352	352	352	352	352	352	352	351	351	350	350	349	348	347	346	345	343	341	339	337	335	334	333	332	332	331	330	331	331	331	330	330	330	329	330	330	330	331	331	332	332	332	332	333	333	333	332	332	331	331	330	329	328	326	325	324	323	322	324	325	325	326	328	330	331	333	335	335	336	338	339	342	344	346	348	349	350	351	352	351	349	346	346	348	350	353	356	360	363	365	366	367	368	371	372	374	375	376	377	379	381	382	383	384	385	386	388	390	392	394	395	397	400	403	405	407	409	409	410	411	411	411	411	410	410	408	407	406	405	404	402	401	400	399	397	397	396	395	393	391	391	391	391	390	389	389	390	391	391	391	393	396	398	398	399	402	405	407	408	409	410	411	412	413	415	416	417	418	417	417	417	418	419	420	421	424	427	429	430	431	432	431	431	430	428	427	426	425	425	426	427	428	429	429	429	427	425	423	420	418	416	413	411	408	406	403	401	399	396	394	393	392	391	390
0	0	0	0	0	0	0	0	0	0	0	0	0	0	0	0	0	0	0	0	0	0	0	0	0	0	0	0	0	0	0	0	0	0	0	0	0	0	0	0	0	0	0	0	0	0	0	0	0	0	0	0	0	0	0	0	0	0	0	0	0	0	0	0	0	0	0	0	0	0	0	0	0	0	0	0	0	0	0	0	0	0	0	0	0	0	0	0	0	0	0	0	0	0	0	0	0	0	0	0	0	0	0	0	0	0	0	0	0	0	0	0	0	0	0	0	0	0	0	0	0	0	0	0	0	0	0	0	0	0	0	0	0	0	0	0	0	0	0	0	0	0	0	0	0	0	0	0	0	0	0	0	0	0	0	0	0	0	0	0	0	0	0	0	0	0	0	0	0	0	0	0	0	0	0	0	0	0	0	0	0	0	0	0	0	0	0	0	0	0	0	0	0	0	0	0	0	0	0	0	0	0	0	0	0	0	0	0	0	0	0	0	0	0	0	0	0	0	0	0	0	0	0	0	0	0	0	0	0	0	0	0	0	0	0	0	0	0	0	0	0	0	0	0	0	0	0	0	0	0	0	0	0	0	0	0	0	0	0	0	0	0	0	0	0	0	0	0	0	0	0	0	0	0	0	0	0	0	0	0	0	0	0	0	0	0	0	0	0	0	0	0	0	0	0	0	0	0	0	0	0	0	0	0	0	0	0	0	1	1	2	2	3	5	11	18	22	26	29	32	34	37	39	41	42	42	42	43	43	45	46	48	49	51	52	54	55	56	58	61	63	64	66	69	71	72	74	75	77	79	80	82	84	86	87	90	92	94	96	99	101	103	105	107	109	112	114	117	120	122	126	129	131	135	138	141	144	147	150	152	154	155	155	155	155	155	154	153	151	149	146	144	141	138	135	133	130	127	124	122	119	116	113	110	106	103	100	96	92	89	85	82	79	76	73	70	67	64	61	59	56	54	53	52	51	50	49	47	44	40	38	36	35	34	33	32	32	31	30	29	27	26	25	24	23	22	20	19	18	17	16	15	13	10	7	7	7	6	6	6	6	6	6	6	5	5	6	8	11	12	13	13	15	17	19	21	24	26	28	30	32	33	35	36	37	38	39	40	41	42	43	45	45	46	46	46	46	46	46	47	49	50	51	52	53	54	56	58	59	60	62	63	64	66	68	69	71	72	73	75	76	77	78	80	81	82	84	85	86	87	88	89	90	91	92	92	93	94	95	96	96	96	96	96	97	98	99	100	101	102	103	104	105	107	108	110	111	112	112	112	112	113	116	118	122	126	130	135	138	142	145	149	152	154	156	158	160	161	161	161	161	160	159	158	159	162	165	169	173	176	178	181	185	189	191	194	197	199	201	203	204	206	207	207	208	209	209	210	210	210	211	213	216	219	221	224	228	231	238	244	247	251	255	260	265	269	272	275	279	283	286	289	293	296	300	303	307	310	314	318	321	325	329	333	337	340	343	345	347	348	348	348	349	351	352	352	352	353	353	352	351	350	349	349	348	348	349	349	349	348	347	346	344	342	339	337	334	330	327	324	321	319	317	314	311	308	305	302	299	297	295	293	291	288	286	284	283	280	279	277	277	276	276	276	277	277	278	279	280	281	282	282	282	281	281	281	281	281	281	280	280	280	279	279	278	278	277	276	276	275	274	273	272	273	274	275	277	280	282	284	286	289	291	293	295	298	300	303	305	308	310	313	315	317	319	321	323	325	326	329	331	332	334	335	336	338	340	341	342	343	343	343	342	342	342	342	342	343	345	346	348	349	350	351	351	351	351	351	352	352	351	351	351	351	350	350	349	349	348	347	346	344	343	340	338	336	335	334	333	332	331	330	330	330	330	330	329	329	329	329	329	329	330	330	330	331	331	331	331	332	332	332	331	331	330	330	329	328	327	325	325	325	323	323	325	325	326	327	329	331	333	335	336	336	336	337	338	340	342	344	346	347	348	349	348	348	347	347	348	349	350	352	355	359	362	364	365	367	369	371	372	373	374	375	376	377	378	379	380	382	384	384	386	388	389	391	394	396	398	401	403	405	406	407	407	407	407	407	407	407	406	405	404	403	402	401	399	398	397	396	395	394	393	391	390	389	388	388	389	388	387	388	389	389	388	389	392	395	396	397	398	401	403	405	406	408	409	410	411	413	414	416	416	417	416	416	417	417	417	419	421	423	426	428	429	430	430	430	429	428	427	426	425	424	424	425	427	428	429	429	429	427	425	422	420	419	417	414	411	409	406	404	402	399	396	394	392	391	389	388
0	0	0	0	0	0	0	0	0	0	0	0	0	0	0	0	0	0	0	0	0	0	0	0	0	0	0	0	0	0	0	0	0	0	0	0	0	0	0	0	0	0	0	0	0	0	0	0	0	0	0	0	0	0	0	0	0	0	0	0	0	0	0	0	0	0	0	0	0	0	0	0	0	0	0	0	0	0	0	0	0	0	0	0	0	0	0	0	0	0	0	0	0	0	0	0	0	0	0	0	0	0	0	0	0	0	0	0	0	0	0	0	0	0	0	0	0	0	0	0	0	0	0	0	0	0	0	0	0	0	0	0	0	0	0	0	0	0	0	0	0	0	0	0	0	0	0	0	0	0	0	0	0	0	0	0	0	0	0	0	0	0	0	0	0	0	0	0	0	0	0	0	0	0	0	0	0	0	0	0	0	0	0	0	0	0	0	0	0	0	0	0	0	0	0	0	0	0	0	0	0	0	0	0	0	0	0	0	0	0	0	0	0	0	0	0	0	0	0	0	0	0	0	0	0	0	0	0	0	0	0	0	0	0	0	0	0	0	0	0	0	0	0	0	0	0	0	0	0	0	0	0	0	0	0	0	0	0	0	0	0	0	0	0	0	0	0	0	0	0	0	0	0	0	0	0	0	0	0	0	0	0	0	0	0	0	0	0	0	0	0	0	0	0	0	0	0	0	0	0	0	0	0	0	0	0	0	0	1	1	2	2	3	5	12	19	23	26	29	32	35	38	40	42	43	43	44	44	45	47	49	50	51	52	53	55	56	58	60	62	64	65	67	69	70	71	73	74	76	78	79	82	84	86	88	90	93	95	98	100	102	104	106	108	110	113	115	117	120	123	126	129	131	135	138	141	144	147	150	153	155	157	157	157	157	157	156	155	153	151	148	145	142	139	136	133	130	127	125	122	120	117	113	110	107	104	101	98	94	90	86	83	79	76	73	70	67	64	60	58	56	54	53	51	50	49	49	47	45	41	38	37	35	34	34	33	32	32	30	29	28	26	25	24	23	22	21	19	17	16	15	15	13	9	7	7	6	6	6	6	6	6	6	6	5	5	5	7	9	12	13	14	15	16	18	21	23	26	28	30	32	33	34	35	36	37	39	40	41	42	43	44	44	45	45	46	46	45	46	47	48	50	51	52	53	54	56	57	59	60	62	63	64	66	67	68	70	71	73	74	75	76	78	79	80	81	82	84	85	86	87	88	89	89	90	91	92	93	94	94	94	94	94	95	95	97	98	98	98	99	100	103	105	106	107	109	110	111	110	110	110	112	115	117	120	124	128	133	137	140	144	147	150	152	155	156	157	158	157	157	157	156	155	155	158	161	165	169	172	175	178	181	184	188	190	193	196	198	199	201	203	204	204	205	205	206	207	207	207	207	208	211	214	217	221	225	228	231	236	242	247	250	255	260	264	267	270	273	278	282	285	289	292	295	299	303	306	310	314	318	321	325	329	332	336	339	341	342	344	344	344	345	346	347	348	348	348	349	349	348	347	346	346	346	346	346	347	348	349	348	348	346	344	342	340	337	334	331	328	324	321	319	316	314	310	308	305	302	299	297	295	292	290	288	286	284	282	280	279	277	276	275	276	276	276	277	278	280	280	281	282	282	281	280	280	280	279	279	279	278	278	278	278	278	277	277	276	276	275	274	273	272	272	273	274	276	278	280	282	285	287	289	291	293	296	298	301	303	306	309	311	314	316	318	320	322	324	326	327	329	331	333	334	335	337	338	340	341	342	342	342	342	341	341	341	341	341	342	344	346	348	349	350	350	351	351	351	351	351	351	351	351	351	351	350	350	349	349	348	347	346	344	342	340	338	336	335	334	333	332	331	330	330	329	329	329	329	329	328	328	328	329	329	330	330	330	330	330	331	331	331	331	330	330	329	329	328	327	326	325	325	325	323	324	325	326	327	329	331	333	335	336	337	338	337	338	338	340	342	343	345	346	347	346	344	344	346	348	349	349	350	351	354	357	360	362	364	366	368	370	371	372	373	374	375	376	377	378	378	380	382	383	384	386	388	390	392	394	397	399	401	402	403	404	405	405	404	403	403	402	402	401	400	399	398	397	396	395	394	393	392	391	390	389	388	387	386	386	386	386	386	386	387	387	386	387	390	394	395	395	398	401	402	403	404	406	409	410	412	413	415	415	416	416	416	416	416	415	416	418	420	423	424	426	428	428	429	428	428	427	425	424	423	423	424	425	427	428	429	429	428	426	424	422	420	419	417	414	412	410	407	404	402	399	397	394	392	389	387	386
0	0	0	0	0	0	0	0	0	0	0	0	0	0	0	0	0	0	0	0	0	0	0	0	0	0	0	0	0	0	0	0	0	0	0	0	0	0	0	0	0	0	0	0	0	0	0	0	0	0	0	0	0	0	0	0	0	0	0	0	0	0	0	0	0	0	0	0	0	0	0	0	0	0	0	0	0	0	0	0	0	0	0	0	0	0	0	0	0	0	0	0	0	0	0	0	0	0	0	0	0	0	0	0	0	0	0	0	0	0	0	0	0	0	0	0	0	0	0	0	0	0	0	0	0	0	0	0	0	0	0	0	0	0	0	0	0	0	0	0	0	0	0	0	0	0	0	0	0	0	0	0	0	0	0	0	0	0	0	0	0	0	0	0	0	0	0	0	0	0	0	0	0	0	0	0	0	0	0	0	0	0	0	0	0	0	0	0	0	0	0	0	0	0	0	0	0	0	0	0	0	0	0	0	0	0	0	0	0	0	0	0	0	0	0	0	0	0	0	0	0	0	0	0	0	0	0	0	0	0	0	0	0	0	0	0	0	0	0	0	0	0	0	0	0	0	0	0	0	0	0	0	0	0	0	0	0	0	0	0	0	0	0	0	0	0	0	0	0	0	0	0	0	0	0	0	0	0	0	0	0	0	0	0	0	0	0	0	0	0	0	0	0	0	0	0	0	0	0	0	0	0	0	0	0	0	0	0	1	2	2	2	3	5	11	19	24	26	29	32	35	38	41	42	44	44	45	46	47	49	51	52	53	54	55	56	58	60	62	64	66	67	68	70	71	72	73	74	76	78	80	82	84	87	89	92	94	97	99	102	104	106	108	110	112	114	116	119	121	124	126	129	132	136	139	142	145	148	151	154	156	158	159	160	159	159	158	156	154	152	149	146	143	140	137	134	131	128	125	123	120	117	114	111	108	105	102	99	95	91	87	84	80	76	73	70	68	64	60	57	56	54	53	51	50	49	48	47	45	43	40	38	36	35	35	34	33	32	30	29	28	26	25	24	23	22	21	19	16	14	14	14	13	8	6	7	6	6	6	6	6	6	6	6	6	5	5	6	7	9	12	14	15	16	17	20	22	25	28	30	32	33	34	34	35	37	39	40	41	41	41	41	42	43	44	45	45	45	46	47	48	49	51	52	53	54	56	57	59	60	61	63	64	65	67	68	69	71	72	73	74	76	77	78	79	80	81	82	83	84	86	86	87	88	89	90	91	92	92	93	93	93	93	93	94	95	96	97	96	97	99	102	104	105	106	107	109	109	109	108	109	111	114	116	119	122	126	131	135	139	143	146	148	150	152	154	154	154	153	153	153	152	152	154	156	160	164	168	170	173	177	180	183	186	189	192	194	196	198	199	201	201	202	202	202	203	204	204	204	204	206	209	213	216	221	226	229	231	236	241	246	250	255	259	262	266	269	273	277	280	284	288	291	295	298	302	306	309	313	317	320	324	328	331	334	336	338	339	340	341	341	341	343	344	344	344	344	345	345	345	344	343	343	342	343	344	346	348	349	348	347	346	344	341	339	336	334	331	327	324	321	319	316	313	310	308	305	303	300	297	295	293	291	289	288	286	283	281	279	278	276	275	276	276	275	277	279	280	281	281	282	281	281	280	279	278	278	277	277	277	277	277	277	277	276	276	276	275	275	274	273	272	272	273	274	276	278	280	282	285	287	289	291	294	296	298	301	303	306	308	311	314	316	318	320	322	324	326	327	329	331	332	334	335	337	338	339	340	341	341	341	340	340	339	339	339	340	342	343	345	347	349	350	350	350	350	351	351	351	351	351	351	351	351	350	350	350	349	348	348	346	344	342	339	337	335	334	333	333	332	331	330	330	329	329	328	328	328	328	328	328	328	329	329	329	329	329	330	330	330	330	330	330	329	329	328	328	327	326	325	325	324	322	323	325	327	329	331	333	335	336	338	339	340	340	339	340	341	342	344	345	346	346	344	342	342	344	347	348	348	348	350	352	354	358	361	363	365	367	369	369	370	370	371	372	373	375	376	377	379	381	381	383	384	387	389	391	393	395	397	399	400	401	401	402	402	401	400	399	398	398	397	397	396	395	394	393	392	391	390	389	388	388	387	386	385	385	385	385	384	384	385	386	385	384	386	389	393	394	394	396	399	400	401	403	405	408	410	412	413	414	415	415	415	416	416	415	414	416	418	420	422	423	424	426	427	427	427	426	425	424	423	422	422	423	425	427	429	429	429	428	425	423	422	420	418	417	414	412	410	408	405	402	399	396	394	391	388	386	385
0	0	0	0	0	0	0	0	0	0	0	0	0	0	0	0	0	0	0	0	0	0	0	0	0	0	0	0	0	0	0	0	0	0	0	0	0	0	0	0	0	0	0	0	0	0	0	0	0	0	0	0	0	0	0	0	0	0	0	0	0	0	0	0	0	0	0	0	0	0	0	0	0	0	0	0	0	0	0	0	0	0	0	0	0	0	0	0	0	0	0	0	0	0	0	0	0	0	0	0	0	0	0	0	0	0	0	0	0	0	0	0	0	0	0	0	0	0	0	0	0	0	0	0	0	0	0	0	0	0	0	0	0	0	0	0	0	0	0	0	0	0	0	0	0	0	0	0	0	0	0	0	0	0	0	0	0	0	0	0	0	0	0	0	0	0	0	0	0	0	0	0	0	0	0	0	0	0	0	0	0	0	0	0	0	0	0	0	0	0	0	0	0	0	0	0	0	0	0	0	0	0	0	0	0	0	0	0	0	0	0	0	0	0	0	0	0	0	0	0	0	0	0	0	0	0	0	0	0	0	0	0	0	0	0	0	0	0	0	0	0	0	0	0	0	0	0	0	0	0	0	0	0	0	0	0	0	0	0	0	0	0	0	0	0	0	0	0	0	0	0	0	0	0	0	0	0	0	0	0	0	0	0	0	0	0	0	0	0	0	0	0	0	0	0	0	0	0	0	0	0	0	0	0	0	0	0	0	1	2	2	2	3	6	12	18	23	27	30	33	36	39	41	44	45	46	47	47	48	50	52	54	55	56	58	59	61	64	65	67	69	70	71	72	72	73	74	76	78	80	82	84	86	88	91	94	96	99	101	103	106	108	110	112	114	116	119	121	123	126	128	131	134	137	140	143	146	149	152	155	158	160	161	162	162	161	159	158	155	153	150	147	144	141	138	135	132	129	126	123	121	118	114	111	108	106	103	99	96	92	88	84	80	77	74	71	69	65	61	58	56	55	53	51	50	49	48	47	46	44	42	40	38	36	35	34	33	31	30	29	27	26	25	24	23	22	20	18	16	14	14	14	12	8	6	6	6	6	6	6	6	6	6	6	6	5	5	6	6	7	10	14	15	16	17	19	22	24	27	30	32	33	33	34	34	36	38	40	41	40	39	39	39	41	42	44	45	45	46	47	48	49	50	52	53	55	56	57	58	60	61	62	63	65	66	67	69	70	71	72	74	75	76	77	78	79	80	81	82	83	84	85	86	87	88	89	90	91	91	91	92	92	92	92	93	94	95	95	95	97	99	101	103	104	105	106	107	107	107	107	108	110	113	116	118	121	124	129	133	138	142	144	146	148	149	151	151	150	149	148	147	148	150	153	155	159	162	165	169	172	175	179	182	185	188	190	192	195	197	198	199	200	199	199	200	201	201	202	202	203	206	209	213	216	221	225	229	232	236	241	245	250	254	258	261	264	268	272	276	279	283	287	291	294	298	302	305	308	312	316	319	323	326	329	332	333	334	335	336	336	337	338	339	340	340	340	341	342	342	342	341	340	339	339	340	342	344	346	348	348	347	345	343	340	338	335	333	330	327	324	321	319	316	313	311	308	306	303	301	298	295	293	291	290	288	286	284	281	279	278	276	275	276	275	275	277	279	280	280	281	282	281	281	280	279	278	277	276	276	275	275	275	275	276	275	275	275	275	274	274	272	272	272	273	275	277	278	280	282	284	287	289	291	293	295	298	300	303	305	308	311	313	315	318	320	321	323	325	326	328	330	331	333	334	336	337	338	339	339	339	339	339	338	338	337	338	339	341	343	345	346	348	349	350	350	350	350	351	351	351	351	351	351	351	351	351	350	349	349	347	345	343	341	338	337	335	334	333	332	332	331	330	330	329	329	328	328	328	328	328	328	328	328	328	328	328	329	329	330	330	330	330	329	329	328	328	328	327	327	326	325	323	322	324	326	328	330	332	334	336	338	340	341	342	342	341	341	341	342	343	344	345	344	342	342	342	343	344	346	346	347	348	351	353	356	360	362	364	366	367	368	368	368	369	370	371	373	374	375	377	379	380	381	382	384	386	388	391	393	395	397	399	399	399	399	398	398	397	395	395	394	394	393	393	392	391	391	390	389	388	387	387	386	385	384	383	384	384	383	382	382	383	384	384	384	385	387	390	392	392	394	395	397	400	403	405	408	410	412	413	413	414	414	415	416	415	413	413	416	418	419	420	421	422	423	425	425	425	425	424	423	422	422	421	423	424	426	428	428	428	426	424	423	421	419	417	416	414	412	410	407	405	401	398	396	393	391	388	386	384
0	0	0	0	0	0	0	0	0	0	0	0	0	0	0	0	0	0	0	0	0	0	0	0	0	0	0	0	0	0	0	0	0	0	0	0	0	0	0	0	0	0	0	0	0	0	0	0	0	0	0	0	0	0	0	0	0	0	0	0	0	0	0	0	0	0	0	0	0	0	0	0	0	0	0	0	0	0	0	0	0	0	0	0	0	0	0	0	0	0	0	0	0	0	0	0	0	0	0	0	0	0	0	0	0	0	0	0	0	0	0	0	0	0	0	0	0	0	0	0	0	0	0	0	0	0	0	0	0	0	0	0	0	0	0	0	0	0	0	0	0	0	0	0	0	0	0	0	0	0	0	0	0	0	0	0	0	0	0	0	0	0	0	0	0	0	0	0	0	0	0	0	0	0	0	0	0	0	0	0	0	0	0	0	0	0	0	0	0	0	0	0	0	0	0	0	0	0	0	0	0	0	0	0	0	0	0	0	0	0	0	0	0	0	0	0	0	0	0	0	0	0	0	0	0	0	0	0	0	0	0	0	0	0	0	0	0	0	0	0	0	0	0	0	0	0	0	0	0	0	0	0	0	0	0	0	0	0	0	0	0	0	0	0	0	0	0	0	0	0	0	0	0	0	0	0	0	0	0	0	0	0	0	0	0	0	0	0	0	0	0	0	0	0	0	0	0	0	0	0	0	0	0	0	0	0	0	0	1	2	2	3	4	7	14	19	23	27	31	35	37	40	43	45	47	48	49	49	50	52	54	56	58	59	61	62	65	67	69	70	72	74	74	75	75	75	76	77	79	81	83	85	88	90	93	95	98	100	103	105	108	110	112	115	117	119	121	123	126	128	130	133	135	138	141	144	147	150	153	156	159	162	163	164	164	163	161	159	156	154	151	148	145	142	139	135	132	129	126	124	121	118	114	111	108	105	102	99	96	92	88	85	81	77	74	71	69	66	62	59	57	55	54	52	52	51	50	48	46	45	43	41	39	37	36	34	33	31	30	28	27	25	24	23	22	21	20	18	16	15	15	15	13	10	8	7	6	6	6	6	6	6	6	6	6	5	5	6	6	6	9	13	15	16	18	19	21	24	27	30	31	32	33	33	34	36	38	40	40	39	38	37	38	39	41	43	44	44	45	47	48	49	50	51	53	55	56	57	58	59	60	62	63	64	66	67	68	69	70	71	73	74	75	76	77	78	79	80	81	82	83	84	85	86	87	88	89	89	90	90	90	90	91	91	92	93	93	93	94	96	99	100	102	103	104	104	105	105	105	105	107	109	112	115	118	120	124	127	132	136	140	143	144	145	146	147	147	145	145	145	144	146	149	152	154	157	160	163	167	170	174	178	181	184	187	189	191	193	195	197	198	198	198	197	198	198	199	199	201	203	206	210	213	217	221	225	229	233	236	241	245	249	252	257	261	264	267	272	275	278	282	286	289	292	296	301	305	307	311	315	318	321	325	327	329	330	330	330	331	332	333	334	336	337	337	337	339	340	340	339	338	336	336	336	338	340	343	345	346	346	345	344	342	339	337	335	333	330	327	325	322	320	317	314	312	309	306	304	302	299	296	293	291	289	288	286	284	282	280	279	278	276	276	275	275	277	278	279	280	280	281	281	280	279	278	277	276	275	274	274	273	273	273	274	274	274	274	274	273	272	271	271	272	274	276	277	279	281	283	285	287	288	290	292	294	297	299	302	304	307	309	312	314	317	319	320	322	323	325	327	329	330	332	333	334	335	336	337	337	337	337	336	336	336	336	337	338	340	342	344	346	347	348	349	350	350	350	351	351	351	351	351	351	351	351	350	350	349	348	346	344	342	339	337	336	335	334	333	332	331	331	330	330	329	329	328	328	328	329	329	328	328	327	327	328	328	329	329	330	330	330	330	329	329	329	329	329	328	328	327	325	324	323	325	326	329	332	333	335	337	339	341	342	343	343	343	342	342	342	343	343	343	342	341	341	342	343	344	344	345	346	347	349	352	355	358	360	361	363	364	366	367	367	366	367	369	371	372	373	374	377	378	379	380	382	384	386	388	390	392	394	396	397	396	395	395	394	393	392	392	392	391	391	390	389	389	389	388	386	386	385	385	384	383	381	381	381	381	380	380	381	382	383	383	383	383	384	387	389	391	393	394	396	400	403	405	407	409	411	412	412	413	413	414	414	412	411	413	415	417	418	419	420	420	421	422	423	423	423	423	422	421	421	421	422	424	425	426	426	426	425	423	422	420	418	416	415	413	411	408	406	403	400	397	395	393	390	387	385	382
0	0	0	0	0	0	0	0	0	0	0	0	0	0	0	0	0	0	0	0	0	0	0	0	0	0	0	0	0	0	0	0	0	0	0	0	0	0	0	0	0	0	0	0	0	0	0	0	0	0	0	0	0	0	0	0	0	0	0	0	0	0	0	0	0	0	0	0	0	0	0	0	0	0	0	0	0	0	0	0	0	0	0	0	0	0	0	0	0	0	0	0	0	0	0	0	0	0	0	0	0	0	0	0	0	0	0	0	0	0	0	0	0	0	0	0	0	0	0	0	0	0	0	0	0	0	0	0	0	0	0	0	0	0	0	0	0	0	0	0	0	0	0	0	0	0	0	0	0	0	0	0	0	0	0	0	0	0	0	0	0	0	0	0	0	0	0	0	0	0	0	0	0	0	0	0	0	0	0	0	0	0	0	0	0	0	0	0	0	0	0	0	0	0	0	0	0	0	0	0	0	0	0	0	0	0	0	0	0	0	0	0	0	0	0	0	0	0	0	0	0	0	0	0	0	0	0	0	0	0	0	0	0	0	0	0	0	0	0	0	0	0	0	0	0	0	0	0	0	0	0	0	0	0	0	0	0	0	0	0	0	0	0	0	0	0	0	0	0	0	0	0	0	0	0	0	0	0	0	0	0	0	0	0	0	0	0	0	0	0	0	0	0	0	0	0	0	0	0	0	0	0	0	0	0	0	0	0	1	2	2	3	4	8	15	19	23	28	32	35	38	41	44	46	49	50	51	52	53	54	57	59	60	62	63	65	67	69	72	74	75	77	78	78	78	78	78	78	80	82	85	87	89	91	94	97	99	102	104	106	109	112	114	116	119	121	124	126	128	130	133	135	137	140	142	145	148	151	154	158	161	163	165	166	165	164	162	159	157	154	151	148	145	142	139	136	132	129	127	124	120	117	114	111	108	105	102	99	96	92	88	85	82	78	74	71	69	66	63	60	58	56	55	54	53	52	51	49	47	45	43	41	39	37	36	35	33	31	30	28	26	24	23	22	21	20	19	18	16	15	15	15	15	14	10	7	6	6	6	6	6	5	5	5	5	5	5	5	6	6	9	13	14	16	18	19	20	23	27	29	31	31	32	33	34	35	37	39	40	39	37	37	38	39	41	42	43	44	45	46	48	49	50	51	53	55	56	57	58	59	60	61	63	64	65	66	67	68	70	71	72	73	74	74	75	76	78	79	80	81	82	83	84	85	86	87	87	88	88	88	89	89	90	91	91	92	91	91	93	95	98	99	101	102	102	103	102	102	103	104	106	109	112	115	117	120	123	126	130	135	139	141	142	141	141	142	143	142	142	143	143	145	148	151	154	156	159	161	165	169	173	176	180	183	185	187	190	192	194	196	197	197	196	195	196	196	196	197	200	204	207	210	214	218	221	224	228	232	236	240	244	248	251	255	259	263	266	270	274	277	280	284	286	289	295	300	304	307	310	313	317	320	322	324	326	326	326	326	327	328	330	331	333	333	333	334	336	338	338	337	335	333	333	334	336	339	341	343	343	344	344	343	342	339	337	335	333	330	328	325	323	321	318	315	313	310	308	305	303	300	296	294	291	290	288	286	284	283	282	281	280	278	277	276	276	277	278	278	278	279	280	280	279	279	278	277	276	275	273	271	270	270	270	271	272	272	273	272	272	271	271	272	273	275	277	278	280	282	283	285	287	288	290	292	294	296	298	301	303	306	308	311	313	315	318	319	321	322	324	326	328	329	330	332	333	334	334	335	335	335	335	334	334	334	335	336	338	340	342	343	345	347	348	349	350	350	350	351	351	351	351	351	351	351	351	350	350	349	348	346	343	341	338	337	335	334	333	333	332	331	331	331	330	329	329	328	328	329	330	329	328	328	327	327	327	328	329	330	330	330	330	330	330	329	330	330	329	329	328	327	326	324	323	324	326	329	332	334	336	338	340	341	342	343	343	343	343	343	342	342	342	341	340	340	341	342	343	343	344	344	345	346	348	350	352	355	357	358	359	361	364	365	364	363	364	366	368	370	371	372	374	376	377	378	380	382	384	386	388	390	392	393	393	393	392	391	390	390	389	389	389	389	388	387	386	386	385	385	384	383	383	382	382	381	379	378	378	377	377	377	379	380	381	382	382	381	382	384	387	390	393	395	396	399	403	404	406	408	410	411	411	412	411	412	412	411	410	412	414	415	416	417	418	419	420	420	421	421	422	422	422	421	420	420	421	422	423	424	424	424	423	422	420	419	417	415	414	412	410	407	404	401	399	396	394	391	389	386	384	381
0	0	0	0	0	0	0	0	0	0	0	0	0	0	0	0	0	0	0	0	0	0	0	0	0	0	0	0	0	0	0	0	0	0	0	0	0	0	0	0	0	0	0	0	0	0	0	0	0	0	0	0	0	0	0	0	0	0	0	0	0	0	0	0	0	0	0	0	0	0	0	0	0	0	0	0	0	0	0	0	0	0	0	0	0	0	0	0	0	0	0	0	0	0	0	0	0	0	0	0	0	0	0	0	0	0	0	0	0	0	0	0	0	0	0	0	0	0	0	0	0	0	0	0	0	0	0	0	0	0	0	0	0	0	0	0	0	0	0	0	0	0	0	0	0	0	0	0	0	0	0	0	0	0	0	0	0	0	0	0	0	0	0	0	0	0	0	0	0	0	0	0	0	0	0	0	0	0	0	0	0	0	0	0	0	0	0	0	0	0	0	0	0	0	0	0	0	0	0	0	0	0	0	0	0	0	0	0	0	0	0	0	0	0	0	0	0	0	0	0	0	0	0	0	0	0	0	0	0	0	0	0	0	0	0	0	0	0	0	0	0	0	0	0	0	0	0	0	0	0	0	0	0	0	0	0	0	0	0	0	0	0	0	0	0	0	0	0	0	0	0	0	0	0	0	0	0	0	0	0	0	0	0	0	0	0	0	0	0	0	0	0	0	0	0	0	0	0	0	0	0	0	0	0	0	0	0	1	2	2	3	3	5	11	16	19	23	28	32	36	39	42	45	47	50	52	53	54	56	57	59	61	62	64	66	68	70	72	74	76	78	79	80	81	81	81	81	81	81	83	86	88	90	93	95	98	100	102	105	108	111	113	115	118	120	123	126	128	131	133	135	137	140	142	144	147	150	153	156	159	162	165	166	167	166	164	162	159	157	154	151	148	146	143	140	136	132	129	126	123	120	117	113	110	107	104	101	99	95	92	88	85	82	78	74	71	69	66	63	61	59	58	57	56	54	53	52	50	48	46	44	41	40	38	36	34	33	31	29	27	25	23	22	21	20	19	18	17	16	15	15	15	16	15	10	6	6	6	6	6	6	5	5	5	5	5	5	5	5	6	8	12	14	16	17	18	20	22	26	28	29	30	31	32	33	34	36	37	38	38	37	37	38	39	40	41	42	43	45	46	47	48	49	50	52	54	55	56	57	58	59	61	62	63	64	65	67	68	69	70	71	71	72	73	74	75	76	78	79	80	81	82	83	84	85	85	86	87	87	87	88	88	89	90	90	90	90	90	92	95	97	98	100	101	101	101	100	100	101	103	106	108	111	114	117	119	122	126	129	133	137	139	139	138	137	138	139	138	139	141	142	144	147	151	153	156	158	161	164	168	171	175	179	182	184	186	189	191	192	194	194	194	193	192	192	192	193	195	199	203	206	209	214	218	221	223	227	231	234	238	243	246	249	253	257	261	264	268	271	275	278	281	283	286	292	298	302	306	309	312	314	317	319	321	322	323	322	323	323	324	326	328	329	330	330	331	334	335	335	334	332	330	330	331	333	335	337	339	340	341	342	342	341	339	337	335	333	331	329	326	324	321	319	316	314	312	309	306	304	301	298	296	293	292	290	288	286	285	284	283	282	280	278	276	276	276	277	277	277	278	279	279	278	278	277	277	276	274	271	269	268	269	269	269	269	270	271	271	270	270	271	273	274	276	278	279	281	283	285	286	288	289	291	293	294	296	298	300	302	305	307	309	312	314	316	318	320	321	323	325	326	328	329	330	331	332	332	333	333	333	333	333	333	333	334	335	337	339	341	343	345	346	348	349	350	350	350	351	351	351	351	351	351	351	350	350	349	348	347	345	342	340	338	336	335	334	333	332	332	331	331	331	330	329	329	328	328	328	329	328	328	328	328	327	327	329	329	330	330	330	331	330	330	330	330	330	330	330	329	328	326	323	322	324	326	329	331	334	336	338	340	341	342	343	343	343	343	343	342	341	341	340	340	339	339	340	341	341	342	343	344	345	346	347	350	352	355	356	357	359	361	362	362	361	362	363	366	367	368	369	371	373	375	377	379	381	382	384	386	388	389	389	389	389	389	388	386	386	387	386	386	385	385	384	383	382	382	381	381	380	380	379	379	379	377	376	375	375	375	375	377	378	378	379	380	380	381	384	387	390	392	394	395	398	401	403	405	406	408	409	410	410	410	410	410	409	408	409	412	414	415	416	417	417	418	419	419	420	421	422	422	421	420	419	419	420	421	422	422	422	421	420	419	418	416	414	413	411	409	406	403	400	397	395	392	390	388	386	383	380
0	0	0	0	0	0	0	0	0	0	0	0	0	0	0	0	0	0	0	0	0	0	0	0	0	0	0	0	0	0	0	0	0	0	0	0	0	0	0	0	0	0	0	0	0	0	0	0	0	0	0	0	0	0	0	0	0	0	0	0	0	0	0	0	0	0	0	0	0	0	0	0	0	0	0	0	0	0	0	0	0	0	0	0	0	0	0	0	0	0	0	0	0	0	0	0	0	0	0	0	0	0	0	0	0	0	0	0	0	0	0	0	0	0	0	0	0	0	0	0	0	0	0	0	0	0	0	0	0	0	0	0	0	0	0	0	0	0	0	0	0	0	0	0	0	0	0	0	0	0	0	0	0	0	0	0	0	0	0	0	0	0	0	0	0	0	0	0	0	0	0	0	0	0	0	0	0	0	0	0	0	0	0	0	0	0	0	0	0	0	0	0	0	0	0	0	0	0	0	0	0	0	0	0	0	0	0	0	0	0	0	0	0	0	0	0	0	0	0	0	0	0	0	0	0	0	0	0	0	0	0	0	0	0	0	0	0	0	0	0	0	0	0	0	0	0	0	0	0	0	0	0	0	0	0	0	0	0	0	0	0	0	0	0	0	0	0	0	0	0	0	0	0	0	0	0	0	0	0	0	0	0	0	0	0	0	0	0	0	0	0	0	0	0	0	0	0	0	0	0	0	0	0	0	0	0	0	1	2	2	3	4	8	14	17	20	24	29	33	36	40	43	46	49	51	54	55	57	58	60	61	63	65	67	69	71	72	74	76	78	80	81	82	83	83	84	83	83	83	84	86	89	91	93	96	98	101	103	106	109	111	114	117	119	122	125	128	130	133	135	138	140	142	144	146	149	152	155	158	161	164	166	167	167	166	164	161	159	156	153	151	148	146	143	140	136	132	129	126	123	120	116	113	110	107	103	100	97	94	91	87	84	81	77	74	71	69	66	64	63	62	61	60	58	57	55	52	51	48	46	44	42	39	37	36	34	32	31	29	27	24	22	21	20	19	18	17	16	16	15	14	15	16	15	10	6	5	5	6	6	6	5	5	5	5	5	5	5	5	5	7	10	13	15	17	18	18	21	24	26	28	29	30	31	32	33	35	36	37	38	38	38	38	39	40	41	42	43	44	46	47	48	49	50	51	53	54	55	56	57	59	60	62	63	64	65	66	67	68	69	69	70	71	72	73	74	75	77	78	79	80	80	81	83	83	84	85	85	86	86	86	87	88	89	89	89	89	90	92	94	96	97	99	99	99	99	98	99	100	103	105	108	111	113	116	119	122	125	128	132	135	136	136	134	134	135	135	135	136	139	141	144	147	150	152	155	158	160	163	166	170	174	177	180	183	185	188	189	190	191	191	190	188	187	187	189	191	193	198	202	205	207	212	217	219	221	225	229	232	236	240	244	247	251	255	259	262	265	269	272	275	279	281	284	290	296	300	303	306	309	312	315	317	318	319	319	319	319	319	320	322	324	325	326	327	329	332	333	333	332	329	327	327	328	329	331	333	334	336	338	339	340	339	339	337	336	334	332	329	327	324	322	319	317	315	313	310	308	305	303	300	298	296	294	292	290	288	287	286	285	284	282	279	277	276	275	275	276	276	277	278	278	278	278	277	276	275	273	270	268	267	268	269	268	267	268	269	270	270	271	272	274	276	278	279	281	283	285	287	288	289	291	293	294	295	297	298	300	302	305	306	308	311	313	315	317	319	320	322	324	325	327	328	329	330	330	330	330	331	331	331	331	331	332	333	335	337	339	341	343	345	346	348	349	350	350	350	351	351	351	351	351	351	351	350	349	348	347	346	344	341	339	337	336	335	334	333	332	332	331	331	331	330	329	329	329	328	328	328	328	327	328	328	328	328	329	330	330	330	331	331	331	331	331	331	331	331	330	329	328	326	323	322	323	325	328	330	333	336	338	339	340	341	342	343	343	343	342	342	341	340	339	339	339	338	337	338	339	341	342	343	344	345	346	347	350	352	353	354	356	359	360	360	360	361	362	363	364	365	367	368	370	373	375	377	379	380	382	383	384	385	386	386	386	385	384	383	383	384	384	382	382	381	381	380	380	379	379	378	378	377	377	377	376	375	375	375	374	374	374	375	375	375	376	377	379	381	384	387	389	391	393	394	397	400	402	403	405	406	407	408	408	409	408	407	404	404	406	410	412	413	415	415	416	416	417	418	419	420	422	422	422	420	419	418	418	419	419	420	420	419	418	417	416	415	413	412	410	408	405	402	399	396	394	391	389	387	385	384	381
0	0	0	0	0	0	0	0	0	0	0	0	0	0	0	0	0	0	0	0	0	0	0	0	0	0	0	0	0	0	0	0	0	0	0	0	0	0	0	0	0	0	0	0	0	0	0	0	0	0	0	0	0	0	0	0	0	0	0	0	0	0	0	0	0	0	0	0	0	0	0	0	0	0	0	0	0	0	0	0	0	0	0	0	0	0	0	0	0	0	0	0	0	0	0	0	0	0	0	0	0	0	0	0	0	0	0	0	0	0	0	0	0	0	0	0	0	0	0	0	0	0	0	0	0	0	0	0	0	0	0	0	0	0	0	0	0	0	0	0	0	0	0	0	0	0	0	0	0	0	0	0	0	0	0	0	0	0	0	0	0	0	0	0	0	0	0	0	0	0	0	0	0	0	0	0	0	0	0	0	0	0	0	0	0	0	0	0	0	0	0	0	0	0	0	0	0	0	0	0	0	0	0	0	0	0	0	0	0	0	0	0	0	0	0	0	0	0	0	0	0	0	0	0	0	0	0	0	0	0	0	0	0	0	0	0	0	0	0	0	0	0	0	0	0	0	0	0	0	0	0	0	0	0	0	0	0	0	0	0	0	0	0	0	0	0	0	0	0	0	0	0	0	0	0	0	0	0	0	0	0	0	0	0	0	0	0	0	0	0	0	0	0	0	0	0	0	0	0	0	0	0	0	0	0	0	1	2	2	3	4	7	12	17	20	23	27	31	34	38	41	44	47	50	53	55	58	59	61	62	63	65	67	70	72	73	75	77	78	80	82	84	85	85	86	86	86	85	85	85	86	89	91	94	96	99	101	104	107	109	112	115	117	120	123	126	129	132	135	137	140	142	144	147	149	151	154	157	159	163	165	167	168	167	165	163	160	158	156	153	150	148	145	142	139	135	132	128	125	122	118	115	112	109	106	102	99	96	93	90	86	83	80	77	75	72	70	68	66	65	64	64	63	61	59	56	54	51	49	46	44	41	39	37	35	33	32	31	29	27	24	22	20	19	18	17	16	15	15	14	13	14	15	15	11	6	5	5	5	6	6	5	5	5	5	5	5	5	5	5	6	8	12	15	16	17	17	19	22	25	26	28	30	31	31	32	34	35	37	38	38	38	38	39	40	41	42	43	44	45	47	48	48	50	51	52	53	54	56	57	58	59	61	62	63	64	65	66	67	67	68	69	70	71	72	74	74	76	77	78	78	79	80	81	82	83	84	84	84	85	86	86	87	88	88	88	88	90	91	93	95	96	97	97	97	96	97	98	100	103	105	108	111	114	116	119	122	125	128	131	133	134	133	132	132	132	132	132	134	138	141	144	147	149	152	155	157	160	163	166	169	173	176	179	181	184	186	187	188	188	187	185	183	182	184	187	189	192	196	200	203	206	211	215	218	220	224	228	231	235	239	243	246	249	253	257	260	263	267	270	273	277	279	282	287	293	297	300	303	306	310	312	314	316	316	316	315	315	316	317	319	320	321	323	325	328	330	331	330	329	326	324	323	324	326	328	330	331	333	334	336	337	338	337	337	336	334	332	330	327	325	323	320	318	316	314	311	309	307	304	302	300	299	297	295	292	291	290	289	288	286	283	280	278	276	275	275	274	274	275	276	277	277	277	276	275	274	273	270	267	266	267	269	269	268	268	269	270	271	272	274	276	278	280	281	284	286	287	289	290	292	293	295	296	297	298	300	301	304	306	307	309	311	312	315	316	318	320	321	323	324	326	327	328	328	329	329	329	329	329	330	330	331	332	334	335	337	339	341	343	345	347	348	349	350	350	351	351	351	351	351	351	350	350	349	348	347	346	344	343	340	338	337	336	335	334	333	332	332	331	331	330	330	329	329	329	328	328	328	328	328	328	328	328	328	329	330	330	331	331	331	331	331	331	331	331	331	330	329	328	326	324	322	322	325	327	330	333	337	338	339	340	340	341	342	342	342	341	340	339	338	338	338	337	336	335	337	338	340	341	341	342	343	344	345	347	349	350	352	354	356	357	358	358	360	361	362	362	363	365	366	368	371	373	375	376	378	380	381	381	382	382	383	382	382	381	381	381	381	380	380	380	379	378	378	378	377	376	376	375	375	375	375	374	374	374	375	375	374	374	373	373	374	374	375	377	379	382	384	386	389	392	393	395	397	400	402	404	405	406	406	406	407	406	403	401	401	404	407	410	411	413	414	414	415	416	417	418	420	421	422	422	420	418	417	417	417	418	418	417	417	416	415	414	413	412	411	409	407	404	401	398	396	393	391	389	387	385	384	381
0	0	0	0	0	0	0	0	0	0	0	0	0	0	0	0	0	0	0	0	0	0	0	0	0	0	0	0	0	0	0	0	0	0	0	0	0	0	0	0	0	0	0	0	0	0	0	0	0	0	0	0	0	0	0	0	0	0	0	0	0	0	0	0	0	0	0	0	0	0	0	0	0	0	0	0	0	0	0	0	0	0	0	0	0	0	0	0	0	0	0	0	0	0	0	0	0	0	0	0	0	0	0	0	0	0	0	0	0	0	0	0	0	0	0	0	0	0	0	0	0	0	0	0	0	0	0	0	0	0	0	0	0	0	0	0	0	0	0	0	0	0	0	0	0	0	0	0	0	0	0	0	0	0	0	0	0	0	0	0	0	0	0	0	0	0	0	0	0	0	0	0	0	0	0	0	0	0	0	0	0	0	0	0	0	0	0	0	0	0	0	0	0	0	0	0	0	0	0	0	0	0	0	0	0	0	0	0	0	0	0	0	0	0	0	0	0	0	0	0	0	0	0	0	0	0	0	0	0	0	0	0	0	0	0	0	0	0	0	0	0	0	0	0	0	0	0	0	0	0	0	0	0	0	0	0	0	0	0	0	0	0	0	0	0	0	0	0	0	0	0	0	0	0	0	0	0	0	0	0	0	0	0	0	0	0	0	0	0	0	0	0	0	0	0	0	0	0	0	0	0	0	0	0	1	1	2	2	3	4	9	14	18	21	24	27	30	33	36	39	43	46	49	51	54	57	59	61	63	64	65	68	70	72	74	76	78	79	81	83	84	86	87	88	88	89	88	88	87	86	87	89	91	94	97	99	102	104	107	110	112	115	118	121	124	127	131	133	136	139	142	144	147	149	151	154	156	158	161	164	166	168	168	167	165	163	160	158	156	153	150	147	144	141	138	134	130	127	124	120	117	113	110	108	105	101	97	95	92	90	86	83	81	78	75	73	72	70	69	68	67	66	65	62	60	57	54	52	49	46	43	41	38	36	34	33	32	30	28	26	23	21	20	19	18	18	17	16	15	14	13	13	14	14	11	6	5	5	5	5	5	5	5	5	5	5	5	5	5	5	5	7	11	14	15	16	17	18	21	23	25	26	28	30	31	31	33	34	36	37	38	38	38	39	40	41	42	43	44	45	46	47	48	49	50	51	53	54	55	56	57	59	60	61	62	63	64	65	66	66	67	69	70	70	72	73	74	75	76	77	78	78	79	80	81	82	83	83	83	84	85	85	86	87	87	87	88	89	91	92	93	95	95	95	95	95	96	98	100	103	106	109	112	114	117	119	122	124	127	129	131	131	130	129	130	130	130	131	134	137	140	143	146	149	152	154	157	160	163	165	169	172	174	176	179	181	184	185	185	185	183	181	179	179	182	187	190	193	196	199	202	206	210	214	217	221	224	227	231	235	239	242	246	249	253	256	259	262	266	270	273	276	278	280	285	290	295	298	301	304	308	311	312	313	313	313	312	312	313	314	315	317	318	321	324	326	328	328	328	326	323	320	319	320	322	325	327	329	330	331	332	334	335	336	336	335	334	332	330	328	326	323	321	319	317	315	313	311	308	306	305	303	301	299	297	295	294	293	292	290	287	284	281	278	277	275	274	273	273	273	274	275	276	275	275	274	273	272	269	266	265	265	267	269	269	270	271	272	273	274	277	278	280	282	284	286	288	290	291	293	294	296	297	298	299	301	302	303	305	307	308	310	311	313	314	316	318	319	321	322	324	325	326	327	327	327	328	328	328	328	329	330	331	333	335	336	338	340	342	344	346	347	349	350	350	351	351	351	351	351	351	350	350	349	348	347	346	345	343	342	340	338	336	335	334	334	333	332	332	331	331	330	330	329	329	329	328	328	328	328	328	328	328	328	328	329	330	330	331	331	331	331	331	331	331	331	330	330	329	328	326	324	321	321	324	327	330	333	336	338	338	339	339	340	341	340	340	339	338	337	336	336	335	334	333	333	335	337	338	339	340	341	341	342	344	346	347	348	350	351	353	354	355	356	358	359	360	361	362	363	364	366	369	371	373	374	376	377	378	378	379	379	379	379	379	379	379	379	378	378	378	378	378	377	377	376	376	375	374	374	373	373	373	372	372	372	373	373	373	373	372	373	374	374	374	376	377	379	381	384	387	390	392	394	396	398	402	404	405	405	405	404	404	403	400	399	399	401	405	408	410	412	412	413	414	414	416	418	419	421	422	421	420	418	416	416	416	416	415	415	415	414	413	412	411	410	409	408	406	403	401	398	396	394	391	390	388	386	384	382
0	0	0	0	0	0	0	0	0	0	0	0	0	0	0	0	0	0	0	0	0	0	0	0	0	0	0	0	0	0	0	0	0	0	0	0	0	0	0	0	0	0	0	0	0	0	0	0	0	0	0	0	0	0	0	0	0	0	0	0	0	0	0	0	0	0	0	0	0	0	0	0	0	0	0	0	0	0	0	0	0	0	0	0	0	0	0	0	0	0	0	0	0	0	0	0	0	0	0	0	0	0	0	0	0	0	0	0	0	0	0	0	0	0	0	0	0	0	0	0	0	0	0	0	0	0	0	0	0	0	0	0	0	0	0	0	0	0	0	0	0	0	0	0	0	0	0	0	0	0	0	0	0	0	0	0	0	0	0	0	0	0	0	0	0	0	0	0	0	0	0	0	0	0	0	0	0	0	0	0	0	0	0	0	0	0	0	0	0	0	0	0	0	0	0	0	0	0	0	0	0	0	0	0	0	0	0	0	0	0	0	0	0	0	0	0	0	0	0	0	0	0	0	0	0	0	0	0	0	0	0	0	0	0	0	0	0	0	0	0	0	0	0	0	0	0	0	0	0	0	0	0	0	0	0	0	0	0	0	0	0	0	0	0	0	0	0	0	0	0	0	0	0	0	0	0	0	0	0	0	0	0	0	0	0	0	0	0	0	0	0	0	0	0	0	0	0	0	0	1	1	1	1	1	2	2	2	3	4	8	15	20	23	25	28	31	34	36	39	41	44	47	50	52	55	58	60	62	64	66	67	70	72	74	76	78	80	81	83	85	86	88	89	90	91	91	91	90	89	88	88	90	92	94	97	99	102	104	107	110	113	116	119	122	125	128	131	134	138	141	144	146	149	152	154	156	158	161	163	165	167	169	169	167	165	163	161	158	156	153	150	147	143	140	136	132	129	126	122	119	115	112	109	107	104	100	96	94	92	90	87	84	82	79	77	75	74	73	71	70	69	68	66	63	60	57	54	51	48	45	42	40	38	35	33	32	31	29	27	25	23	21	20	19	19	18	17	16	15	14	14	13	14	14	11	6	5	5	5	5	5	5	5	5	5	5	5	5	5	5	5	7	11	14	15	15	16	18	20	22	23	25	27	28	29	30	32	34	36	37	37	37	37	38	40	41	41	42	43	44	46	47	48	49	50	51	52	54	55	56	57	58	59	60	61	62	63	64	65	66	66	68	69	70	71	72	73	74	75	76	77	77	78	79	80	81	82	82	82	83	83	84	84	85	85	86	87	88	90	91	92	93	93	93	93	94	96	98	101	104	107	109	112	115	117	119	121	123	125	127	128	128	128	128	128	128	129	131	134	137	140	142	145	149	152	154	157	160	162	165	167	170	172	174	176	179	181	182	182	181	179	178	177	179	182	187	190	193	196	199	202	206	210	214	217	221	224	228	232	236	239	242	246	251	254	257	259	263	266	270	273	276	278	281	284	288	293	296	299	303	306	308	310	311	310	310	309	308	309	310	312	314	317	319	322	324	325	326	325	323	319	317	317	318	320	322	324	326	327	328	328	330	332	333	334	333	333	331	330	328	326	324	322	320	318	316	314	312	311	309	307	306	303	301	299	297	296	295	293	291	288	285	282	280	278	276	275	274	272	272	273	273	273	273	273	272	272	270	269	266	264	263	266	268	270	272	273	274	275	277	279	281	283	284	286	288	290	292	294	295	296	298	299	301	302	303	305	306	307	309	310	311	312	313	314	316	318	319	321	322	323	324	325	325	326	326	327	327	328	328	329	331	333	335	336	338	340	341	343	345	346	348	349	350	351	351	351	351	351	351	351	350	349	348	347	346	345	344	342	341	339	338	336	335	334	333	332	332	331	331	330	330	329	329	328	328	328	328	328	328	327	327	327	327	328	329	330	330	330	331	331	331	331	331	330	330	329	329	328	327	325	323	321	321	323	326	330	334	336	337	338	338	339	339	339	339	339	338	337	336	334	333	333	332	332	332	333	335	336	337	338	339	340	341	343	345	346	347	348	349	349	350	352	354	355	356	358	359	360	361	362	365	367	369	371	372	373	373	374	375	375	375	376	376	377	378	378	377	377	377	377	377	377	377	376	375	373	372	372	372	372	372	371	370	370	370	370	371	372	372	372	372	374	374	374	375	376	377	379	381	385	388	390	392	394	398	401	403	404	404	404	403	402	400	398	397	399	401	404	407	409	410	411	412	413	414	415	417	418	420	421	421	420	419	416	415	415	414	413	413	412	411	410	410	409	408	407	406	404	402	400	398	396	394	393	391	390	388	386	384
0	0	0	0	0	0	0	0	0	0	0	0	0	0	0	0	0	0	0	0	0	0	0	0	0	0	0	0	0	0	0	0	0	0	0	0	0	0	0	0	0	0	0	0	0	0	0	0	0	0	0	0	0	0	0	0	0	0	0	0	0	0	0	0	0	0	0	0	0	0	0	0	0	0	0	0	0	0	0	0	0	0	0	0	0	0	0	0	0	0	0	0	0	0	0	0	0	0	0	0	0	0	0	0	0	0	0	0	0	0	0	0	0	0	0	0	0	0	0	0	0	0	0	0	0	0	0	0	0	0	0	0	0	0	0	0	0	0	0	0	0	0	0	0	0	0	0	0	0	0	0	0	0	0	0	0	0	0	0	0	0	0	0	0	0	0	0	0	0	0	0	0	0	0	0	0	0	0	0	0	0	0	0	0	0	0	0	0	0	0	0	0	0	0	0	0	0	0	0	0	0	0	0	0	0	0	0	0	0	0	0	0	0	0	0	0	0	0	0	0	0	0	0	0	0	0	0	0	0	0	0	0	0	0	0	0	0	0	0	0	0	0	0	0	0	0	0	0	0	0	0	0	0	0	0	0	0	0	0	0	0	0	0	0	0	0	0	0	0	0	0	0	0	0	0	0	0	0	0	0	0	0	0	0	0	0	0	0	0	0	0	0	0	0	0	0	0	1	1	2	2	2	2	2	3	3	3	4	8	14	21	26	28	30	32	35	37	39	41	43	45	48	51	53	56	58	61	63	65	67	69	71	73	75	78	80	82	84	85	87	88	90	91	92	93	93	93	92	92	91	90	91	92	94	97	99	102	104	107	110	113	116	119	122	125	128	132	135	139	142	145	148	151	154	156	159	161	163	165	167	169	170	170	169	167	164	162	159	157	153	150	146	143	140	136	132	128	125	121	118	114	111	108	106	104	100	96	93	91	90	87	85	83	80	78	76	75	74	74	72	71	68	66	63	59	56	54	51	48	45	42	39	37	35	33	31	29	27	25	24	23	22	21	20	20	19	18	17	16	15	14	14	14	14	13	7	5	5	5	5	5	5	5	5	5	5	5	5	5	5	5	7	11	14	15	15	15	17	19	21	22	24	25	27	28	29	31	33	35	37	37	37	37	38	39	40	41	42	43	44	45	46	47	48	49	50	52	53	54	55	56	57	58	59	60	61	62	63	64	64	66	67	68	69	70	71	72	73	74	75	76	77	77	78	79	80	81	81	81	81	82	82	83	83	84	85	86	87	89	91	91	92	92	92	92	94	96	99	101	104	107	110	112	114	117	119	120	122	123	124	125	125	125	126	126	127	128	130	133	137	139	142	145	148	152	154	157	159	162	164	166	168	170	172	173	175	178	179	178	178	176	175	176	179	183	187	191	194	198	201	203	206	209	213	217	221	225	229	233	236	240	243	248	252	256	258	261	265	268	271	274	277	280	283	285	288	292	296	299	302	305	306	307	308	308	307	306	305	305	306	309	312	315	317	319	322	323	324	323	320	316	314	314	316	317	319	320	321	323	324	325	326	328	330	331	331	331	330	329	328	326	325	323	321	319	317	315	314	313	312	310	308	306	303	301	299	298	297	295	292	289	286	283	281	279	278	277	275	273	272	271	271	271	271	271	270	270	269	267	265	262	261	264	268	271	273	275	277	278	280	282	284	286	287	289	291	292	294	295	297	298	300	301	303	304	305	307	308	309	310	312	313	313	313	315	316	318	319	320	321	322	323	324	325	325	326	326	327	327	328	330	332	334	336	338	340	341	343	344	346	348	349	350	350	351	351	351	351	351	351	351	350	349	348	347	346	345	343	341	340	339	337	336	335	334	333	332	332	331	330	330	329	329	328	328	328	328	327	327	327	327	326	326	327	328	329	329	330	330	331	331	331	330	330	330	329	328	328	327	326	324	322	321	322	324	327	331	334	336	337	337	338	338	338	338	337	337	336	336	335	333	332	332	332	332	331	332	333	334	335	337	338	340	340	342	344	345	345	346	346	346	347	350	351	352	352	353	355	356	358	359	362	365	366	367	368	370	370	371	372	372	372	373	374	375	376	375	375	374	374	375	375	375	374	374	372	370	369	371	371	370	370	370	370	370	369	368	369	371	371	371	371	373	375	376	376	376	376	378	380	382	385	387	390	393	397	399	401	402	403	402	401	400	397	395	396	399	401	404	407	408	409	410	411	413	414	414	416	418	420	421	421	421	420	417	415	413	412	410	410	410	409	408	407	407	406	405	404	403	401	400	398	397	395	394	393	391	390	388	386
0	0	0	0	0	0	0	0	0	0	0	0	0	0	0	0	0	0	0	0	0	0	0	0	0	0	0	0	0	0	0	0	0	0	0	0	0	0	0	0	0	0	0	0	0	0	0	0	0	0	0	0	0	0	0	0	0	0	0	0	0	0	0	0	0	0	0	0	0	0	0	0	0	0	0	0	0	0	0	0	0	0	0	0	0	0	0	0	0	0	0	0	0	0	0	0	0	0	0	0	0	0	0	0	0	0	0	0	0	0	0	0	0	0	0	0	0	0	0	0	0	0	0	0	0	0	0	0	0	0	0	0	0	0	0	0	0	0	0	0	0	0	0	0	0	0	0	0	0	0	0	0	0	0	0	0	0	0	0	0	0	0	0	0	0	0	0	0	0	0	0	0	0	0	0	0	0	0	0	0	0	0	0	0	0	0	0	0	0	0	0	0	0	0	0	0	0	0	0	0	0	0	0	0	0	0	0	0	0	0	0	0	0	0	0	0	0	0	0	0	0	0	0	0	0	0	0	0	0	0	0	0	0	0	0	0	0	0	0	0	0	0	0	0	0	0	0	0	0	0	0	0	0	0	0	0	0	0	0	0	0	0	0	0	0	0	0	0	0	0	0	0	0	0	0	0	0	0	0	0	0	0	0	0	0	0	0	0	0	0	0	0	0	0	0	1	1	2	2	2	3	2	3	4	7	9	11	14	18	22	26	29	31	33	35	37	40	41	43	44	46	48	51	53	55	58	60	62	65	67	69	71	74	76	79	81	83	85	87	89	90	92	93	95	95	96	95	95	94	93	93	92	93	95	97	99	102	104	107	110	113	117	120	122	126	129	132	136	139	143	146	149	152	156	158	161	163	165	167	169	171	172	172	170	168	166	163	161	158	154	151	147	143	140	136	132	128	124	121	117	114	110	107	106	104	100	96	93	91	90	88	85	83	81	79	78	77	76	75	74	71	69	66	62	59	56	53	50	48	45	41	39	37	35	32	30	28	26	25	24	23	23	23	22	22	21	20	18	17	15	14	14	14	14	14	9	5	5	5	5	5	5	5	5	5	4	4	5	5	5	5	7	11	13	14	14	15	16	18	20	21	22	24	25	26	28	30	33	35	36	37	36	36	37	38	40	41	42	43	44	44	46	47	48	49	50	51	52	53	54	55	56	57	58	59	60	61	62	63	64	65	66	67	68	69	70	71	72	73	74	75	76	76	77	78	79	80	80	80	80	81	81	81	82	83	84	85	87	88	89	90	90	90	90	91	93	96	99	102	105	107	110	112	114	116	117	119	120	121	121	122	122	123	124	125	126	128	130	133	136	139	142	145	148	151	154	156	158	160	162	164	167	169	170	172	173	175	176	175	173	173	174	175	179	185	188	191	195	199	202	204	206	208	212	216	221	225	230	234	237	241	245	250	254	258	261	264	267	270	273	276	278	282	284	287	290	293	296	299	301	303	304	305	305	305	304	303	302	302	304	307	310	313	315	317	319	320	321	320	317	314	311	311	312	314	315	316	317	319	320	321	323	324	326	328	328	329	328	328	327	326	325	324	322	320	319	317	316	315	314	312	310	307	305	303	301	299	298	296	293	290	287	285	283	281	279	278	276	274	272	271	270	269	269	268	268	268	267	265	263	260	259	262	267	271	275	278	280	282	283	285	287	289	290	291	292	294	295	297	298	300	302	303	304	306	307	309	310	311	313	314	315	315	315	316	316	318	319	320	321	322	323	324	324	325	326	326	327	328	329	330	332	334	337	339	341	343	345	346	348	349	350	350	351	351	351	351	351	351	351	350	350	349	348	347	345	344	342	341	339	338	337	335	334	333	332	332	331	331	330	329	329	328	328	328	328	327	327	327	326	326	326	326	327	328	328	329	330	330	330	331	331	330	329	329	328	327	327	326	324	323	322	321	323	325	328	332	334	335	337	337	337	337	337	337	336	336	335	334	333	331	331	332	332	331	330	331	332	333	334	335	337	339	340	341	344	344	343	341	340	340	341	343	345	346	345	344	344	346	348	352	356	360	362	364	365	367	367	368	369	369	370	370	370	371	372	372	372	371	371	371	371	370	369	370	369	368	368	370	370	369	368	369	369	369	368	367	368	369	370	370	370	372	375	375	375	375	375	377	379	381	384	386	389	392	395	398	400	401	401	400	399	398	396	394	396	400	402	404	406	408	409	409	410	412	413	414	416	418	420	421	422	422	421	418	415	412	410	409	408	407	407	406	405	405	404	403	402	401	400	399	398	397	396	395	394	393	391	389	387
0	0	0	0	0	0	0	0	0	0	0	0	0	0	0	0	0	0	0	0	0	0	0	0	0	0	0	0	0	0	0	0	0	0	0	0	0	0	0	0	0	0	0	0	0	0	0	0	0	0	0	0	0	0	0	0	0	0	0	0	0	0	0	0	0	0	0	0	0	0	0	0	0	0	0	0	0	0	0	0	0	0	0	0	0	0	0	0	0	0	0	0	0	0	0	0	0	0	0	0	0	0	0	0	0	0	0	0	0	0	0	0	0	0	0	0	0	0	0	0	0	0	0	0	0	0	0	0	0	0	0	0	0	0	0	0	0	0	0	0	0	0	0	0	0	0	0	0	0	0	0	0	0	0	0	0	0	0	0	0	0	0	0	0	0	0	0	0	0	0	0	0	0	0	0	0	0	0	0	0	0	0	0	0	0	0	0	0	0	0	0	0	0	0	0	0	0	0	0	0	0	0	0	0	0	0	0	0	0	0	0	0	0	0	0	0	0	0	0	0	0	0	0	0	0	0	0	0	0	0	0	0	0	0	0	0	0	0	0	0	0	0	0	0	0	0	0	0	0	0	0	0	0	0	0	0	0	0	0	0	0	0	0	0	0	0	0	0	0	0	0	0	0	0	0	0	0	0	0	0	0	0	0	0	0	0	0	0	0	0	0	1	1	1	2	2	2	2	2	3	3	3	5	9	14	17	20	22	25	27	29	31	33	35	37	39	41	42	43	45	46	48	50	52	55	57	59	61	64	66	69	71	74	76	79	81	83	85	88	90	92	93	95	96	97	98	98	97	97	96	95	95	95	96	98	100	102	105	107	110	114	117	120	122	126	129	133	136	140	144	147	150	153	157	159	162	165	167	169	171	173	174	173	172	170	167	165	162	158	155	151	148	144	140	136	132	128	124	121	117	114	110	108	106	103	100	96	94	92	90	88	86	84	83	82	81	79	78	76	74	71	68	65	62	59	56	53	50	48	45	41	39	37	35	32	30	28	26	24	23	23	24	24	23	23	22	21	19	18	16	15	14	13	14	14	12	8	6	5	5	5	5	5	5	5	5	4	5	5	5	6	7	9	11	13	15	15	16	17	18	20	21	22	24	26	28	30	32	34	36	36	36	36	37	38	39	40	42	43	43	44	45	46	47	48	49	50	51	52	53	54	55	56	57	58	59	60	61	62	63	64	65	66	68	69	69	71	72	73	73	74	75	76	76	77	78	78	78	79	80	80	80	80	81	82	84	85	86	87	88	89	89	89	90	91	94	96	99	102	104	107	110	112	113	114	116	116	117	117	118	118	119	120	121	123	125	128	130	133	136	139	142	144	148	151	153	155	157	159	161	163	165	167	169	171	171	172	172	170	169	169	172	175	180	186	189	191	195	199	203	206	207	208	211	216	221	226	230	234	238	242	247	252	256	260	263	266	269	272	275	277	280	283	286	288	291	294	296	298	300	301	302	302	302	302	301	300	299	300	302	305	308	310	312	314	316	317	318	317	315	312	310	309	309	310	311	313	314	315	317	318	319	321	323	324	325	325	326	325	325	325	324	323	322	321	320	319	318	317	316	314	311	309	307	304	303	301	299	296	293	290	288	286	284	282	280	278	276	274	273	271	269	267	266	266	266	266	264	263	261	259	259	262	266	273	277	280	282	285	287	288	290	291	292	293	294	295	296	298	299	301	302	304	305	307	308	310	312	313	314	316	317	317	317	317	318	318	319	320	321	322	324	324	325	326	326	327	328	329	330	331	333	335	338	340	343	344	346	348	349	350	351	351	351	352	351	351	351	351	351	350	349	348	347	346	345	343	342	340	339	337	336	335	334	333	332	331	331	330	329	329	328	328	327	327	327	326	326	326	325	325	325	326	327	327	328	329	329	329	330	331	330	330	329	328	327	326	325	324	323	322	321	322	323	326	329	332	334	335	336	337	337	337	336	336	336	335	334	333	332	330	330	330	329	327	327	328	330	331	331	334	336	338	339	341	343	342	340	337	334	334	334	335	337	338	337	335	335	335	336	341	347	353	358	361	363	364	364	365	366	367	367	368	367	367	368	369	368	367	367	366	365	365	366	366	366	366	366	367	367	366	365	365	366	366	366	366	366	367	368	369	369	371	373	374	374	374	375	376	378	381	383	386	389	391	394	396	398	399	399	398	397	395	393	393	396	400	402	404	406	407	408	408	408	410	412	414	416	418	420	422	423	423	421	419	416	413	410	408	407	406	405	404	403	403	402	401	400	399	399	398	398	397	397	396	395	394	392	390	388
0	0	0	0	0	0	0	0	0	0	0	0	0	0	0	0	0	0	0	0	0	0	0	0	0	0	0	0	0	0	0	0	0	0	0	0	0	0	0	0	0	0	0	0	0	0	0	0	0	0	0	0	0	0	0	0	0	0	0	0	0	0	0	0	0	0	0	0	0	0	0	0	0	0	0	0	0	0	0	0	0	0	0	0	0	0	0	0	0	0	0	0	0	0	0	0	0	0	0	0	0	0	0	0	0	0	0	0	0	0	0	0	0	0	0	0	0	0	0	0	0	0	0	0	0	0	0	0	0	0	0	0	0	0	0	0	0	0	0	0	0	0	0	0	0	0	0	0	0	0	0	0	0	0	0	0	0	0	0	0	0	0	0	0	0	0	0	0	0	0	0	0	0	0	0	0	0	0	0	0	0	0	0	0	0	0	0	0	0	0	0	0	0	0	0	0	0	0	0	0	0	0	0	0	0	0	0	0	0	0	0	0	0	0	0	0	0	0	0	0	0	0	0	0	0	0	0	0	0	0	0	0	0	0	0	0	0	0	0	0	0	0	0	0	0	0	0	0	0	0	0	0	0	0	0	0	0	0	0	0	0	0	0	0	0	0	0	0	0	0	0	0	0	0	0	0	0	0	0	0	0	0	0	0	0	0	0	0	0	1	1	2	2	2	2	3	3	3	4	4	5	6	10	14	17	19	22	24	28	30	31	33	34	36	38	40	42	43	44	44	45	47	49	51	53	56	58	60	63	65	68	70	73	75	78	80	82	85	87	89	92	94	96	97	98	99	99	99	99	98	98	97	97	97	99	101	104	106	109	111	114	118	120	123	126	130	133	137	140	144	147	150	154	157	160	163	166	168	171	173	174	175	175	173	171	168	165	162	159	155	151	148	144	140	135	131	128	125	121	117	114	110	108	106	103	100	97	96	94	91	89	87	86	85	84	83	81	79	77	74	71	68	64	62	59	56	53	51	48	45	42	39	37	35	33	30	28	26	25	24	24	25	25	25	24	23	22	20	19	17	15	14	13	13	14	14	12	8	5	5	5	5	5	5	5	5	5	5	5	5	5	6	7	8	11	14	15	15	16	17	19	20	21	23	26	28	31	33	34	35	35	36	36	37	37	38	40	41	42	43	43	44	46	47	47	49	50	50	51	52	54	54	55	56	57	58	59	60	61	62	63	65	66	67	68	69	70	71	72	73	73	74	75	76	76	76	76	77	78	79	79	78	77	79	81	82	84	86	87	87	87	88	88	89	92	94	97	99	102	104	106	108	110	112	113	113	114	114	114	114	115	116	118	120	122	126	129	131	133	136	139	142	144	147	150	152	154	156	158	160	162	164	166	168	169	170	169	166	164	164	168	171	175	181	186	188	191	195	199	203	207	208	209	212	216	221	226	231	234	238	243	248	253	257	261	265	268	271	273	276	278	281	284	286	289	292	294	295	297	298	299	299	299	299	298	298	297	297	298	300	303	305	307	309	312	314	315	316	315	312	309	308	307	306	306	307	309	310	312	314	315	316	318	319	321	321	322	323	323	323	323	323	323	322	322	321	320	320	319	317	315	313	310	308	305	303	301	299	296	293	290	288	286	284	282	280	278	276	274	273	271	268	266	265	264	264	264	263	261	259	257	257	262	267	273	278	281	284	286	288	290	291	292	293	293	294	295	296	298	299	301	302	304	306	308	309	311	313	314	316	317	318	318	319	319	319	320	320	321	322	324	325	326	326	326	327	328	329	330	331	333	334	337	339	342	344	346	348	350	351	351	351	352	352	352	352	351	351	351	350	350	349	348	347	345	344	342	341	339	338	337	335	334	333	332	331	330	330	330	329	328	328	327	327	327	326	326	325	325	325	324	324	325	326	327	328	328	328	329	329	330	329	328	327	327	326	325	324	323	322	320	320	322	323	326	329	333	334	335	336	337	337	336	336	335	334	334	333	332	331	329	328	327	326	324	323	324	326	327	329	331	334	336	337	340	341	341	339	334	332	332	332	332	333	333	333	332	332	332	332	334	337	342	350	356	359	361	362	362	363	363	364	364	364	365	365	364	364	363	363	362	363	363	364	365	365	365	365	364	363	363	362	362	364	365	365	364	364	366	367	368	368	369	370	372	373	374	374	376	378	381	383	386	389	390	392	394	396	397	396	395	394	392	391	392	395	399	402	404	405	406	406	407	407	409	411	413	415	418	420	422	423	423	421	418	416	413	411	409	407	406	404	403	403	402	401	399	398	397	397	397	397	397	397	396	395	394	393	391	388
0	0	0	0	0	0	0	0	0	0	0	0	0	0	0	0	0	0	0	0	0	0	0	0	0	0	0	0	0	0	0	0	0	0	0	0	0	0	0	0	0	0	0	0	0	0	0	0	0	0	0	0	0	0	0	0	0	0	0	0	0	0	0	0	0	0	0	0	0	0	0	0	0	0	0	0	0	0	0	0	0	0	0	0	0	0	0	0	0	0	0	0	0	0	0	0	0	0	0	0	0	0	0	0	0	0	0	0	0	0	0	0	0	0	0	0	0	0	0	0	0	0	0	0	0	0	0	0	0	0	0	0	0	0	0	0	0	0	0	0	0	0	0	0	0	0	0	0	0	0	0	0	0	0	0	0	0	0	0	0	0	0	0	0	0	0	0	0	0	0	0	0	0	0	0	0	0	0	0	0	0	0	0	0	0	0	0	0	0	0	0	0	0	0	0	0	0	0	0	0	0	0	0	0	0	0	0	0	0	0	0	0	0	0	0	0	0	0	0	0	0	0	0	0	0	0	0	0	0	0	0	0	0	0	0	0	0	0	0	0	0	0	0	0	0	0	0	0	0	0	0	0	0	0	0	0	0	0	0	0	0	0	0	0	0	0	0	0	0	0	0	0	0	0	0	0	0	0	0	0	0	0	0	0	0	0	0	0	1	2	2	2	3	3	3	4	6	7	8	8	8	9	13	16	18	20	23	26	30	32	33	34	36	38	39	41	42	43	44	44	45	46	48	50	52	54	57	59	61	64	66	69	71	74	76	79	81	83	86	89	91	93	95	97	99	100	101	101	101	101	100	99	99	99	100	102	105	108	110	113	116	119	122	124	128	131	134	137	140	144	147	151	154	158	160	163	166	169	172	174	176	176	175	174	171	168	165	162	158	155	151	147	143	139	135	131	128	124	121	117	113	110	108	106	104	101	99	98	96	94	92	90	89	88	87	85	83	80	77	74	71	67	64	61	59	56	53	50	48	45	42	39	37	36	33	31	29	27	26	25	26	26	26	26	26	25	23	21	19	17	16	14	14	14	14	15	14	11	6	5	5	5	5	5	5	5	5	5	5	5	5	6	6	6	7	11	14	14	15	17	18	19	21	23	25	28	30	32	33	34	34	35	35	36	37	38	39	40	41	42	43	44	45	46	47	48	49	49	50	52	53	54	54	55	56	57	58	59	60	62	63	64	65	66	67	68	69	70	71	72	73	73	74	74	75	75	75	76	77	78	78	77	76	77	79	81	83	85	86	86	86	87	87	90	92	94	97	99	101	103	104	106	108	109	110	111	111	111	112	112	112	114	117	120	123	126	129	131	134	136	139	142	144	146	148	150	153	154	156	158	160	162	164	166	166	166	165	161	160	161	166	170	174	180	185	187	191	196	199	204	208	210	211	212	216	221	226	231	235	239	243	248	253	258	262	266	269	272	274	276	278	281	283	286	288	291	292	294	295	296	296	296	296	296	295	294	294	294	296	298	301	303	304	307	309	312	313	314	313	310	307	305	304	303	302	304	306	308	309	310	312	313	314	316	318	319	320	320	321	321	321	322	322	322	322	322	322	321	320	319	317	314	311	308	305	303	300	298	295	292	289	286	285	283	281	279	278	276	274	272	270	267	265	264	262	262	262	261	260	258	256	257	262	268	273	278	282	284	286	288	290	291	292	292	293	294	295	296	297	299	300	302	304	306	308	309	311	313	315	317	318	319	320	320	321	321	321	322	323	324	325	326	327	327	327	328	328	329	331	332	334	336	338	340	343	345	348	349	351	351	352	352	352	352	352	352	351	351	351	350	349	348	347	346	345	343	342	340	339	337	336	334	333	331	330	330	329	329	329	328	328	327	327	326	326	326	325	325	324	324	324	324	324	325	326	327	327	328	328	328	328	327	327	326	325	324	324	322	321	320	319	319	321	323	325	329	332	334	335	336	336	336	336	335	334	333	332	332	331	330	328	327	325	323	322	321	322	324	325	327	329	330	333	335	337	339	340	338	333	332	332	332	332	332	332	332	332	332	332	332	332	333	334	339	345	351	356	359	360	359	360	361	361	361	361	361	361	360	360	360	361	361	361	361	363	364	364	363	361	359	359	360	362	363	364	363	362	362	364	366	367	367	368	369	371	372	373	374	376	378	381	383	385	388	389	391	393	394	395	394	393	391	389	389	392	395	397	401	404	405	404	404	405	405	406	408	411	414	417	420	421	422	421	419	417	415	413	412	411	409	407	405	404	403	401	399	397	396	396	397	396	396	396	396	396	395	395	393	391	389
0	0	0	0	0	0	0	0	0	0	0	0	0	0	0	0	0	0	0	0	0	0	0	0	0	0	0	0	0	0	0	0	0	0	0	0	0	0	0	0	0	0	0	0	0	0	0	0	0	0	0	0	0	0	0	0	0	0	0	0	0	0	0	0	0	0	0	0	0	0	0	0	0	0	0	0	0	0	0	0	0	0	0	0	0	0	0	0	0	0	0	0	0	0	0	0	0	0	0	0	0	0	0	0	0	0	0	0	0	0	0	0	0	0	0	0	0	0	0	0	0	0	0	0	0	0	0	0	0	0	0	0	0	0	0	0	0	0	0	0	0	0	0	0	0	0	0	0	0	0	0	0	0	0	0	0	0	0	0	0	0	0	0	0	0	0	0	0	0	0	0	0	0	0	0	0	0	0	0	0	0	0	0	0	0	0	0	0	0	0	0	0	0	0	0	0	0	0	0	0	0	0	0	0	0	0	0	0	0	0	0	0	0	0	0	0	0	0	0	0	0	0	0	0	0	0	0	0	0	0	0	0	0	0	0	0	0	0	0	0	0	0	0	0	0	0	0	0	0	0	0	0	0	0	0	0	0	0	0	0	0	0	0	0	0	0	0	0	0	0	0	0	0	0	0	0	0	0	0	0	0	0	0	0	0	0	0	1	2	2	2	2	2	3	3	5	9	11	12	12	12	12	14	16	18	20	23	27	30	32	33	35	36	38	40	41	42	43	44	44	44	45	47	49	51	53	55	58	60	63	65	68	70	72	75	77	80	82	85	87	89	92	94	96	99	101	102	103	103	103	103	102	101	102	102	104	107	109	112	114	117	121	123	126	129	132	135	138	141	144	147	151	154	158	160	164	167	170	173	175	176	176	175	173	170	167	164	160	157	154	150	146	142	138	135	131	127	124	120	116	113	110	108	106	105	103	101	100	99	97	95	93	92	90	88	86	83	80	76	73	70	67	64	61	58	55	52	50	47	44	42	39	37	35	33	31	30	28	28	28	28	28	28	28	27	26	24	22	20	18	16	15	15	14	14	14	14	13	10	7	6	5	5	5	5	5	5	5	5	5	6	7	6	6	6	8	12	14	15	16	18	19	20	22	25	27	29	30	31	32	33	34	34	35	36	37	38	39	40	41	42	43	44	45	46	47	48	49	50	51	52	53	54	54	55	56	58	59	60	61	62	64	65	66	67	67	68	69	70	71	71	72	72	73	73	74	74	74	76	78	77	76	75	77	79	80	82	83	85	85	86	86	87	89	92	94	96	97	99	100	101	103	105	106	107	107	107	108	109	110	111	113	117	120	123	126	129	132	134	136	139	141	143	145	147	149	151	153	155	157	159	161	162	162	162	161	160	158	158	161	165	169	173	178	182	187	192	196	200	204	208	210	211	213	216	221	226	231	235	239	243	248	253	258	262	265	269	271	274	276	278	280	283	285	287	289	290	292	292	293	293	293	293	292	292	291	291	293	295	297	299	300	302	305	308	310	312	312	311	308	305	303	301	300	300	302	303	304	306	307	308	309	311	313	315	316	317	317	318	319	319	320	321	322	322	323	323	322	321	319	317	314	311	307	304	301	299	295	292	289	286	284	283	281	279	278	276	274	273	270	268	266	264	262	260	260	260	260	260	258	257	261	266	271	274	278	281	284	286	288	289	290	291	291	292	292	294	295	296	297	299	301	303	305	307	309	311	313	315	317	319	320	321	322	322	323	323	324	324	325	326	327	328	328	329	329	330	330	331	333	335	337	339	341	344	346	349	350	351	352	352	352	352	352	352	352	351	351	350	350	349	348	347	345	344	343	341	340	338	336	334	333	331	330	329	328	328	328	328	328	328	327	326	325	325	325	324	324	324	323	323	323	324	325	326	326	327	327	327	326	326	326	325	324	324	323	322	321	319	317	316	318	320	323	325	329	332	334	335	336	336	336	335	334	333	333	332	331	330	329	328	326	324	323	321	321	321	323	325	326	326	327	330	333	335	336	336	335	333	332	332	333	332	332	332	332	332	332	332	332	332	332	332	333	336	341	347	352	355	356	357	358	358	358	358	359	359	359	358	358	358	359	359	359	360	362	362	360	358	356	357	359	360	362	362	361	360	361	362	365	366	367	368	370	371	372	372	374	376	378	380	382	384	386	388	390	392	393	393	392	391	389	388	389	390	393	396	399	402	403	403	403	403	404	405	407	410	413	417	419	420	420	419	418	416	414	413	412	411	410	408	407	405	403	401	399	397	396	397	396	395	394	395	395	395	395	395	394	392	390
0	0	0	0	0	0	0	0	0	0	0	0	0	0	0	0	0	0	0	0	0	0	0	0	0	0	0	0	0	0	0	0	0	0	0	0	0	0	0	0	0	0	0	0	0	0	0	0	0	0	0	0	0	0	0	0	0	0	0	0	0	0	0	0	0	0	0	0	0	0	0	0	0	0	0	0	0	0	0	0	0	0	0	0	0	0	0	0	0	0	0	0	0	0	0	0	0	0	0	0	0	0	0	0	0	0	0	0	0	0	0	0	0	0	0	0	0	0	0	0	0	0	0	0	0	0	0	0	0	0	0	0	0	0	0	0	0	0	0	0	0	0	0	0	0	0	0	0	0	0	0	0	0	0	0	0	0	0	0	0	0	0	0	0	0	0	0	0	0	0	0	0	0	0	0	0	0	0	0	0	0	0	0	0	0	0	0	0	0	0	0	0	0	0	0	0	0	0	0	0	0	0	0	0	0	0	0	0	0	0	0	0	0	0	0	0	0	0	0	0	0	0	0	0	0	0	0	0	0	0	0	0	0	0	0	0	0	0	0	0	0	0	0	0	0	0	0	0	0	0	0	0	0	0	0	0	0	0	0	0	0	0	0	0	0	0	0	0	0	0	0	0	0	0	0	0	0	0	0	0	0	0	0	0	0	0	0	1	1	2	2	2	2	2	3	5	10	13	15	15	15	14	14	15	18	20	24	27	29	31	33	34	36	38	40	41	41	42	43	44	44	44	46	48	50	52	54	56	59	61	64	66	69	71	74	76	79	81	83	86	88	91	93	96	99	101	103	104	105	105	105	105	104	104	105	106	108	111	113	116	119	123	125	128	131	134	137	139	142	145	148	151	155	158	161	164	167	170	173	175	176	176	175	172	170	166	163	159	156	152	149	145	141	138	134	130	127	123	120	117	113	111	109	107	106	104	103	102	101	99	97	95	93	91	88	86	83	79	76	72	69	66	63	60	57	54	51	49	46	44	41	39	37	35	34	32	31	31	30	30	30	30	29	29	28	27	25	23	21	19	17	16	15	14	14	14	14	14	13	11	9	7	5	5	5	5	5	5	5	5	7	8	7	6	5	6	9	12	14	15	17	18	19	21	24	25	27	29	30	31	32	33	34	35	36	37	38	39	40	41	42	42	43	44	45	47	48	48	49	50	51	52	53	54	55	56	57	58	60	61	62	64	65	66	66	66	67	68	69	69	70	71	71	71	72	72	72	73	75	77	76	75	75	76	78	79	81	83	84	84	85	85	86	88	90	92	93	95	96	97	98	99	101	102	102	103	104	105	106	108	111	114	118	121	124	126	129	131	134	136	138	140	142	144	146	147	149	152	153	155	157	159	160	159	158	156	155	155	157	160	164	168	172	176	181	186	192	197	200	203	206	209	211	213	217	222	227	231	235	239	243	248	253	257	261	264	268	270	273	275	277	279	282	284	286	287	289	290	290	291	291	290	290	290	289	289	291	292	294	296	297	298	301	304	306	309	310	311	309	306	303	300	298	297	297	298	300	302	302	304	305	307	309	310	312	313	313	313	314	315	316	317	319	320	322	323	323	322	321	318	316	312	309	306	302	300	297	293	289	285	282	282	281	279	277	275	274	272	271	268	266	265	263	261	259	258	259	259	259	260	262	265	270	273	276	279	281	284	285	287	288	289	289	289	289	290	292	293	294	296	298	300	301	303	306	308	310	312	314	317	319	321	322	323	323	324	325	325	326	326	327	328	329	330	331	331	331	331	332	334	336	338	340	342	344	347	349	351	352	352	352	352	352	352	352	351	351	350	350	349	348	347	346	345	344	342	341	339	337	335	333	332	330	329	328	327	326	327	327	327	327	326	325	325	324	324	324	324	323	323	323	323	324	324	325	326	326	326	326	325	325	325	324	323	322	321	320	319	317	315	315	316	320	323	326	329	332	334	335	336	336	336	335	334	333	332	331	330	329	328	327	325	323	322	320	320	321	322	323	324	324	325	329	332	332	332	332	332	331	331	332	333	333	332	332	332	332	332	332	332	332	332	332	332	332	334	337	342	348	352	354	355	355	356	357	358	358	358	357	356	355	356	357	357	358	358	358	357	355	355	356	358	359	360	361	360	359	359	360	363	366	367	368	370	370	371	372	374	376	378	379	381	383	384	387	389	390	391	391	390	389	388	388	389	389	391	395	398	400	401	401	401	402	403	405	407	410	413	416	418	419	419	418	416	414	413	412	411	410	410	408	407	406	404	402	400	398	397	397	395	394	393	393	393	394	395	395	395	393	392
