111	112	113	113	113	112	111	110	109	108	108	107	106	105	103	101	100	98	94	91	90	91	90	89	86	84	81	79	75	72	68	64	60	57	54	51	48	49	52	54	57	59	59	59	59	58	56	53	49	49	50	52	53	49	46	44	43	42	42	42	40	38	37	35	34	33	33	33	33	32	29	26	26	25	24	23	23	22	21	20	19	19	18	15	10	8	9	16	12	5	4	4	3	2	1	0	0	0	0	0	0	0	0	0	0	0	0	0	0	0	0	0	0	0	0	0	0	0	0	0	0	0	0	0	0	0	0	0	0	0	0	0	0	0	0	0	0	0	0	0	0	0	0	0	0	0	0	0	0	0	0	0	0	0	0	0	0	0	0	0	0	0	0	0	0	0	0	0	0	0	0	0	0	0	0	0	0	0	0	0	0	0	0	0	0	0	0	0	0	0	0	0	0	0	0	0	0	0	0	0	0	0	0	0	0	0	0	0	0	0	0	0	0	0	0	0	0	0	0	0	0	0	0	0	0	0	0	0	0	0	0	0	0	0	0	0	0	0	0	0	0	0	0	0	0	0	0	0	0	0	0	0	0	0	0	0	0	0	0	0	0	0	0	0	0	0	0	0	0	0	0	0	0	0	0	0	0	0	0	0	0	0	0	0	0	0	0	0	0	0	0	0	0	0	0	0	0	0	0	0	0	0	0	0	0	0	0	0	0	0	0	0	0	0	0	0	0	0	0	0	0	0	0	0	0	0	0	0	0	0	0	0	0	0	0	0	0	0	0	0	0	0	0	0	0	0	0	0	0	0	0	0	0	0	0	0	0	0	0	0	0	0	0	0	0	0	0	0	0	0	0	0	0	0	0	0	0	0	0	0	0	0	0	0	0	0	0	0	0	0	0	0	0	0	0	0	0	0	0	0	0	0	0	0	0	0	0	0	0	0	0	0	0	0	0	0	0	0	0	0	0	0	0	0	0	0	0	0	0	0	0	0	0	0	0	0	0	0	0	0	0	0	0	0	0	0	0	0	0	0	0	0	0	0	0	0	0	0	0	0	0	0	0	0	0	0	0	0	0	0	0	0	0	0	0	0	0	0	0	0	0	0	0	0	0	0	0	0	0	0	0	0	0	0	0	0	0	0	0	0	0	0	0	0	0	0	0	0	0	0	0	0	0	0	0	0	0	1	1	1	1	1	1	2	2	2	2	2	2	2	2	2	2	2	2	3	8	14	19	24	27	28	29	31	33	35	37	39	41	42	43	44	43	43	42	41	41	39	38	36	35	34	33	31	30	28	27	25	24	24	25	25	24	24	23	22	22	21	21	21	21	20	19	19	19	18	17	17	18	19	20	21	22	23	24	24	25	24	24	25	26	27	26	26	28	31	32	33	33	34	34	34	33	34	35	35	34	33	31	30	30	32	35	36	35	36	38	39	40	41	42	42	43	43	44	44	44	45	46	47	48	49	49	49	49	49	49	51	53	55	57	57	57	59	60	61	63	65	65	65	66	67	68	68	68	69	70	72	74	76	77	79	80	81	82	83	83	84	85	86	86	87	87	88	88	89	92	95	97	100	102	104	106	109	113	116	118	121	123	125	127	129	132	135	137	140	142	144	146	148	150	152	155	157	159	161	162	164	165	165	167	168	169	169	169	169	168	167	165	163	161	160	158	157	155	155	154	153	152	151	150	149	148	147	145	144	143	143	144	146	147	146	145	145	145	146	147	148	149	150	149	148	147	146	145	145	143	142	139	137	136	135	135	135	134	134	134	135	135	133	133	135	136	136	135	135	135	137	139	141	143	144	145	147	148	149	149	150	150	148	146	144	143	141	141	140	138	138	137	136	135	133	132	131	130	128	126	124	121	118	115	112	110	106	103	100	97	94	92	89	86	84	82	80	79	78	76	75	75	75	74	71	69	68	66	65	64	62	59	57	56	55	53	51	49	48	48	48	49	49	49	48	47	47	48	48	49	50	51	51	52	53	55	57	58	57	57	59	66	70	72	75	74	73	74	77	81	84	87	89	91	92	94	95	97	98	98	97	96	96	96	95	95	95	94	95	95	95	95	95	95	95	95	94	93	93	93	92	92	91	90	89	89	88	88	87	87	86	85	85	86	86	86	86	86	85	86	86	85	85	85	85	85	85	84	82	81	79	77	76	75	73	72	71	70	68	67	65	64	62	61	60	59	58	56	55	54	52	51	50	48	47	47	47	46	45	45	45	44	43	42	41	40	39	38	38	37	37	36	36	36	36	35	35	35	36	36	37	40	44
107	109	110	110	109	109	108	108	107	106	106	105	104	102	101	99	97	94	91	90	90	90	88	86	84	81	79	76	73	69	65	62	59	56	53	51	49	52	55	56	58	59	60	60	59	58	57	53	49	48	50	50	48	46	44	44	43	42	41	40	38	36	34	32	30	29	29	29	28	27	26	25	23	23	23	22	22	22	20	19	19	19	19	17	11	9	11	15	13	7	5	4	3	3	2	1	0	0	0	0	0	0	0	0	0	0	0	0	0	0	0	0	0	0	0	0	0	0	0	0	0	0	0	0	0	0	0	0	0	0	0	0	0	0	0	0	0	0	0	0	0	0	0	0	0	0	0	0	0	0	0	0	0	0	0	0	0	0	0	0	0	0	0	0	0	0	0	0	0	0	0	0	0	0	0	0	0	0	0	0	0	0	0	0	0	0	0	0	0	0	0	0	0	0	0	0	0	0	0	0	0	0	0	0	0	0	0	0	0	0	0	0	0	0	0	0	0	0	0	0	0	0	0	0	0	0	0	0	0	0	0	0	0	0	0	0	0	0	0	0	0	0	0	0	0	0	0	0	0	0	0	0	0	0	0	0	0	0	0	0	0	0	0	0	0	0	0	0	0	0	0	0	0	0	0	0	0	0	0	0	0	0	0	0	0	0	0	0	0	0	0	0	0	0	0	0	0	0	0	0	0	0	0	0	0	0	0	0	0	0	0	0	0	0	0	0	0	0	0	0	0	0	0	0	0	0	0	0	0	0	0	0	0	0	0	0	0	0	0	0	0	0	0	0	0	0	0	0	0	0	0	0	0	0	0	0	0	0	0	0	0	0	0	0	0	0	0	0	0	0	0	0	0	0	0	0	0	0	0	0	0	0	0	0	0	0	0	0	0	0	0	0	0	0	0	0	0	0	0	0	0	0	0	0	0	0	0	0	0	0	0	0	0	0	0	0	0	0	0	0	0	0	0	0	0	0	0	0	0	0	0	0	0	0	0	0	0	0	0	0	0	0	0	0	0	0	0	0	0	0	0	0	0	0	0	0	0	0	0	0	0	0	0	0	0	0	0	0	0	0	0	0	0	0	0	0	0	0	0	0	0	0	0	0	0	0	0	0	0	0	0	0	0	0	0	0	0	0	0	0	0	0	0	0	0	0	0	0	0	0	0	0	0	0	0	0	0	1	2	2	2	2	2	2	2	3	3	3	2	2	2	3	3	3	3	5	11	16	20	24	27	29	30	32	34	36	38	40	42	44	44	45	45	45	44	43	43	42	40	39	37	36	35	34	32	30	28	27	26	26	27	26	26	25	24	24	23	23	22	22	21	20	20	20	20	19	18	17	17	18	19	21	22	23	24	25	25	25	25	26	27	27	25	25	28	30	31	32	32	33	34	34	33	34	35	35	34	33	32	31	31	33	36	37	37	37	38	39	40	41	42	43	43	44	44	45	45	46	47	48	49	50	49	49	50	51	51	51	53	56	57	58	59	60	61	63	65	66	66	66	67	68	68	69	69	71	72	75	76	77	79	80	81	82	83	84	85	85	86	86	87	87	87	88	88	90	92	95	97	100	102	103	106	110	114	117	119	121	123	125	127	130	133	135	137	139	141	144	146	149	151	153	155	158	160	162	163	165	166	167	168	169	170	170	171	171	170	168	166	163	161	160	159	157	156	155	154	153	152	151	150	149	148	147	146	146	146	146	146	146	147	147	147	146	146	147	148	149	150	150	150	148	147	146	145	144	143	141	140	138	136	135	134	134	134	134	134	135	135	133	132	133	133	133	133	134	135	137	140	141	142	144	146	147	149	149	149	150	150	150	148	146	144	144	144	143	142	141	140	138	136	134	133	131	130	129	127	125	122	119	116	113	111	108	105	102	98	96	94	91	87	85	83	81	79	78	76	75	75	75	74	72	69	68	66	65	63	60	58	57	56	55	54	52	51	50	49	49	49	49	48	48	47	48	49	50	50	50	51	52	53	54	56	58	58	58	57	62	69	71	74	76	74	73	75	78	82	85	88	89	91	93	94	96	97	98	98	97	97	96	95	95	94	94	94	94	94	94	94	94	94	94	94	94	93	93	93	93	92	91	90	90	89	88	88	87	86	85	85	85	85	85	85	85	84	84	84	84	83	83	83	83	83	83	82	81	80	78	77	76	74	73	72	71	70	69	68	66	64	63	61	60	59	58	57	56	55	53	52	50	49	48	47	46	46	45	44	44	44	43	42	41	40	39	38	38	37	36	36	36	35	35	34	35	36	36	36	38	41	44
104	105	106	105	104	105	105	105	104	104	103	103	102	101	99	96	93	90	89	89	89	88	86	83	81	79	76	74	71	67	63	60	57	54	53	52	53	56	58	58	59	60	60	59	58	57	54	52	49	48	48	46	44	43	43	43	41	41	40	38	36	34	31	30	28	27	26	25	25	26	26	24	22	21	21	21	22	22	20	19	19	19	18	17	14	12	12	13	12	8	5	4	4	4	2	1	0	0	0	0	0	0	0	0	0	0	0	0	0	0	0	0	0	0	0	0	0	0	0	0	0	0	0	0	0	0	0	0	0	0	0	0	0	0	0	0	0	0	0	0	0	0	0	0	0	0	0	0	0	0	0	0	0	0	0	0	0	0	0	0	0	0	0	0	0	0	0	0	0	0	0	0	0	0	0	0	0	0	0	0	0	0	0	0	0	0	0	0	0	0	0	0	0	0	0	0	0	0	0	0	0	0	0	0	0	0	0	0	0	0	0	0	0	0	0	0	0	0	0	0	0	0	0	0	0	0	0	0	0	0	0	0	0	0	0	0	0	0	0	0	0	0	0	0	0	0	0	0	0	0	0	0	0	0	0	0	0	0	0	0	0	0	0	0	0	0	0	0	0	0	0	0	0	0	0	0	0	0	0	0	0	0	0	0	0	0	0	0	0	0	0	0	0	0	0	0	0	0	0	0	0	0	0	0	0	0	0	0	0	0	0	0	0	0	0	0	0	0	0	0	0	0	0	0	0	0	0	0	0	0	0	0	0	0	0	0	0	0	0	0	0	0	0	0	0	0	0	0	0	0	0	0	0	0	0	0	0	0	0	0	0	0	0	0	0	0	0	0	0	0	0	0	0	0	0	0	0	0	0	0	0	0	0	0	0	0	0	0	0	0	0	0	0	0	0	0	0	0	0	0	0	0	0	0	0	0	0	0	0	0	0	0	0	0	0	0	0	0	0	0	0	0	0	0	0	0	0	0	0	0	0	0	0	0	0	0	0	0	0	0	0	0	0	0	0	0	0	0	0	0	0	0	0	0	0	0	0	0	0	0	0	0	0	0	0	0	0	0	0	0	0	0	0	0	0	0	0	0	0	0	0	0	0	0	0	0	0	0	0	0	0	0	0	0	0	0	0	0	0	0	0	0	0	0	0	0	0	0	0	0	0	0	0	0	0	0	0	1	2	3	3	2	2	2	3	5	6	5	4	3	3	3	4	5	6	10	15	19	22	25	28	30	31	33	35	37	39	42	44	45	46	46	47	47	47	46	45	44	43	41	40	39	38	36	35	32	30	28	28	28	29	28	27	27	26	25	25	25	24	23	22	21	21	20	20	20	20	18	17	17	19	21	22	23	24	25	25	25	26	26	26	26	26	27	28	30	30	30	31	32	33	33	33	33	34	35	35	35	34	34	34	35	36	38	38	38	39	40	40	41	42	43	43	43	44	45	46	47	48	50	51	51	50	49	50	52	53	53	54	56	57	58	60	61	63	65	67	68	67	67	67	68	69	70	71	72	74	77	78	79	80	81	81	83	84	86	86	87	87	87	88	87	87	88	90	91	92	93	96	99	101	103	107	111	116	118	120	121	123	125	128	130	133	135	137	139	141	144	147	149	151	154	156	159	161	163	165	166	167	168	169	170	171	172	173	173	172	169	166	164	162	161	159	158	156	154	153	153	152	151	151	150	149	147	148	149	149	149	148	148	147	147	148	148	147	148	148	149	150	151	150	149	147	145	144	143	141	140	139	138	136	134	133	133	133	133	134	134	134	133	133	133	132	132	132	133	134	137	139	141	142	144	146	148	149	149	150	150	151	151	150	148	146	146	146	145	145	143	142	140	138	135	133	132	130	129	128	125	123	120	117	114	112	109	106	102	99	97	95	92	89	86	84	81	79	77	75	74	74	74	73	71	69	68	66	65	62	60	58	56	56	56	55	54	53	52	51	50	50	50	49	48	48	49	50	51	51	50	51	52	54	55	57	59	59	58	57	64	70	72	74	74	73	74	76	79	82	86	88	89	91	93	95	96	97	98	97	97	96	96	95	94	93	93	93	93	93	93	93	93	93	93	94	93	93	93	93	93	92	91	91	90	89	88	88	86	85	85	84	84	84	85	85	84	83	83	83	82	82	82	82	82	82	82	81	80	79	78	76	75	74	73	72	71	70	69	68	67	65	64	62	61	59	59	58	57	56	54	53	51	49	48	47	46	45	44	43	43	43	42	42	41	40	39	38	37	36	36	36	35	35	34	33	35	36	36	37	40	42	45
99	100	100	100	100	100	101	101	102	102	101	100	98	96	94	91	89	88	88	88	87	85	83	80	79	76	74	72	69	65	61	59	56	53	52	52	55	58	59	58	56	57	57	57	57	55	52	50	49	48	47	45	43	43	42	41	40	39	38	37	36	34	31	29	28	27	27	25	25	26	26	24	22	21	21	21	23	23	22	20	19	18	17	17	17	15	14	12	11	8	5	4	4	3	2	2	1	0	0	0	0	0	0	0	0	0	0	0	0	0	0	0	0	0	0	0	0	0	0	0	0	0	0	0	0	0	0	0	0	0	0	0	0	0	0	0	0	0	0	0	0	0	0	0	0	0	0	0	0	0	0	0	0	0	0	0	0	0	0	0	0	0	0	0	0	0	0	0	0	0	0	0	0	0	0	0	0	0	0	0	0	0	0	0	0	0	0	0	0	0	0	0	0	0	0	0	0	0	0	0	0	0	0	0	0	0	0	0	0	0	0	0	0	0	0	0	0	0	0	0	0	0	0	0	0	0	0	0	0	0	0	0	0	0	0	0	0	0	0	0	0	0	0	0	0	0	0	0	0	0	0	0	0	0	0	0	0	0	0	0	0	0	0	0	0	0	0	0	0	0	0	0	0	0	0	0	0	0	0	0	0	0	0	0	0	0	0	0	0	0	0	0	0	0	0	0	0	0	0	0	0	0	0	0	0	0	0	0	0	0	0	0	0	0	0	0	0	0	0	0	0	0	0	0	0	0	0	0	0	0	0	0	0	0	0	0	0	0	0	0	0	0	0	0	0	0	0	0	0	0	0	0	0	0	0	0	0	0	0	0	0	0	0	0	0	0	0	0	0	0	0	0	0	0	0	0	0	0	0	0	0	0	0	0	0	0	0	0	0	0	0	0	0	0	0	0	0	0	0	0	0	0	0	0	0	0	0	0	0	0	0	0	0	0	0	0	0	0	0	0	0	0	0	0	0	0	0	0	0	0	0	0	0	0	0	0	0	0	0	0	0	0	0	0	0	0	0	0	0	0	0	0	0	0	0	0	0	0	0	0	0	0	0	0	0	0	0	0	0	0	0	0	0	0	0	0	0	0	0	0	0	0	0	0	0	0	0	0	0	0	0	0	0	0	0	0	0	0	0	0	0	0	0	0	0	0	0	0	0	0	0	0	0	0	0	0	0	2	3	4	4	4	4	5	8	13	14	14	14	9	6	6	8	10	12	17	21	23	25	27	29	31	33	34	36	38	40	43	45	46	47	48	49	50	50	49	48	47	45	44	42	41	40	39	37	34	31	30	30	31	30	29	28	28	28	27	26	26	26	25	24	22	21	21	21	21	21	19	18	18	19	21	22	23	24	25	25	25	26	26	25	25	27	28	29	29	30	30	31	32	33	32	32	33	34	35	35	36	35	35	35	35	36	37	37	37	38	39	40	41	42	43	44	44	44	45	46	47	49	50	51	51	51	51	51	53	54	55	55	56	57	58	60	62	64	66	68	68	68	68	68	69	70	71	72	72	74	77	79	79	80	80	81	82	84	86	87	87	88	88	88	88	88	89	91	91	92	93	95	99	102	106	110	113	116	118	120	122	124	126	129	131	133	135	137	139	142	145	148	150	153	155	157	160	163	165	167	168	169	170	171	171	172	173	174	174	172	170	168	165	163	161	160	158	156	154	153	152	152	151	151	151	149	148	148	150	151	151	150	149	148	148	148	149	148	149	149	149	149	150	149	148	147	145	143	141	139	138	138	137	135	134	132	132	133	133	133	133	133	133	133	134	133	132	131	132	134	137	139	141	142	144	146	147	149	150	151	151	151	152	151	149	148	148	148	147	146	145	143	141	139	136	134	132	131	129	127	125	123	121	118	115	113	110	107	103	100	98	96	93	90	87	84	81	78	76	73	72	71	71	71	70	69	67	66	64	62	60	58	56	56	56	56	56	54	53	52	51	51	51	51	51	51	51	51	52	52	52	52	53	54	57	58	59	59	57	59	66	69	71	71	72	72	74	76	79	82	86	88	89	91	93	95	96	96	96	96	96	95	95	93	92	92	91	91	92	92	93	93	93	93	93	93	93	93	93	93	93	92	91	90	90	89	88	87	86	85	84	84	83	83	83	83	82	81	81	81	80	80	80	81	81	81	81	80	80	79	77	76	75	74	73	72	71	70	69	68	67	66	64	62	61	59	59	58	57	56	55	53	52	50	48	47	46	45	44	43	43	42	41	41	41	40	39	37	37	36	36	36	35	34	33	33	34	35	36	38	40	42	44
94	94	94	95	96	97	97	98	99	99	98	97	93	90	88	88	87	87	87	86	84	82	80	78	76	74	72	70	67	64	60	57	54	52	52	54	58	59	59	56	54	55	55	57	58	56	52	51	52	51	49	46	45	44	43	42	41	40	40	39	38	35	32	31	31	31	30	29	28	27	27	26	24	24	25	26	27	27	26	24	21	20	19	19	19	18	16	14	13	9	5	4	4	3	3	3	2	1	0	0	0	0	0	0	0	0	0	0	0	0	0	0	0	0	0	0	0	0	0	0	0	0	0	0	0	0	0	0	0	0	0	0	0	0	0	0	0	0	0	0	0	0	0	0	0	0	0	0	0	0	0	0	0	0	0	0	0	0	0	0	0	0	0	0	0	0	0	0	0	0	0	0	0	0	0	0	0	0	0	0	0	0	0	0	0	0	0	0	0	0	0	0	0	0	0	0	0	0	0	0	0	0	0	0	0	0	0	0	0	0	0	0	0	0	0	0	0	0	0	0	0	0	0	0	0	0	0	0	0	0	0	0	0	0	0	0	0	0	0	0	0	0	0	0	0	0	0	0	0	0	0	0	0	0	0	0	0	0	0	0	0	0	0	0	0	0	0	0	0	0	0	0	0	0	0	0	0	0	0	0	0	0	0	0	0	0	0	0	0	0	0	0	0	0	0	0	0	0	0	0	0	0	0	0	0	0	0	0	0	0	0	0	0	0	0	0	0	0	0	0	0	0	0	0	0	0	0	0	0	0	0	0	0	0	0	0	0	0	0	0	0	0	0	0	0	0	0	0	0	0	0	0	0	0	0	0	0	0	0	0	0	0	0	0	0	0	0	0	0	0	0	0	0	0	0	0	0	0	0	0	0	0	0	0	0	0	0	0	0	0	0	0	0	0	0	0	0	0	0	0	0	0	0	0	0	0	0	0	0	0	0	0	0	0	0	0	0	0	0	0	0	0	0	0	0	0	0	0	0	0	0	0	0	0	0	0	0	0	0	0	0	0	0	0	0	0	0	0	0	0	0	0	0	0	0	0	0	0	0	0	0	0	0	0	0	0	0	0	0	0	0	0	0	0	0	0	0	0	0	0	0	0	0	0	0	0	0	0	0	0	0	0	0	0	0	0	0	0	0	0	0	0	0	0	0	0	0	0	0	0	0	0	0	0	0	0	1	2	3	7	11	12	12	14	18	21	21	23	25	23	20	18	19	19	20	22	25	27	28	29	31	33	35	36	38	40	42	44	46	48	49	50	51	52	53	52	51	50	48	47	45	44	43	41	39	35	33	32	32	33	32	31	30	29	29	28	28	28	27	26	25	24	22	22	21	21	21	20	19	19	20	21	22	23	24	25	25	25	26	26	25	25	27	29	29	29	30	31	33	33	33	32	34	35	35	35	35	36	35	35	36	36	36	36	36	37	38	39	40	41	42	43	44	44	45	46	46	47	48	49	50	51	52	52	53	54	55	56	56	57	58	59	60	63	65	67	68	69	69	69	70	70	71	71	72	72	74	76	79	79	80	81	81	82	84	86	88	89	89	90	89	89	90	91	91	92	92	94	97	101	105	110	113	115	117	119	120	122	124	127	130	132	133	135	137	140	143	146	149	152	154	156	158	161	164	166	169	170	172	172	172	172	173	174	174	174	173	171	168	166	164	162	160	158	156	155	154	153	152	151	151	150	149	148	149	150	151	150	150	149	148	148	149	149	149	149	149	148	148	148	148	147	146	144	142	141	140	139	137	136	134	134	132	132	132	133	133	132	131	131	132	134	133	132	132	133	135	137	139	141	142	144	146	148	150	151	152	152	152	152	151	151	150	150	149	149	148	146	144	142	140	138	136	133	131	129	127	125	123	121	118	116	113	111	107	104	101	98	96	94	91	89	85	80	77	74	72	70	69	69	68	68	68	67	65	63	62	60	58	57	57	57	57	56	55	54	54	52	52	53	54	55	55	54	53	53	54	54	54	54	55	57	59	60	59	58	62	67	67	68	69	70	72	74	76	79	82	85	87	89	90	92	93	95	95	95	94	94	94	93	92	91	90	90	90	91	91	92	92	92	92	92	92	93	93	93	94	93	92	91	90	89	88	88	87	86	84	84	83	82	81	81	81	80	80	80	79	79	78	79	79	80	80	80	80	79	78	76	75	74	75	74	73	71	70	69	68	67	66	64	63	61	59	58	58	57	56	55	53	52	50	48	47	46	45	44	43	42	41	41	41	41	40	38	37	36	36	36	35	34	33	32	32	33	34	35	37	40	41	43
92	91	92	93	94	94	95	95	95	94	92	92	91	88	88	88	88	87	85	83	81	79	77	75	74	71	69	67	65	61	57	54	53	53	55	57	58	58	57	55	54	55	55	59	60	59	56	56	57	56	54	52	47	45	43	42	42	42	42	41	39	36	35	35	35	35	35	34	32	30	29	28	28	28	30	31	31	30	29	27	25	23	22	22	20	18	17	16	14	10	5	4	4	3	3	3	3	2	0	0	0	0	0	0	0	0	0	0	0	0	0	0	0	0	0	0	0	0	0	0	0	0	0	0	0	0	0	0	0	0	0	0	0	0	0	0	0	0	0	0	0	0	0	0	0	0	0	0	0	0	0	0	0	0	0	0	0	0	0	0	0	0	0	0	0	0	0	0	0	0	0	0	0	0	0	0	0	0	0	0	0	0	0	0	0	0	0	0	0	0	0	0	0	0	0	0	0	0	0	0	0	0	0	0	0	0	0	0	0	0	0	0	0	0	0	0	0	0	0	0	0	0	0	0	0	0	0	0	0	0	0	0	0	0	0	0	0	0	0	0	0	0	0	0	0	0	0	0	0	0	0	0	0	0	0	0	0	0	0	0	0	0	0	0	0	0	0	0	0	0	0	0	0	0	0	0	0	0	0	0	0	0	0	0	0	0	0	0	0	0	0	0	0	0	0	0	0	0	0	0	0	0	0	0	0	0	0	0	0	0	0	0	0	0	0	0	0	0	0	0	0	0	0	0	0	0	0	0	0	0	0	0	0	0	0	0	0	0	0	0	0	0	0	0	0	0	0	0	0	0	0	0	0	0	0	0	0	0	0	0	0	0	0	0	0	0	0	0	0	0	0	0	0	0	0	0	0	0	0	0	0	0	0	0	0	0	0	0	0	0	0	0	0	0	0	0	0	0	0	0	0	0	0	0	0	0	0	0	0	0	0	0	0	0	0	0	0	0	0	0	0	0	0	0	0	0	0	0	0	0	0	0	0	0	0	0	0	0	0	0	0	0	0	0	0	0	0	0	0	0	0	0	0	0	0	0	0	0	0	0	0	0	0	0	0	0	0	0	0	0	0	0	0	0	0	0	0	0	0	0	0	0	0	0	0	0	0	0	0	0	0	0	0	0	0	0	0	0	0	0	0	0	0	0	0	0	0	0	0	0	0	0	0	0	0	0	1	2	5	13	18	20	21	23	25	26	27	28	30	31	31	30	29	29	29	29	30	30	31	32	34	35	37	39	41	43	44	45	47	49	51	52	54	55	55	55	54	53	51	49	47	46	44	42	39	37	35	35	35	35	34	33	32	31	31	30	30	29	28	27	26	25	23	22	22	22	22	21	20	20	20	22	22	24	24	25	25	26	26	27	26	27	28	29	29	29	30	32	33	34	33	33	36	37	36	35	35	35	35	35	36	37	36	36	36	37	38	40	41	43	43	44	44	45	46	47	46	46	47	49	50	52	53	54	55	56	57	58	59	59	59	60	61	63	65	67	69	69	70	70	71	71	71	72	73	73	74	76	78	79	80	81	82	83	84	87	89	90	91	92	92	91	91	92	92	92	93	95	98	102	108	112	114	115	118	120	121	123	125	128	130	132	134	135	138	141	143	146	150	153	155	157	159	162	165	167	170	173	174	174	174	173	174	174	174	174	173	171	169	166	164	162	160	158	157	155	154	153	152	151	150	149	148	148	149	150	150	149	148	148	148	148	149	149	149	149	148	147	147	146	146	145	144	142	141	140	140	139	137	135	134	134	132	131	131	133	133	132	129	129	131	133	133	133	133	134	136	138	140	141	142	144	147	149	151	152	153	153	153	152	152	151	151	151	150	149	148	147	145	143	141	139	137	134	132	129	128	126	123	121	119	116	113	111	108	105	102	98	96	93	91	88	85	79	75	72	70	69	68	67	67	66	66	66	64	63	62	61	59	58	58	59	58	56	54	55	55	54	53	54	55	56	57	55	54	54	54	55	55	55	56	57	59	61	59	59	64	66	65	66	68	70	72	74	76	78	81	83	86	88	89	90	91	92	93	93	92	92	92	91	91	90	89	89	89	90	90	90	91	91	91	91	92	93	93	94	94	93	92	91	90	89	88	87	86	85	84	83	82	80	79	78	78	78	78	78	78	78	77	77	77	78	79	79	79	78	76	75	74	74	75	75	73	71	70	69	68	67	65	64	62	60	59	58	57	57	56	54	53	52	50	48	47	46	45	44	42	41	41	41	41	41	40	38	36	35	36	36	35	33	33	33	33	33	34	35	38	40	41	42
91	89	91	92	93	93	93	94	93	91	89	91	91	90	89	88	87	85	82	80	78	76	74	73	71	69	66	64	62	59	56	54	54	56	58	58	58	57	56	55	55	55	58	61	62	62	61	60	59	57	56	54	48	45	44	43	43	43	43	41	39	38	38	38	38	38	38	37	36	35	32	30	28	29	32	33	33	32	31	30	29	27	25	24	21	18	16	15	13	9	5	4	4	4	4	3	3	2	1	0	0	0	0	0	0	0	1	1	1	1	1	1	1	1	0	0	0	0	0	0	0	0	0	0	0	0	0	0	0	0	0	0	0	0	0	0	0	0	0	0	0	0	0	0	0	0	0	0	0	0	0	0	0	0	0	0	0	0	0	0	0	0	0	0	0	0	0	0	0	0	0	0	0	0	0	0	0	0	0	0	0	0	0	0	0	0	0	0	0	0	0	0	0	0	0	0	0	0	0	0	0	0	0	0	0	0	0	0	0	0	0	0	0	0	0	0	0	0	0	0	0	0	0	0	0	0	0	0	0	0	0	0	0	0	0	0	0	0	0	0	0	0	0	0	0	0	0	0	0	0	0	0	0	0	0	0	0	0	0	0	0	0	0	0	0	0	0	0	0	0	0	0	0	0	0	0	0	0	0	0	0	0	0	0	0	0	0	0	0	0	0	0	0	0	0	0	0	0	0	0	0	0	0	0	0	0	0	0	0	0	0	0	0	0	0	0	0	0	0	0	0	0	0	0	0	0	0	0	0	0	0	0	0	0	0	0	0	0	0	0	0	0	0	0	0	0	0	0	0	0	0	0	0	0	0	0	0	0	0	0	0	0	0	0	0	0	0	0	0	0	0	0	0	0	0	0	0	0	0	0	0	0	0	0	0	0	0	0	0	0	0	0	0	0	0	0	0	0	0	0	0	0	0	0	0	0	0	0	0	0	0	0	0	0	0	0	0	0	0	0	0	0	0	0	0	0	0	0	0	0	0	0	0	0	0	0	0	0	0	0	0	0	0	0	0	0	0	0	0	0	0	0	0	0	0	0	0	0	0	0	0	0	0	0	0	0	0	0	0	0	0	0	0	0	0	0	0	0	0	0	0	0	0	0	0	0	0	0	0	0	0	0	0	0	0	0	0	0	0	0	0	0	0	0	0	0	0	0	0	0	0	0	0	0	1	1	2	3	6	17	22	24	26	29	30	31	32	33	35	35	35	35	35	35	34	33	33	33	34	36	36	38	39	41	43	44	46	47	48	50	52	54	56	57	58	58	57	55	53	51	49	47	45	42	40	38	37	37	37	37	36	35	35	34	33	32	31	30	28	27	26	25	24	23	23	23	23	23	21	21	21	22	23	24	25	25	26	26	27	27	27	28	29	30	30	30	30	32	33	34	34	36	39	40	39	35	35	35	35	35	36	37	36	36	37	38	39	40	42	44	44	45	45	46	47	47	47	47	48	50	52	53	55	56	57	58	60	61	62	62	62	62	63	64	66	67	69	70	70	71	71	72	72	73	75	76	76	76	78	79	81	82	83	84	85	88	89	90	91	93	94	93	93	92	92	93	94	96	100	103	108	113	114	116	118	121	122	123	126	128	130	132	134	136	139	141	144	147	150	153	156	158	160	163	165	168	172	174	176	176	175	174	174	174	174	174	173	171	169	167	165	162	160	158	157	156	155	154	152	151	150	149	148	149	149	149	149	148	148	148	148	148	149	149	149	149	148	147	146	145	144	143	142	141	140	139	138	137	135	134	135	134	132	129	130	134	134	133	130	128	130	131	132	133	134	135	136	138	140	141	143	145	147	150	152	154	154	154	154	153	153	153	152	152	151	150	149	148	146	144	142	140	138	135	132	130	128	126	124	122	119	116	114	111	108	105	102	99	96	93	90	87	85	79	74	71	70	69	68	67	66	65	65	64	63	62	62	61	60	60	60	59	58	56	55	55	55	55	54	55	56	57	57	56	55	54	55	55	56	56	57	59	60	61	59	59	63	64	65	66	68	69	71	73	75	77	79	82	84	86	87	87	88	89	90	90	90	90	90	90	89	89	88	88	88	88	89	89	89	90	90	91	92	93	93	94	94	93	92	91	90	89	88	87	86	85	83	82	81	79	78	77	76	76	76	75	76	76	75	74	75	76	77	77	76	75	74	73	73	74	74	74	73	71	70	69	67	66	65	63	62	60	58	57	57	56	55	54	53	51	49	48	47	46	45	43	42	41	40	40	40	40	39	38	35	35	35	35	34	34	34	34	33	34	35	36	38	40	42	43
91	88	89	91	93	94	94	94	93	92	92	92	91	89	87	86	84	82	80	77	75	73	71	70	69	67	65	62	59	57	56	56	58	59	59	59	58	58	57	56	56	59	62	64	64	63	63	62	60	58	56	52	47	46	45	44	44	44	43	42	41	40	40	40	40	40	40	40	41	41	37	32	29	28	32	35	35	34	33	31	30	29	27	25	21	18	16	14	11	8	6	4	4	4	4	3	3	3	2	2	1	1	1	2	2	3	3	3	4	4	4	3	3	3	2	0	0	0	0	0	0	0	0	0	0	0	0	0	0	0	0	0	0	0	0	0	0	0	0	0	0	0	0	0	0	0	0	0	0	0	0	0	0	0	0	0	0	0	0	0	0	0	0	0	0	0	0	0	0	0	0	0	0	0	0	0	0	0	0	0	0	0	0	0	0	0	0	0	0	0	0	0	0	0	0	0	0	0	0	0	0	0	0	0	0	0	0	0	0	0	0	0	0	0	0	0	0	0	0	0	0	0	0	0	0	0	0	0	0	0	0	0	0	0	0	0	0	0	0	0	0	0	0	0	0	0	0	0	0	0	0	0	0	0	0	0	0	0	0	0	0	0	0	0	0	0	0	0	0	0	0	0	0	0	0	0	0	0	0	0	0	0	0	0	0	0	0	0	0	0	0	0	0	0	0	0	0	0	0	0	0	0	0	0	0	0	0	0	0	0	0	0	0	0	0	0	0	0	0	0	0	0	0	0	0	0	0	0	0	0	0	0	0	0	0	0	0	0	0	0	0	0	0	0	0	0	0	0	0	0	0	0	0	0	0	0	0	0	0	0	0	0	0	0	0	0	0	0	0	0	0	0	0	0	0	0	0	0	0	0	0	0	0	0	0	0	0	0	0	0	0	0	0	0	0	0	0	0	0	0	0	0	0	0	0	0	0	0	0	0	0	0	0	0	0	0	0	0	0	0	0	0	0	0	0	0	0	0	0	0	0	0	0	0	0	0	0	0	0	0	0	0	0	0	0	0	0	0	0	0	0	0	0	0	0	0	0	0	0	0	0	0	0	0	0	0	0	0	0	0	0	0	0	0	0	0	0	0	0	0	0	0	0	0	0	0	0	0	0	0	0	0	0	0	0	0	0	0	0	0	0	0	0	0	0	0	0	0	0	0	0	0	0	0	1	2	2	2	6	18	24	27	30	33	34	35	36	37	38	38	39	39	39	40	39	37	36	36	38	39	40	41	42	43	45	46	47	48	49	51	54	56	58	59	60	60	59	57	55	53	51	48	46	43	41	40	39	39	39	38	37	37	37	36	35	33	32	31	29	28	26	25	24	24	24	24	23	23	22	22	22	23	24	24	25	26	26	27	27	28	28	28	29	30	31	31	31	32	33	35	37	39	42	43	42	37	35	35	36	35	36	36	36	36	37	38	39	41	42	44	45	46	46	47	48	48	48	49	50	51	54	55	57	58	59	61	63	65	66	65	64	64	64	65	66	67	68	70	71	71	71	72	73	74	77	78	78	77	78	80	82	83	84	85	86	88	89	90	91	93	94	94	94	93	92	93	95	97	100	104	108	112	114	116	119	122	123	124	125	127	129	131	134	136	139	142	145	148	151	153	156	159	161	164	167	170	172	175	176	177	176	174	174	174	174	174	172	171	170	168	165	162	160	158	157	156	155	154	153	151	151	150	149	149	149	150	149	149	149	148	148	148	149	149	149	148	147	146	146	145	144	143	142	140	139	138	137	135	134	135	135	133	131	128	129	133	134	133	129	128	129	130	132	133	134	135	137	138	140	141	143	146	148	150	153	154	155	155	155	154	154	154	153	152	151	151	150	148	147	145	143	140	138	135	133	131	129	127	125	122	119	117	114	111	108	104	101	99	96	93	89	86	83	78	74	71	71	70	69	67	66	65	64	64	63	62	61	61	62	63	62	60	59	57	56	55	56	56	55	56	56	57	57	56	56	56	56	57	58	59	58	59	60	60	58	60	63	64	65	66	67	69	71	72	74	76	78	80	81	83	84	85	86	87	88	88	89	89	89	88	88	87	87	87	87	87	87	87	88	89	90	90	91	92	93	93	93	93	92	91	90	89	88	87	86	84	83	82	80	78	77	76	75	75	74	73	73	73	72	72	73	73	74	74	74	73	72	72	72	73	74	74	73	71	70	68	67	66	64	63	61	59	58	57	56	55	54	53	52	50	49	47	47	46	44	43	41	41	40	40	40	39	39	37	36	35	35	34	34	34	35	35	35	35	37	38	38	41	43	44
91	89	90	92	94	94	94	94	93	92	92	90	89	86	84	82	79	78	76	74	73	70	68	67	66	64	62	59	57	57	58	60	61	61	60	59	59	60	60	59	60	64	65	65	65	64	63	62	60	58	55	50	47	47	46	46	45	44	44	43	42	43	43	42	42	42	42	42	45	45	43	36	30	29	33	37	37	36	35	33	31	30	28	24	21	18	17	15	12	8	5	4	4	4	4	3	3	3	3	2	2	2	3	4	5	6	6	7	7	7	6	6	5	5	3	1	0	0	0	0	0	0	0	0	0	0	0	0	0	0	0	0	0	0	0	0	0	0	0	0	0	0	0	0	0	0	0	0	0	0	0	0	0	0	0	0	0	0	0	0	0	0	0	0	0	0	0	0	0	0	0	0	0	0	0	0	0	0	0	0	0	0	0	0	0	0	0	0	0	0	0	0	0	0	0	0	0	0	0	0	0	0	0	0	0	0	0	0	0	0	0	0	0	0	0	0	0	0	0	0	0	0	0	0	0	0	0	0	0	0	0	0	0	0	0	0	0	0	0	0	0	0	0	0	0	0	0	0	0	0	0	0	0	0	0	0	0	0	0	0	0	0	0	0	0	0	0	0	0	0	0	0	0	0	0	0	0	0	0	0	0	0	0	0	0	0	0	0	0	0	0	0	0	0	0	0	0	0	0	0	0	0	0	0	0	0	0	0	0	0	0	0	0	0	0	0	0	0	0	0	0	0	0	0	0	0	0	0	0	0	0	0	0	0	0	0	0	0	0	0	0	0	0	0	0	0	0	0	0	0	0	0	0	0	0	0	0	0	0	0	0	0	0	0	0	0	0	0	0	0	0	0	0	0	0	0	0	0	0	0	0	0	0	0	0	0	0	0	0	0	0	0	0	0	0	0	0	0	0	0	0	0	0	0	0	0	0	0	0	0	0	0	0	0	0	0	0	0	0	0	0	0	0	0	0	0	0	0	0	0	0	0	0	0	0	0	0	0	0	0	0	0	0	0	0	0	0	0	0	0	0	0	0	0	0	0	0	0	0	0	0	0	0	0	0	0	0	0	0	0	0	0	0	0	0	0	0	0	0	0	0	0	0	0	0	0	0	0	0	0	0	0	0	0	0	0	0	0	0	0	0	0	0	0	0	0	0	0	0	0	0	0	0	0	1	2	2	2	5	16	26	30	33	35	36	38	39	40	41	42	42	42	42	43	42	41	41	41	41	42	42	43	44	46	47	49	50	51	52	54	56	58	60	62	62	62	60	59	57	55	53	50	47	45	43	42	41	41	41	40	39	38	38	38	36	35	34	32	30	28	27	25	24	25	25	24	24	23	23	22	22	23	24	24	25	27	27	27	28	29	29	29	29	30	31	31	32	33	34	36	38	40	43	45	44	38	35	36	37	36	36	37	37	37	37	38	39	41	43	44	45	46	47	48	49	50	50	51	52	54	56	57	59	60	62	63	66	68	69	68	67	66	66	66	67	68	69	70	71	72	72	73	74	75	77	79	80	79	79	80	82	84	85	86	87	89	90	91	92	92	94	94	94	93	93	94	95	97	100	104	108	111	113	116	119	122	123	124	125	127	130	132	134	137	139	142	145	148	151	153	156	159	161	164	167	170	173	175	177	177	176	175	174	174	174	174	173	172	170	169	166	162	160	158	157	156	156	155	153	152	152	151	150	150	150	150	150	150	150	149	149	149	149	149	149	148	147	146	146	145	145	144	142	140	139	138	136	135	134	134	134	132	130	129	129	131	132	130	127	127	128	131	133	134	135	136	138	139	141	142	144	146	149	151	153	154	155	155	155	155	155	154	153	153	152	151	150	149	147	145	143	141	138	136	133	131	130	128	125	122	119	117	114	111	107	104	101	98	95	91	88	84	81	77	74	72	71	70	69	67	66	65	64	63	63	62	61	62	64	65	64	61	59	57	56	56	57	57	57	57	58	57	57	57	58	57	57	58	60	60	60	60	60	59	58	62	65	65	65	65	67	69	70	72	73	74	76	78	79	81	82	83	84	85	86	86	87	87	87	87	87	86	85	85	86	86	86	86	87	87	88	90	91	92	92	93	93	92	92	91	90	89	88	86	85	84	82	81	79	78	77	76	75	74	73	71	70	70	70	71	71	71	71	71	71	71	71	71	72	73	74	74	73	71	70	68	66	65	64	62	60	59	57	56	55	54	53	52	51	49	48	47	46	45	44	42	41	40	39	39	39	39	38	38	36	35	34	34	34	34	34	35	36	36	37	38	39	41	44	45
93	93	92	92	94	95	95	94	93	92	90	88	86	83	81	77	73	74	73	72	72	69	65	63	62	61	59	58	58	59	61	62	63	62	61	60	60	62	65	65	65	67	67	67	66	65	63	62	61	57	52	49	48	48	47	47	46	45	44	44	44	45	45	44	44	44	43	44	46	46	45	39	32	32	38	40	39	38	36	34	33	32	28	24	21	19	18	16	14	10	6	5	4	4	4	4	4	4	4	4	4	5	7	8	9	9	10	10	10	9	8	7	6	5	4	2	0	0	0	0	0	0	0	0	0	0	0	0	0	0	0	0	0	0	0	0	0	0	0	0	0	0	0	0	0	0	0	0	0	0	0	0	0	0	0	0	0	0	0	0	0	0	0	0	0	0	0	0	0	0	0	0	0	0	0	0	0	0	0	0	0	0	0	0	0	0	0	0	0	0	0	0	0	0	0	0	0	0	0	0	0	0	0	0	0	0	0	0	0	0	0	0	0	0	0	0	0	0	0	0	0	0	0	0	0	0	0	0	0	0	0	0	0	0	0	0	0	0	0	0	0	0	0	0	0	0	0	0	0	0	0	0	0	0	0	0	0	0	0	0	0	0	0	0	0	0	0	0	0	0	0	0	0	0	0	0	0	0	0	0	0	0	0	0	0	0	0	0	0	0	0	0	0	0	0	0	0	0	0	0	0	0	0	0	0	0	0	0	0	0	0	0	0	0	0	0	0	0	0	0	0	0	0	0	0	0	0	0	0	0	0	0	0	0	0	0	0	0	0	0	0	0	0	0	0	0	0	0	0	0	0	0	0	0	0	0	0	0	0	0	0	0	0	0	0	0	0	0	0	0	0	0	0	0	0	0	0	0	0	0	0	0	0	0	0	0	0	0	0	0	0	0	0	0	0	0	0	0	0	0	0	0	0	0	0	0	0	0	0	0	0	0	0	0	0	0	0	0	0	0	0	0	0	0	0	0	0	0	0	0	0	0	0	0	0	0	0	0	0	0	0	0	0	0	0	0	0	0	0	0	0	0	0	0	0	0	0	0	0	0	0	0	0	0	0	0	0	0	0	0	0	0	0	0	0	0	0	0	0	0	0	0	0	0	0	0	0	0	0	0	0	0	0	0	0	0	0	0	0	0	0	0	0	0	0	0	0	0	0	0	0	0	0	0	1	2	2	2	4	13	26	32	34	36	37	39	41	42	44	45	45	45	45	45	45	45	45	44	45	45	45	46	47	48	49	51	52	53	55	56	58	61	62	64	64	64	62	60	58	56	54	51	49	47	45	44	43	42	42	41	40	40	39	39	37	36	35	33	31	29	28	26	25	25	25	25	25	24	24	23	22	23	24	25	26	27	27	27	28	29	29	29	30	30	31	31	32	33	35	37	38	38	42	46	45	39	36	37	37	37	37	38	38	38	38	38	39	41	43	45	46	47	49	50	51	52	52	53	54	56	57	59	61	63	64	66	68	70	71	70	69	68	68	68	69	69	70	72	73	73	74	74	75	76	77	79	81	81	80	81	82	84	85	87	88	90	91	92	92	92	93	93	93	93	93	94	96	97	100	104	108	111	113	115	118	121	123	124	125	127	130	132	134	137	140	142	145	148	150	153	156	158	161	164	167	169	172	174	176	177	176	174	173	173	173	173	172	171	170	168	165	162	160	158	158	157	156	155	154	153	152	152	151	150	150	151	151	151	151	150	150	149	149	149	148	148	147	146	146	145	145	144	142	140	139	138	137	135	133	132	132	131	130	130	129	129	129	128	127	128	130	132	133	135	136	137	138	140	141	143	144	147	149	151	153	154	155	155	155	155	155	154	154	153	152	151	150	148	147	145	143	141	138	136	134	132	130	128	126	123	120	117	114	111	107	104	101	97	94	90	86	83	80	77	74	73	71	70	68	67	66	65	64	63	62	62	62	63	65	66	64	61	58	57	56	56	58	59	59	59	59	59	58	58	59	59	59	60	61	62	62	61	60	58	59	64	66	66	66	65	66	68	70	71	72	73	74	76	78	79	80	81	82	83	84	84	85	86	86	86	85	85	84	84	85	85	85	85	86	87	88	89	90	91	92	92	92	92	91	91	90	88	87	86	84	83	81	80	79	78	76	75	73	73	72	70	69	68	69	70	70	70	69	69	70	70	71	71	72	73	73	73	72	71	70	68	66	64	63	61	60	58	56	55	53	53	52	51	50	48	47	46	46	44	43	41	40	40	39	39	39	39	38	37	36	35	34	34	34	34	34	35	35	36	36	38	40	42	44	45
95	95	94	93	93	93	94	94	93	92	90	86	82	81	81	78	75	74	73	73	73	69	65	62	60	59	59	61	62	63	64	64	63	62	62	61	61	62	66	67	67	67	68	68	67	66	64	63	62	56	51	49	49	49	48	47	47	46	45	45	46	46	46	46	46	46	45	45	46	47	45	41	35	36	40	41	39	38	36	35	35	34	30	26	24	22	20	19	17	15	13	11	8	7	7	8	7	6	6	8	11	13	14	14	14	14	14	13	12	11	10	8	6	5	4	2	1	0	0	0	0	0	0	0	0	0	0	0	0	0	0	0	0	0	0	0	0	0	0	0	0	0	0	0	0	0	0	0	0	0	0	0	0	0	0	0	0	0	0	0	0	0	0	0	0	0	0	0	0	0	0	0	0	0	0	0	0	0	0	0	0	0	0	0	0	0	0	0	0	0	0	0	0	0	0	0	0	0	0	0	0	0	0	0	0	0	0	0	0	0	0	0	0	0	0	0	0	0	0	0	0	0	0	0	0	0	0	0	0	0	0	0	0	0	0	0	0	0	0	0	0	0	0	0	0	0	0	0	0	0	0	0	0	0	0	0	0	0	0	0	0	0	0	0	0	0	0	0	0	0	0	0	0	0	0	0	0	0	0	0	0	0	0	0	0	0	0	0	0	0	0	0	0	0	0	0	0	0	0	0	0	0	0	0	0	0	0	0	0	0	0	0	0	0	0	0	0	0	0	0	0	0	0	0	0	0	0	0	0	0	0	0	0	0	0	0	0	0	0	0	0	0	0	0	0	0	0	0	0	0	0	0	0	0	0	0	0	0	0	0	0	0	0	0	0	0	0	0	0	0	0	0	0	0	0	0	0	0	0	0	0	0	0	0	0	0	0	0	0	0	0	0	0	0	0	0	0	0	0	0	0	0	0	0	0	0	0	0	0	0	0	0	0	0	0	0	0	0	0	0	0	0	0	0	0	0	0	0	0	0	0	0	0	0	0	0	0	0	0	0	0	0	0	0	0	0	0	0	0	0	0	0	0	0	0	0	0	0	0	0	0	0	0	0	0	0	0	0	0	0	0	0	0	0	0	0	0	0	0	0	0	0	0	0	0	0	0	0	0	0	0	0	0	0	0	0	0	0	0	0	0	0	0	0	0	0	0	0	0	0	0	0	0	1	2	2	3	3	3	10	24	31	34	36	38	40	42	44	46	47	48	48	48	48	47	47	47	47	47	47	47	48	49	50	52	53	54	56	58	59	61	63	65	67	67	66	64	62	60	58	55	53	50	49	47	46	45	44	43	43	42	41	41	40	39	37	36	34	32	30	28	27	26	26	25	25	25	25	25	23	22	22	23	25	26	27	28	28	28	29	30	30	30	30	31	32	32	33	34	36	37	38	42	46	44	40	37	37	38	38	38	38	38	38	38	38	39	41	43	45	47	48	50	52	53	53	54	55	57	58	59	61	63	65	66	68	70	71	72	72	71	71	71	71	71	72	73	74	75	75	76	76	77	78	78	80	82	82	81	81	82	84	86	88	89	90	91	92	93	93	93	94	94	94	94	95	96	98	101	105	108	111	113	115	117	120	123	125	126	128	130	133	134	137	140	143	145	148	150	153	156	158	161	163	166	168	170	173	175	175	175	174	173	172	172	172	171	169	168	167	164	162	160	159	159	158	157	156	155	154	154	153	152	151	151	150	151	151	151	151	150	150	149	149	148	148	147	146	145	145	144	143	141	139	139	138	138	136	134	132	132	131	131	131	130	129	129	129	129	130	131	132	134	136	137	138	139	141	142	143	145	147	149	151	152	154	155	155	155	155	155	155	154	153	152	151	150	148	147	145	143	141	138	136	134	133	131	129	127	125	121	117	114	111	108	105	101	97	93	89	86	83	80	78	75	73	71	69	67	66	66	65	64	63	63	63	63	64	64	65	63	60	57	56	55	57	59	60	61	60	61	60	59	59	60	61	62	63	63	64	64	63	59	58	60	64	68	69	68	66	65	68	69	70	71	72	73	75	76	78	79	79	80	81	82	83	84	84	84	84	84	84	83	83	84	84	84	84	85	86	87	89	90	91	92	92	92	92	91	90	89	88	87	85	84	82	81	79	78	77	75	73	72	71	70	69	69	68	69	69	69	69	69	69	69	70	70	70	71	72	73	73	72	71	69	68	66	64	63	61	59	57	55	54	53	52	51	50	49	47	46	46	45	44	42	41	40	40	40	39	39	38	38	37	36	35	34	34	34	34	34	35	35	35	36	38	40	42	43	44
96	96	95	93	92	89	91	94	93	92	90	86	82	83	84	83	80	76	75	75	75	71	67	62	61	61	62	65	66	66	66	65	64	63	62	62	61	61	63	65	67	68	69	68	67	66	65	64	61	55	51	50	50	50	49	49	48	47	46	47	47	48	48	48	48	48	46	45	45	46	44	40	37	38	40	40	38	37	36	35	35	34	31	29	28	27	25	24	23	23	23	21	19	19	19	19	17	16	15	17	19	19	19	19	18	18	17	16	15	13	11	8	6	5	4	3	2	1	1	0	0	0	0	0	0	0	0	0	0	0	0	0	0	0	0	0	0	0	0	0	0	0	0	0	0	0	0	0	0	0	0	0	0	0	0	0	0	0	0	0	0	0	0	0	0	0	0	0	0	0	0	0	0	0	0	0	0	0	0	0	0	0	0	0	0	0	0	0	0	0	0	0	0	0	0	0	0	0	0	0	0	0	0	0	0	0	0	0	0	0	0	0	0	0	0	0	0	0	0	0	0	0	0	0	0	0	0	0	0	0	0	0	0	0	0	0	0	0	0	0	0	0	0	0	0	0	0	0	0	0	0	0	0	0	0	0	0	0	0	0	0	0	0	0	0	0	0	0	0	0	0	0	0	0	0	0	0	0	0	0	0	0	0	0	0	0	0	0	0	0	0	0	0	0	0	0	0	0	0	0	0	0	0	0	0	0	0	0	0	0	0	0	0	0	0	0	0	0	0	0	0	0	0	0	0	0	0	0	0	0	0	0	0	0	0	0	0	0	0	0	0	0	0	0	0	0	0	0	0	0	0	0	0	0	0	0	0	0	0	0	0	0	0	0	0	0	0	0	0	0	0	0	0	0	0	0	0	0	0	0	0	0	0	0	0	0	0	0	0	0	0	0	0	0	0	0	0	0	0	0	0	0	0	0	0	0	0	0	0	0	0	0	0	0	0	0	0	0	0	0	0	0	0	0	0	0	0	0	0	0	0	0	0	0	0	0	0	0	0	0	0	0	0	0	0	0	0	0	0	0	0	0	0	0	0	0	0	0	0	0	0	0	0	0	0	0	0	0	0	0	0	0	0	0	0	0	0	0	0	0	0	0	0	0	0	0	0	0	0	0	0	0	0	0	0	0	0	0	0	0	0	0	0	0	0	0	0	0	0	0	0	0	0	0	2	2	3	3	4	9	22	30	33	35	38	41	43	45	48	49	50	50	50	50	50	49	50	50	50	50	50	51	51	53	54	55	57	58	60	62	63	66	69	69	69	68	66	63	61	59	57	54	52	50	49	47	46	45	45	44	43	43	42	41	40	38	37	35	33	31	29	28	27	26	25	25	25	26	26	24	23	22	23	25	27	28	29	28	29	29	30	30	30	30	31	32	32	33	34	36	37	37	41	45	44	40	39	38	38	39	39	38	37	38	38	38	39	41	44	46	47	49	51	53	54	55	56	57	59	60	61	63	64	66	68	69	71	73	74	74	73	73	73	73	73	74	75	77	77	77	78	79	79	79	79	81	83	84	83	83	83	84	86	88	90	91	91	92	93	93	94	95	96	96	96	96	97	100	103	106	108	111	113	116	118	120	123	126	127	128	131	133	135	137	140	143	145	148	150	152	155	158	161	163	165	167	169	171	173	174	173	173	172	171	171	170	169	168	167	165	163	161	160	159	159	159	158	157	156	155	155	154	153	152	151	151	151	151	151	151	150	150	150	149	148	147	146	145	145	144	143	141	140	139	139	138	138	137	135	132	132	132	133	133	131	130	129	130	130	131	132	133	135	137	139	139	139	141	142	143	145	147	149	151	152	153	154	155	155	155	155	155	154	153	152	151	150	148	147	145	143	141	139	137	135	134	132	129	127	124	121	117	114	112	109	107	102	97	92	88	86	83	81	79	76	74	73	70	68	68	68	67	66	66	65	65	66	65	64	64	63	60	58	56	57	59	61	62	63	63	63	62	61	61	62	63	65	66	65	65	65	64	60	58	59	62	67	70	71	68	65	67	68	69	70	71	72	74	75	76	77	77	78	79	81	81	82	82	82	82	82	82	82	83	83	83	83	84	84	86	87	89	90	91	92	92	92	92	91	90	89	88	86	85	83	82	80	79	78	76	74	72	71	70	69	68	68	68	68	68	68	68	67	68	69	69	69	69	70	71	72	72	71	70	69	68	66	64	62	60	58	56	55	53	52	51	51	50	48	46	46	45	45	44	42	41	40	40	40	40	39	38	38	37	36	34	34	34	34	34	34	34	35	35	36	38	40	41	42	44
98	97	96	95	93	89	90	93	94	93	91	86	82	84	85	87	83	78	77	78	77	74	69	64	64	66	67	68	69	68	67	66	65	64	63	63	62	61	60	65	70	71	71	70	68	67	66	63	59	54	52	51	51	51	50	50	49	48	48	48	49	49	50	50	50	49	48	46	45	43	41	40	41	41	40	40	38	37	37	36	35	34	33	32	32	31	30	29	28	29	29	28	27	26	26	25	24	24	24	24	24	23	22	22	21	20	20	19	17	15	12	9	7	5	5	4	3	3	2	1	0	0	0	0	0	0	0	0	0	0	0	0	0	0	0	0	0	0	0	0	0	0	0	0	0	0	0	0	0	0	0	0	0	0	0	0	0	0	0	0	0	0	0	0	0	0	0	0	0	0	0	0	0	0	0	0	0	0	0	0	0	0	0	0	0	0	0	0	0	0	0	0	0	0	0	0	0	0	0	0	0	0	0	0	0	0	0	0	0	0	0	0	0	0	0	0	0	0	0	0	0	0	0	0	0	0	0	0	0	0	0	0	0	0	0	0	0	0	0	0	0	0	0	0	0	0	0	0	0	0	0	0	0	0	0	0	0	0	0	0	0	0	0	0	0	0	0	0	0	0	0	0	0	0	0	0	0	0	0	0	0	0	0	0	0	0	0	0	0	0	0	0	0	0	0	0	0	0	0	0	0	0	0	0	0	0	0	0	0	0	0	0	0	0	0	0	0	0	0	0	0	0	0	0	0	0	0	0	0	0	0	0	0	0	0	0	0	0	0	0	0	0	0	0	0	0	0	0	0	0	0	0	0	0	0	0	0	0	0	0	0	0	0	0	0	0	0	0	0	0	0	0	0	0	0	0	0	0	0	0	0	0	0	0	0	0	0	0	0	0	0	0	0	0	0	0	0	0	0	0	0	0	0	0	0	0	0	0	0	0	0	0	0	0	0	0	0	0	0	0	0	0	0	0	0	0	0	0	0	0	0	0	0	0	0	0	0	0	0	0	0	0	0	0	0	0	0	0	0	0	0	0	0	0	0	0	0	0	0	0	0	0	0	0	0	0	0	0	0	0	0	0	0	0	0	0	0	0	0	0	0	0	0	0	0	0	0	0	0	0	0	0	0	0	0	0	0	0	0	0	0	0	0	0	0	0	0	0	0	0	0	0	0	0	2	2	2	3	5	13	23	29	32	35	38	41	43	45	48	50	51	51	52	52	52	52	52	52	52	52	53	53	54	55	56	57	59	61	62	64	66	69	71	71	71	69	67	65	63	60	58	56	54	52	50	49	48	47	46	46	45	44	43	42	41	39	38	36	34	32	30	29	28	27	26	25	26	27	26	25	24	23	24	26	28	30	30	29	29	29	30	30	30	31	31	32	32	33	34	36	37	38	42	46	48	46	41	39	39	39	39	38	37	38	38	38	39	41	44	46	48	50	52	54	56	57	58	59	61	62	63	65	66	68	69	71	72	74	75	75	75	75	75	75	75	76	77	78	79	79	80	80	80	80	81	82	84	86	85	84	84	84	85	87	89	91	92	93	94	94	95	97	98	98	98	98	99	101	104	107	109	111	114	117	119	121	124	126	127	129	131	134	136	137	140	142	145	147	149	152	155	158	160	162	164	166	168	170	171	172	172	172	171	170	169	169	167	166	165	164	163	161	160	159	159	159	158	158	157	156	156	155	154	153	153	153	152	152	152	151	151	150	150	149	148	147	146	145	144	143	142	140	139	139	138	138	138	137	135	133	133	134	136	135	132	130	130	130	131	132	132	134	136	138	139	139	139	140	141	143	145	147	150	151	152	153	154	155	155	155	155	155	154	153	152	151	150	148	147	145	143	141	139	138	136	135	133	130	127	123	120	117	114	112	110	108	103	97	92	89	86	84	82	80	77	76	74	73	71	71	71	70	69	68	68	67	67	66	64	63	63	61	59	58	60	62	64	64	65	65	65	64	63	63	64	66	68	68	67	66	65	64	61	59	59	62	66	69	70	67	65	66	67	68	69	69	70	72	74	75	75	76	77	79	80	80	80	80	80	81	81	81	82	82	83	83	83	83	84	85	87	89	90	91	91	91	92	91	91	90	89	88	86	84	83	82	80	79	78	76	74	71	70	69	68	68	68	68	68	68	67	66	66	66	67	68	68	68	69	70	71	71	70	69	68	67	65	63	61	59	58	56	54	53	52	51	50	49	47	45	45	45	44	43	42	41	40	40	40	40	39	38	38	37	35	34	34	34	34	34	34	34	34	35	36	39	41	41	42	43
99	99	98	97	95	92	91	93	94	95	93	87	83	82	84	86	85	82	81	81	80	77	72	69	69	70	71	71	70	69	68	68	67	65	64	63	62	61	61	67	73	73	73	71	70	69	66	61	57	54	53	52	52	52	52	51	50	49	49	50	51	51	51	52	52	51	50	48	45	43	42	42	43	42	42	41	41	40	39	39	38	37	36	35	35	34	33	32	32	32	32	32	31	30	30	29	28	27	27	27	27	27	25	24	23	22	21	21	20	18	15	12	9	6	5	4	4	3	2	2	1	0	0	0	0	0	0	0	0	0	0	0	0	0	0	0	0	0	0	0	0	0	0	0	0	0	0	0	0	0	0	0	0	0	0	0	0	0	0	0	0	0	0	0	0	0	0	0	0	0	0	0	0	0	0	0	0	0	0	0	0	0	0	0	0	0	0	0	0	0	0	0	0	0	0	0	0	0	0	0	0	0	0	0	0	0	0	0	0	0	0	0	0	0	0	0	0	0	0	0	0	0	0	0	0	0	0	0	0	0	0	0	0	0	0	0	0	0	0	0	0	0	0	0	0	0	0	0	0	0	0	0	0	0	0	0	0	0	0	0	0	0	0	0	0	0	0	0	0	0	0	0	0	0	0	0	0	0	0	0	0	0	0	0	0	0	0	0	0	0	0	0	0	0	0	0	0	0	0	0	0	0	0	0	0	0	0	0	0	0	0	0	0	0	0	0	0	0	0	0	0	0	0	0	0	0	0	0	0	0	0	0	0	0	0	0	0	0	0	0	0	0	0	0	0	0	0	0	0	0	0	0	0	0	0	0	0	0	0	0	0	0	0	0	0	0	0	0	0	0	0	0	0	0	0	0	0	0	0	0	0	0	0	0	0	0	0	0	0	0	0	0	0	0	0	0	0	0	0	0	0	0	0	0	0	0	0	0	0	0	0	0	0	0	0	0	0	0	0	0	0	0	0	0	0	0	0	0	0	0	0	0	0	0	0	0	0	0	0	0	0	0	0	0	0	0	0	0	0	0	0	0	0	0	0	0	0	0	0	0	0	0	0	0	0	0	0	0	0	0	0	0	0	0	0	0	0	0	0	0	0	0	0	0	0	0	0	0	0	0	0	0	0	0	0	0	0	0	0	0	0	0	0	0	0	0	0	0	0	0	0	0	0	1	2	2	2	4	9	18	24	28	31	34	37	40	42	45	47	49	51	52	53	53	53	53	54	54	55	55	55	55	56	57	58	59	61	63	65	67	69	72	73	73	72	71	69	67	64	62	60	57	55	54	52	51	50	49	48	48	47	46	45	43	42	41	40	38	35	32	30	29	29	28	28	27	27	27	27	25	24	24	26	27	29	30	30	29	29	29	29	30	31	31	32	33	33	34	35	37	38	41	46	49	50	49	42	40	40	40	40	39	38	38	38	39	40	42	44	46	48	50	53	55	57	59	60	61	62	64	65	67	69	70	71	73	74	75	76	77	77	77	78	78	78	79	79	80	80	80	81	81	82	82	82	83	85	86	86	85	85	85	85	87	89	90	92	93	94	95	96	99	101	100	99	99	100	102	105	107	109	112	115	118	121	123	125	126	127	129	132	134	136	138	140	142	144	146	149	151	154	157	159	162	163	165	167	168	170	171	171	171	171	169	169	168	166	165	165	164	163	162	161	160	160	160	159	158	157	157	157	156	155	155	155	154	154	153	152	152	151	151	150	150	149	148	146	145	144	142	141	140	140	139	138	138	137	136	134	133	134	136	137	137	133	130	129	130	131	132	133	134	135	137	138	139	139	140	141	143	145	147	149	151	152	153	154	155	155	155	155	155	154	153	152	151	150	149	147	146	144	142	140	138	137	135	133	130	126	122	119	117	115	112	109	107	104	99	95	91	88	86	84	82	79	77	77	76	75	74	73	72	71	70	69	68	68	67	66	65	64	63	61	60	62	64	65	66	66	66	66	65	65	65	66	67	68	68	68	67	66	65	61	59	60	62	66	66	66	64	63	64	65	66	67	68	69	70	72	73	73	74	76	78	79	79	79	78	78	79	80	80	81	81	82	82	82	83	84	85	87	88	90	90	91	91	91	91	91	90	89	88	86	84	83	81	80	78	78	77	74	71	70	69	69	68	68	68	68	67	66	65	65	66	66	67	67	68	68	68	70	70	69	68	67	66	64	62	60	58	56	55	54	52	51	50	49	47	46	45	45	45	44	43	42	41	40	40	40	39	38	38	38	37	35	34	34	34	34	34	34	33	34	34	36	39	41	41	41	42
98	98	98	98	96	94	92	93	94	94	93	90	85	84	84	86	87	84	83	83	81	77	74	72	73	74	73	72	71	71	70	69	68	67	65	65	64	63	63	69	75	75	74	72	71	70	66	60	57	55	54	53	53	53	53	52	51	50	51	52	52	53	53	54	54	53	51	49	47	45	45	45	45	44	44	44	43	43	42	42	41	40	39	38	38	37	36	35	35	35	35	35	34	34	33	33	31	31	30	30	29	29	28	27	26	24	23	22	21	20	17	14	11	8	6	5	4	3	3	2	1	0	0	0	0	0	0	0	0	0	0	0	0	0	0	0	0	0	0	0	0	0	0	0	0	0	0	0	0	0	0	0	0	0	0	0	0	0	0	0	0	0	0	0	0	0	0	0	0	0	0	0	0	0	0	0	0	0	0	0	0	0	0	0	0	0	0	0	0	0	0	0	0	0	0	0	0	0	0	0	0	0	0	0	0	0	0	0	0	0	0	0	0	0	0	0	0	0	0	0	0	0	0	0	0	0	0	0	0	0	0	0	0	0	0	0	0	0	0	0	0	0	0	0	0	0	0	0	0	0	0	0	0	0	0	0	0	0	0	0	0	0	0	0	0	0	0	0	0	0	0	0	0	0	0	0	0	0	0	0	0	0	0	0	0	0	0	0	0	0	0	0	0	0	0	0	0	0	0	0	0	0	0	0	0	0	0	0	0	0	0	0	0	0	0	0	0	0	0	0	0	0	0	0	0	0	0	0	0	0	0	0	0	0	0	0	0	0	0	0	0	0	0	0	0	0	0	0	0	0	0	0	0	0	0	0	0	0	0	0	0	0	0	0	0	0	0	0	0	0	0	0	0	0	0	0	0	0	0	0	0	0	0	0	0	0	0	0	0	0	0	0	0	0	0	0	0	0	0	0	0	0	0	0	0	0	0	0	0	0	0	0	0	0	0	0	0	0	0	0	0	0	0	0	0	0	0	0	0	0	0	0	0	0	0	0	0	0	0	0	0	0	0	0	0	0	0	0	0	0	0	0	0	0	0	0	0	0	0	0	0	0	0	0	0	0	0	0	0	0	0	0	0	0	0	0	0	0	0	0	0	0	0	0	0	0	0	0	0	0	0	0	0	0	0	0	0	0	0	0	0	0	0	0	0	0	0	0	0	0	0	0	0	1	2	2	3	6	12	20	24	27	29	32	35	38	41	44	46	48	50	52	53	54	54	55	55	56	57	57	58	58	58	59	60	62	63	65	67	69	71	74	75	76	75	73	71	68	66	64	61	59	57	55	54	52	51	51	51	50	49	47	46	45	43	43	42	40	37	33	31	29	29	30	30	29	29	28	28	26	26	27	29	29	30	30	30	30	29	29	29	30	31	31	33	33	34	35	37	38	39	44	49	51	50	47	42	40	40	40	41	40	38	37	38	39	40	42	44	46	47	50	53	55	58	59	61	63	64	65	67	69	70	71	73	75	76	77	78	79	79	80	80	80	81	81	82	82	82	82	83	83	84	84	84	85	86	87	87	86	86	86	86	86	88	90	92	93	94	95	97	100	101	101	100	101	101	102	104	107	109	112	115	119	122	124	125	127	128	130	132	134	136	138	140	142	145	147	149	151	154	156	159	161	162	164	166	168	169	171	171	171	170	169	168	167	166	166	165	164	163	162	162	162	161	161	160	159	158	158	158	158	157	156	155	155	154	153	153	152	152	151	151	150	149	148	146	145	144	142	141	140	140	140	139	137	136	134	133	133	135	137	137	136	132	129	129	131	132	132	133	134	135	137	137	138	138	139	141	142	144	146	148	150	151	152	154	154	155	155	155	155	155	154	153	152	150	149	148	146	144	142	140	138	136	134	132	129	126	122	119	117	115	112	109	107	105	102	97	94	91	89	87	84	81	79	79	78	77	76	75	74	72	71	71	70	69	68	67	66	65	65	64	63	65	66	67	67	67	67	66	66	66	66	67	67	68	69	70	69	68	66	61	59	60	62	63	62	62	61	61	62	63	64	66	67	68	68	69	70	71	73	74	76	77	78	77	77	77	78	79	80	80	81	81	82	82	82	83	84	86	87	88	89	90	91	91	91	91	90	88	87	85	84	82	81	79	78	77	76	74	71	69	69	69	69	68	68	68	67	66	65	65	65	65	65	66	67	67	67	68	69	69	68	66	65	63	61	59	57	55	53	53	52	50	48	47	46	45	45	45	45	44	42	41	41	40	40	39	38	37	36	36	36	35	35	35	35	34	34	33	33	33	34	36	38	40	39	40	41
98	98	98	98	96	94	92	93	94	93	90	88	90	90	89	88	87	85	84	83	81	76	75	76	76	76	75	73	72	72	71	70	69	68	67	66	65	65	65	71	77	76	75	74	73	71	66	61	59	56	55	54	54	54	54	53	52	52	52	53	54	55	55	55	55	55	53	51	49	48	47	47	47	47	47	46	46	46	46	45	45	43	42	41	41	41	40	40	39	39	38	38	37	37	37	36	35	35	34	33	32	30	30	29	27	26	24	23	22	20	18	16	13	10	8	6	5	4	3	2	1	1	0	0	0	0	0	0	0	0	0	0	0	0	0	0	0	0	0	0	0	0	0	0	0	0	0	0	0	0	0	0	0	0	0	0	0	0	0	0	0	0	0	0	0	0	0	0	0	0	0	0	0	0	0	0	0	0	0	0	0	0	0	0	0	0	0	0	0	0	0	0	0	0	0	0	0	0	0	0	0	0	0	0	0	0	0	0	0	0	0	0	0	0	0	0	0	0	0	0	0	0	0	0	0	0	0	0	0	0	0	0	0	0	0	0	0	0	0	0	0	0	0	0	0	0	0	0	0	0	0	0	0	0	0	0	0	0	0	0	0	0	0	0	0	0	0	0	0	0	0	0	0	0	0	0	0	0	0	0	0	0	0	0	0	0	0	0	0	0	0	0	0	0	0	0	0	0	0	0	0	0	0	0	0	0	0	0	0	0	0	0	0	0	0	0	0	0	0	0	0	0	0	0	0	0	0	0	0	0	0	0	0	0	0	0	0	0	0	0	0	0	0	0	0	0	0	0	0	0	0	0	0	0	0	0	0	0	0	0	0	0	0	0	0	0	0	0	0	0	0	0	0	0	0	0	0	0	0	0	0	0	0	0	0	0	0	0	0	0	0	0	0	0	0	0	0	0	0	0	0	0	0	0	0	0	0	0	0	0	0	0	0	0	0	0	0	0	0	0	0	0	0	0	0	0	0	0	0	0	0	0	0	0	0	0	0	0	0	0	0	0	0	0	0	0	0	0	0	0	0	0	0	0	0	0	0	0	0	0	0	0	0	0	0	0	0	0	0	0	0	0	0	0	0	0	0	0	0	0	0	0	0	0	0	0	0	0	0	0	0	0	0	0	0	0	0	0	0	0	0	0	0	0	0	0	0	0	0	0	0	0	1	2	2	3	5	8	15	20	23	25	28	30	33	36	39	43	45	47	49	51	53	54	54	56	57	58	59	60	61	61	61	61	62	64	66	67	69	71	73	76	77	78	77	75	73	70	68	65	63	61	59	57	55	54	53	53	53	52	51	49	48	46	44	43	43	41	37	34	31	29	29	30	30	30	29	29	29	28	29	30	32	31	30	30	30	30	29	29	29	30	30	31	33	34	36	38	39	39	42	47	51	52	49	45	42	41	40	40	41	40	39	37	37	38	40	42	44	46	48	49	52	55	58	60	62	64	65	67	69	70	72	73	75	77	78	79	80	80	81	82	82	82	83	83	84	84	85	85	85	85	86	86	86	86	87	88	88	88	88	87	87	87	88	89	91	94	95	96	98	100	101	101	102	103	103	103	105	107	110	112	115	118	122	124	126	127	128	130	132	134	137	139	141	143	145	147	150	152	154	156	158	160	162	164	166	167	169	170	171	171	170	169	169	168	167	166	166	165	164	163	163	163	162	162	161	160	160	159	159	158	157	156	156	155	154	154	153	153	152	152	151	150	149	148	146	145	144	142	141	141	140	140	139	138	136	134	133	134	136	137	136	134	131	130	130	131	132	132	133	135	138	139	138	137	137	138	140	142	144	145	147	149	150	152	153	154	155	155	155	155	155	155	154	153	151	150	148	146	144	142	140	138	136	133	131	128	125	122	119	117	114	112	109	107	105	103	99	96	94	92	90	87	83	81	81	81	79	78	76	75	73	73	72	72	70	69	69	68	67	67	67	66	67	68	68	68	69	68	68	68	68	68	67	67	68	70	71	70	69	67	61	59	60	61	61	60	59	59	59	60	61	62	64	66	67	68	68	68	69	70	72	74	75	76	75	76	77	79	79	79	79	79	80	81	81	81	82	83	85	86	87	89	89	90	90	91	91	89	88	86	84	83	82	80	79	77	76	75	74	71	69	69	70	69	69	68	68	67	66	65	64	65	64	65	66	66	66	66	67	68	68	67	65	64	62	60	58	56	54	52	52	51	49	48	46	45	45	44	44	44	43	42	41	41	40	39	38	37	36	35	35	35	35	35	35	35	35	34	33	33	33	34	36	37	37	37	38	40
99	98	98	97	96	94	93	93	93	92	88	87	91	92	91	89	87	85	84	83	80	77	77	78	78	77	76	74	74	73	72	72	71	70	68	67	67	66	66	72	78	78	76	75	74	71	66	62	60	58	56	56	55	55	55	54	53	53	54	56	57	57	58	57	57	56	54	52	51	50	50	50	50	50	49	49	49	49	48	48	47	46	45	44	45	45	45	45	44	42	41	40	40	40	39	39	39	38	37	36	34	33	31	30	28	27	25	24	22	20	19	18	16	13	9	7	5	4	3	3	2	1	1	1	0	0	0	0	0	0	0	0	0	0	0	0	0	0	0	0	0	0	0	0	0	0	0	0	0	0	0	0	0	0	0	0	0	0	0	0	0	0	0	0	0	0	0	0	0	0	0	0	0	0	0	0	0	0	0	0	0	0	0	0	0	0	0	0	0	0	0	0	0	0	0	0	0	0	0	0	0	0	0	0	0	0	0	0	0	0	0	0	0	0	0	0	0	0	0	0	0	0	0	0	0	0	0	0	0	0	0	0	0	0	0	0	0	0	0	0	0	0	0	0	0	0	0	0	0	0	0	0	0	0	0	0	0	0	0	0	0	0	0	0	0	0	0	0	0	0	0	0	0	0	0	0	0	0	0	0	0	0	0	0	0	0	0	0	0	0	0	0	0	0	0	0	0	0	0	0	0	0	0	0	0	0	0	0	0	0	0	0	0	0	0	0	0	0	0	0	0	0	0	0	0	0	0	0	0	0	0	0	0	0	0	0	0	0	0	0	0	0	0	0	0	0	0	0	0	0	0	0	0	0	0	0	0	0	0	0	0	0	0	0	0	0	0	0	0	0	0	0	0	0	0	0	0	0	0	0	0	0	0	0	0	0	0	0	0	0	0	0	0	0	0	0	0	0	0	0	0	0	0	0	0	0	0	0	0	0	0	0	0	0	0	0	0	0	0	0	0	0	0	0	0	0	0	0	0	0	0	0	0	0	0	0	0	0	0	0	0	0	0	0	0	0	0	0	0	0	0	0	0	0	0	0	0	0	0	0	0	0	0	0	0	0	0	0	0	0	0	0	0	0	0	0	0	0	0	0	0	0	0	0	0	0	0	0	0	0	0	0	0	0	0	0	0	0	0	0	0	0	0	0	0	0	0	0	0	0	0	1	2	2	3	4	7	12	17	20	22	25	27	29	32	35	38	42	44	46	48	50	52	53	54	56	58	59	61	62	63	63	63	63	65	66	68	70	71	73	75	77	79	80	79	77	74	72	69	67	65	63	60	58	56	55	54	54	54	53	53	51	50	48	46	44	42	40	37	34	31	30	29	30	30	29	29	30	30	30	31	32	33	33	32	31	30	30	30	29	29	30	30	32	34	35	38	40	40	41	45	51	53	52	48	45	43	42	41	41	41	41	40	38	37	39	41	43	45	47	48	50	53	56	58	60	62	65	66	68	71	72	73	75	77	78	80	81	81	82	83	84	84	84	85	86	87	87	87	87	87	88	88	88	88	88	88	89	90	90	90	89	88	88	88	89	91	94	96	97	98	99	101	102	103	104	104	105	106	108	110	114	116	118	121	124	126	128	129	130	132	135	137	140	141	144	146	148	150	152	154	156	158	160	162	164	166	167	168	169	170	170	170	170	169	168	168	167	167	166	165	165	165	165	164	163	162	161	161	160	159	158	157	157	156	155	155	154	153	153	152	151	150	149	148	147	146	145	143	142	141	141	141	140	139	138	136	135	135	135	136	135	134	133	132	132	131	131	132	132	134	137	142	143	141	137	137	138	140	141	143	145	146	148	150	152	153	154	155	156	156	156	156	156	156	155	153	151	149	146	144	142	139	137	135	132	130	128	125	122	119	116	114	111	109	106	104	103	101	98	96	94	92	89	86	84	84	83	81	79	77	76	75	74	73	73	71	70	70	69	68	68	68	68	69	69	70	70	70	69	69	70	70	69	68	67	68	70	70	69	68	67	61	60	61	60	59	58	57	57	57	58	59	60	62	65	67	68	67	67	67	68	70	71	72	73	73	74	75	77	78	77	77	78	78	79	80	80	81	83	84	85	86	88	88	89	90	90	89	88	87	85	84	82	81	80	79	77	76	75	73	71	70	70	70	69	69	68	67	66	66	65	65	64	64	64	65	65	65	65	66	66	66	65	64	63	61	60	58	55	53	51	51	51	50	48	46	45	44	44	43	43	42	41	41	40	40	39	37	36	35	34	33	34	35	35	34	34	34	33	33	33	33	34	35	36	36	36	37	38
100	99	98	97	96	95	94	94	94	92	90	90	91	92	91	90	88	87	85	83	80	79	79	80	80	79	77	76	76	75	74	73	71	70	69	69	68	67	68	72	77	78	77	76	75	73	67	63	61	59	57	57	57	57	56	55	54	55	56	58	59	60	60	59	59	59	57	55	53	53	53	53	53	52	52	52	52	51	50	50	50	48	48	47	47	48	48	48	47	46	44	43	43	42	42	41	41	40	39	38	37	35	33	31	29	27	26	25	23	22	20	19	18	15	11	8	5	4	3	3	2	2	2	2	1	0	0	0	0	0	0	0	0	0	0	0	0	0	0	0	0	0	0	0	0	0	0	0	0	0	0	0	0	0	0	0	0	0	0	0	0	0	0	0	0	0	0	0	0	0	0	0	0	0	0	0	0	0	0	0	0	0	0	0	0	0	0	0	0	0	0	0	0	0	0	0	0	0	0	0	0	0	0	0	0	0	0	0	0	0	0	0	0	0	0	0	0	0	0	0	0	0	0	0	0	0	0	0	0	0	0	0	0	0	0	0	0	0	0	0	0	0	0	0	0	0	0	0	0	0	0	0	0	0	0	0	0	0	0	0	0	0	0	0	0	0	0	0	0	0	0	0	0	0	0	0	0	0	0	0	0	0	0	0	0	0	0	0	0	0	0	0	0	0	0	0	0	0	0	0	0	0	0	0	0	0	0	0	0	0	0	0	0	0	0	0	0	0	0	0	0	0	0	0	0	0	0	0	0	0	0	0	0	0	0	0	0	0	0	0	0	0	0	0	0	0	0	0	0	0	0	0	0	0	0	0	0	0	0	0	0	0	0	0	0	0	0	0	0	0	0	0	0	0	0	0	0	0	0	0	0	0	0	0	0	0	0	0	0	0	0	0	0	0	0	0	0	0	0	0	0	0	0	0	0	0	0	0	0	0	0	0	0	0	0	0	0	0	0	0	0	0	0	0	0	0	0	0	0	0	0	0	0	0	0	0	0	0	0	0	0	0	0	0	0	0	0	0	0	0	0	0	0	0	0	0	0	0	0	0	0	0	0	0	0	0	0	0	0	0	0	0	0	0	0	0	0	0	0	0	0	0	0	0	0	0	0	0	0	0	0	0	0	0	0	0	0	0	0	0	0	0	0	0	0	0	0	0	0	0	1	2	2	2	3	5	8	13	17	20	21	24	26	29	31	34	37	40	43	45	47	48	50	52	53	55	58	59	61	63	64	64	64	65	66	68	69	72	73	75	77	79	80	81	80	78	76	73	71	69	67	64	62	60	58	57	56	56	56	55	54	53	51	49	47	45	42	40	37	34	32	31	30	30	30	30	30	30	31	31	32	32	33	33	33	32	31	31	30	29	29	30	32	33	35	37	39	41	41	43	48	53	53	50	48	46	45	44	43	43	43	42	42	40	39	40	42	44	46	48	50	51	54	56	59	61	63	65	68	70	72	74	75	77	79	80	82	83	84	85	86	87	87	87	88	89	90	90	90	89	89	90	90	90	90	90	90	91	91	92	92	92	91	90	89	89	90	93	96	97	98	99	100	102	103	104	105	107	107	109	112	115	117	118	121	124	126	127	129	130	132	135	138	140	142	144	146	149	151	153	155	157	159	161	163	164	165	166	168	169	170	170	170	170	169	169	168	168	167	166	166	166	166	166	165	164	163	163	162	161	160	159	158	157	157	156	155	154	153	152	152	151	150	149	148	146	145	144	143	142	142	141	141	140	139	138	136	135	135	134	133	133	134	136	135	134	131	130	131	133	135	140	143	144	142	138	137	138	140	141	142	144	146	148	150	152	153	154	155	156	156	157	157	157	157	156	154	152	149	146	144	141	138	136	134	132	129	127	124	121	118	116	113	111	108	106	104	103	101	98	96	94	93	91	88	87	86	85	83	81	78	76	76	75	74	72	71	71	70	70	69	68	69	70	70	71	71	71	71	70	70	71	71	70	68	68	67	68	69	69	68	65	60	62	63	61	58	56	55	54	55	56	58	59	60	63	66	67	66	65	64	66	68	69	70	70	71	72	73	75	75	75	76	76	77	77	78	80	81	82	83	85	86	87	87	88	89	89	88	87	85	84	83	82	81	80	79	77	76	75	73	72	71	70	70	69	68	67	66	65	65	65	65	65	64	64	64	64	64	64	65	65	65	64	63	62	61	59	57	55	52	51	50	50	49	47	45	44	43	43	42	42	41	40	40	39	39	38	37	36	35	34	33	34	35	34	34	33	33	33	33	33	34	34	35	35	35	35	36	37
101	99	98	97	97	98	97	96	95	93	92	92	91	91	90	90	90	89	87	85	84	83	82	82	82	81	80	79	78	77	76	74	73	72	71	71	70	70	70	72	74	75	76	77	77	76	70	64	62	60	59	58	58	58	57	56	56	57	58	59	61	62	62	61	62	61	61	59	57	56	55	55	56	55	55	54	54	53	53	52	52	51	51	51	50	49	49	50	49	48	47	46	46	45	44	43	43	42	41	40	39	37	34	32	30	28	27	25	24	23	22	21	19	16	12	9	6	4	3	3	2	2	2	2	2	1	1	0	0	0	0	0	0	0	0	0	0	0	0	0	0	0	0	0	0	0	0	0	0	0	0	0	0	0	0	0	0	0	0	0	0	0	0	0	0	0	0	0	0	0	0	0	0	0	0	0	0	0	0	0	0	0	0	0	0	0	0	0	0	0	0	0	0	0	0	0	0	0	0	0	0	0	0	0	0	0	0	0	0	0	0	0	0	0	0	0	0	0	0	0	0	0	0	0	0	0	0	0	0	0	0	0	0	0	0	0	0	0	0	0	0	0	0	0	0	0	0	0	0	0	0	0	0	0	0	0	0	0	0	0	0	0	0	0	0	0	0	0	0	0	0	0	0	0	0	0	0	0	0	0	0	0	0	0	0	0	0	0	0	0	0	0	0	0	0	0	0	0	0	0	0	0	0	0	0	0	0	0	0	0	0	0	0	0	0	0	0	0	0	0	0	0	0	0	0	0	0	0	0	0	0	0	0	0	0	0	0	0	0	0	0	0	0	0	0	0	0	0	0	0	0	0	0	0	0	0	0	0	0	0	0	0	0	0	0	0	0	0	0	0	0	0	0	0	0	0	0	0	0	0	0	0	0	0	0	0	0	0	0	0	0	0	0	0	0	0	0	0	0	0	0	0	0	0	0	0	0	0	0	0	0	0	0	0	0	0	0	0	0	0	0	0	0	0	0	0	0	0	0	0	0	0	0	0	0	0	0	0	0	0	0	0	0	0	0	0	0	0	0	0	0	0	0	0	0	0	0	0	0	0	0	0	0	0	0	0	0	0	0	0	0	0	0	0	0	0	0	0	0	0	0	0	0	0	0	0	0	0	0	0	0	0	0	0	0	0	0	0	0	0	0	0	0	0	0	0	0	0	0	1	2	3	2	3	4	7	9	13	18	19	20	23	25	28	31	33	35	38	41	43	45	47	49	50	52	55	57	59	62	63	64	65	65	66	67	69	71	73	74	76	78	80	81	81	81	79	77	74	72	70	67	65	63	61	60	58	58	58	58	57	56	55	53	51	48	45	43	41	38	36	34	33	32	31	30	30	30	30	31	32	33	33	33	34	34	33	33	32	31	30	30	31	33	35	36	38	40	41	42	44	50	54	53	50	48	48	47	47	46	46	45	45	44	42	41	41	43	45	48	50	52	54	56	57	60	62	64	66	69	71	73	75	77	79	81	82	84	85	86	88	88	89	89	90	91	92	93	93	93	92	92	92	92	92	92	92	92	92	93	94	94	94	93	92	91	90	91	93	96	97	98	99	100	102	104	105	106	107	108	109	113	116	117	119	121	123	125	127	129	131	133	135	138	140	142	144	147	150	152	154	155	158	159	161	163	164	165	166	167	168	169	169	169	169	169	169	169	168	167	167	167	166	166	166	166	165	164	164	163	162	161	160	159	158	157	156	155	154	153	152	151	150	149	148	147	146	145	144	143	142	141	140	140	140	139	137	134	133	133	132	131	132	135	137	137	135	132	130	131	133	136	140	142	141	138	137	137	138	140	141	142	144	146	148	151	152	153	155	156	156	157	157	158	158	158	157	154	151	148	146	143	141	138	135	133	131	128	126	123	120	118	115	113	110	107	105	104	103	101	98	95	94	93	91	89	88	87	86	84	82	78	76	76	75	74	73	72	71	71	71	70	69	70	71	72	72	72	72	72	71	71	71	71	70	69	68	67	67	69	69	68	64	59	62	64	63	58	55	53	53	53	54	56	58	59	60	62	63	63	62	62	64	66	67	68	69	70	70	71	72	73	74	74	75	75	76	78	79	80	81	83	84	85	86	86	87	88	87	86	85	84	83	82	81	80	79	78	77	76	74	73	72	71	70	69	69	68	66	65	64	65	65	65	65	64	63	63	63	64	64	64	65	65	64	63	62	60	59	57	54	52	51	50	50	48	45	44	44	43	42	42	41	40	40	39	38	37	37	36	35	34	34	34	34	34	34	33	33	33	33	33	33	34	34	34	35	35	35	35	36
102	100	99	98	99	99	99	97	96	94	94	93	91	89	86	88	90	91	90	88	87	86	85	84	84	84	83	82	81	80	80	78	77	76	75	74	73	72	72	73	74	73	74	77	79	76	70	65	63	61	61	60	60	60	59	58	58	59	60	62	63	64	63	63	63	64	63	62	60	59	58	58	58	57	57	57	56	56	55	54	53	54	55	55	53	52	51	51	51	50	49	48	48	47	46	45	45	45	43	41	40	38	36	33	31	29	27	26	26	25	24	22	20	17	13	10	7	6	5	4	3	3	2	2	2	2	2	2	1	1	1	0	0	0	0	0	0	0	0	0	0	0	0	0	0	0	0	0	0	0	0	0	0	0	0	0	0	0	0	0	0	0	0	0	0	0	0	0	0	0	0	0	0	0	0	0	0	0	0	0	0	0	0	0	0	0	0	0	0	0	0	0	0	0	0	0	0	0	0	0	0	0	0	0	0	0	0	0	0	0	0	0	0	0	0	0	0	0	0	0	0	0	0	0	0	0	0	0	0	0	0	0	0	0	0	0	0	0	0	0	0	0	0	0	0	0	0	0	0	0	0	0	0	0	0	0	0	0	0	0	0	0	0	0	0	0	0	0	0	0	0	0	0	0	0	0	0	0	0	0	0	0	0	0	0	0	0	0	0	0	0	0	0	0	0	0	0	0	0	0	0	0	0	0	0	0	0	0	0	0	0	0	0	0	0	0	0	0	0	0	0	0	0	0	0	0	0	0	0	0	0	0	0	0	0	0	0	0	0	0	0	0	0	0	0	0	0	0	0	0	0	0	0	0	0	0	0	0	0	0	0	0	0	0	0	0	0	0	0	0	0	0	0	0	0	0	0	0	0	0	0	0	0	0	0	0	0	0	0	0	0	0	0	0	0	0	0	0	0	0	0	0	0	0	0	0	0	0	0	0	0	0	0	0	0	0	0	0	0	0	0	0	0	0	0	0	0	0	0	0	0	0	0	0	0	0	0	0	0	0	0	0	0	0	0	0	0	0	0	0	0	0	0	0	0	0	0	0	0	0	0	0	0	0	0	0	0	0	0	0	0	0	0	0	0	0	0	0	0	0	0	0	0	0	0	0	0	0	0	0	0	0	0	0	0	0	0	0	0	0	0	0	0	0	0	0	0	0	0	1	1	2	2	5	10	12	13	15	18	19	20	22	24	27	30	32	34	36	39	41	44	46	48	50	52	55	58	60	62	63	64	64	65	67	68	70	71	73	74	77	79	80	81	81	81	80	77	75	73	71	69	67	65	63	62	60	59	59	59	59	58	56	55	52	49	46	44	42	39	37	35	34	33	32	30	30	30	31	32	33	34	34	34	35	35	35	35	34	33	33	33	33	35	36	37	39	41	42	43	46	51	54	53	51	50	50	50	49	49	48	48	47	46	45	43	42	44	47	49	51	53	55	57	59	61	63	65	68	70	72	75	77	79	81	83	84	86	87	89	90	91	91	92	93	94	95	95	95	95	95	94	94	94	94	94	94	94	95	95	96	96	96	95	94	93	92	92	94	96	97	98	99	100	102	104	105	106	108	109	110	113	116	117	119	121	123	125	127	129	131	134	136	138	141	143	146	148	151	153	154	156	158	160	161	163	164	165	166	167	168	168	169	169	169	169	169	169	168	167	167	167	167	167	167	167	166	165	164	163	162	161	160	159	159	158	157	156	155	153	152	150	150	148	148	147	145	144	144	143	143	142	140	139	139	139	137	134	133	132	132	132	132	133	135	135	133	131	130	131	133	135	138	139	138	136	137	137	139	140	142	144	146	147	149	151	152	153	154	156	156	157	157	157	158	158	157	154	150	148	145	143	140	138	135	133	131	128	126	123	121	118	115	112	110	107	105	103	102	100	97	95	94	93	91	90	89	88	87	85	82	79	77	76	75	74	73	72	71	71	71	71	70	70	72	73	73	72	72	72	72	72	72	71	71	70	69	67	68	69	69	67	62	58	62	63	61	56	54	53	52	52	52	54	58	60	60	59	59	60	59	60	62	64	65	67	67	68	68	69	70	71	72	73	73	74	75	77	79	80	81	82	83	84	85	85	86	86	86	85	84	83	82	81	80	79	79	78	77	76	74	73	73	71	70	69	68	67	66	65	65	65	65	64	64	63	62	62	63	63	63	64	64	64	64	63	61	60	58	56	54	52	51	50	49	47	45	44	43	43	42	41	40	39	39	38	37	36	36	35	34	33	33	33	34	34	33	33	32	33	33	33	33	33	33	33	34	34	34	34	35
103	101	99	98	99	100	100	99	97	96	95	95	93	90	85	85	87	89	90	90	89	88	86	85	86	86	86	85	84	84	83	83	82	81	80	78	76	75	75	75	75	73	73	75	76	73	69	66	64	63	63	62	62	61	60	60	60	61	64	65	66	66	65	65	65	66	65	64	63	62	61	60	60	59	59	59	58	57	56	55	55	56	58	58	56	55	54	53	53	52	52	51	50	49	49	48	48	48	45	43	40	39	37	34	33	31	29	28	27	27	26	23	20	17	13	10	8	7	6	4	3	3	3	3	3	4	5	5	4	3	2	2	1	1	0	0	0	0	0	0	0	0	0	0	0	0	0	0	0	0	0	0	0	0	0	0	0	0	0	0	0	0	0	0	0	0	0	0	0	0	0	0	0	0	0	0	0	0	0	0	0	0	0	0	0	0	0	0	0	0	0	0	0	0	0	0	0	0	0	0	0	0	0	0	0	0	0	0	0	0	0	0	0	0	0	0	0	0	0	0	0	0	0	0	0	0	0	0	0	0	0	0	0	0	0	0	0	0	0	0	0	0	0	0	0	0	0	0	0	0	0	0	0	0	0	0	0	0	0	0	0	0	0	0	0	0	0	0	0	0	0	0	0	0	0	0	0	0	0	0	0	0	0	0	0	0	0	0	0	0	0	0	0	0	0	0	0	0	0	0	0	0	0	0	0	0	0	0	0	0	0	0	0	0	0	0	0	0	0	0	0	0	0	0	0	0	0	0	0	0	0	0	0	0	0	0	0	0	0	0	0	0	0	0	0	0	0	0	0	0	0	0	0	0	0	0	0	0	0	0	0	0	0	0	0	0	0	0	0	0	0	0	0	0	0	0	0	0	0	0	0	0	0	0	0	0	0	0	0	0	0	0	0	0	0	0	0	0	0	0	0	0	0	0	0	0	0	0	0	0	0	0	0	0	0	0	0	0	0	0	0	0	0	0	0	0	0	0	0	0	0	0	0	0	0	0	0	0	0	0	0	0	0	0	0	0	0	0	0	0	0	0	0	0	0	0	0	0	0	0	0	0	0	0	0	0	0	0	0	0	0	0	0	0	0	0	0	0	0	0	0	0	0	0	0	0	0	0	0	0	0	0	0	0	0	0	0	0	0	0	0	0	0	0	0	0	0	0	0	0	1	1	2	8	15	17	17	17	18	19	21	22	24	27	29	32	34	36	38	41	44	46	48	50	53	56	59	60	62	63	64	65	66	68	69	71	72	73	75	78	80	81	81	81	82	81	78	76	74	73	71	69	67	65	64	62	61	61	61	60	59	57	55	53	50	47	44	42	40	38	36	36	34	32	31	31	31	32	33	34	35	36	36	37	37	38	37	36	35	35	35	35	36	37	38	40	41	42	44	48	52	52	52	52	52	53	53	52	51	50	49	48	47	46	44	44	45	48	50	52	54	56	58	60	62	64	66	69	71	74	76	79	81	82	84	86	88	89	90	91	93	94	95	96	96	97	98	98	97	97	96	95	95	95	96	96	96	96	97	98	98	98	98	97	96	95	95	95	95	96	98	99	101	103	104	105	107	108	109	111	114	116	117	119	121	123	125	127	129	132	134	137	139	142	145	147	149	152	153	155	157	158	160	162	163	164	165	166	167	167	168	168	168	168	169	170	170	168	167	168	168	168	168	167	167	167	166	165	164	163	162	161	160	159	158	157	156	155	154	152	150	149	148	148	147	145	144	144	144	143	142	140	139	139	139	137	135	133	132	132	132	132	133	133	133	132	131	131	132	134	136	136	136	138	137	137	138	139	141	143	145	146	148	149	151	152	153	154	155	156	156	156	156	156	156	155	152	149	147	145	143	141	138	136	133	131	129	126	124	121	118	115	113	110	107	105	103	101	99	97	95	94	93	92	91	90	89	87	85	82	80	78	76	75	74	73	72	71	71	72	71	70	71	73	73	73	72	72	73	73	73	73	72	71	70	69	67	68	70	68	66	60	57	58	57	55	54	54	53	52	51	50	53	58	60	60	58	56	56	57	58	61	63	64	65	65	66	66	67	67	68	69	70	71	72	73	76	79	80	80	80	82	83	83	84	84	84	84	83	82	81	80	80	80	79	78	77	76	75	74	73	73	72	70	70	69	67	66	65	65	65	65	64	63	63	62	62	62	62	62	63	64	64	64	63	61	59	57	55	53	52	51	50	48	46	45	44	43	42	41	40	39	39	38	37	36	35	35	34	33	33	32	33	33	33	32	32	32	32	33	33	33	32	32	32	33	34	34	34	34
104	102	100	99	100	101	101	100	98	96	96	95	93	92	89	85	84	85	86	87	88	87	85	84	85	87	88	88	87	86	85	85	85	84	83	81	79	78	77	77	76	74	73	73	73	71	69	68	66	65	65	64	64	63	62	62	62	64	67	68	68	68	68	68	68	68	67	66	65	64	63	62	62	61	61	61	60	59	58	57	56	57	59	59	58	57	56	56	55	55	54	54	53	53	52	51	51	49	47	44	41	40	38	36	34	33	32	30	30	29	27	24	21	17	13	10	8	7	6	4	4	4	3	4	5	6	8	8	6	5	4	4	3	2	1	0	0	0	0	0	0	0	0	0	0	0	0	0	0	0	0	0	0	0	0	0	0	0	0	0	0	0	0	0	0	0	0	0	0	0	0	0	0	0	0	0	0	0	0	0	0	0	0	0	0	0	0	0	0	0	0	0	0	0	0	0	0	0	0	0	0	0	0	0	0	0	0	0	0	0	0	0	0	0	0	0	0	0	0	0	0	0	0	0	0	0	0	0	0	0	0	0	0	0	0	0	0	0	0	0	0	0	0	0	0	0	0	0	0	0	0	0	0	0	0	0	0	0	0	0	0	0	0	0	0	0	0	0	0	0	0	0	0	0	0	0	0	0	0	0	0	0	0	0	0	0	0	0	0	0	0	0	0	0	0	0	0	0	0	0	0	0	0	0	0	0	0	0	0	0	0	0	0	0	0	0	0	0	0	0	0	0	0	0	0	0	0	0	0	0	0	0	0	0	0	0	0	0	0	0	0	0	0	0	0	0	0	0	0	0	0	0	0	0	0	0	0	0	0	0	0	0	0	0	0	0	0	0	0	0	0	0	0	0	0	0	0	0	0	0	0	0	0	0	0	0	0	0	0	0	0	0	0	0	0	0	0	0	0	0	0	0	0	0	0	0	0	0	0	0	0	0	0	0	0	0	0	0	0	0	0	0	0	0	0	0	0	0	0	0	0	0	0	0	0	0	0	0	0	0	0	0	0	0	0	0	0	0	0	0	0	0	0	0	0	0	0	0	0	0	0	0	0	0	0	0	0	0	0	0	0	0	0	0	0	0	0	0	0	0	0	0	0	0	0	0	0	0	0	0	0	0	0	0	0	0	0	0	0	0	0	0	0	0	0	0	1	1	1	1	1	2	4	12	17	19	19	20	20	21	22	24	26	29	31	33	35	37	40	42	45	47	49	52	55	58	60	61	63	65	66	67	69	70	71	72	73	74	77	79	81	82	81	82	82	81	79	77	75	74	72	71	69	67	65	64	63	63	62	61	59	57	55	53	50	48	45	43	41	39	37	36	35	34	33	33	33	33	34	35	36	37	38	39	40	40	40	39	37	36	36	37	37	39	40	41	42	44	47	50	52	52	55	57	59	59	58	55	53	52	51	50	49	47	46	46	47	49	51	53	55	57	59	61	63	66	68	70	72	75	77	80	82	84	86	88	90	91	92	93	94	96	97	98	99	100	100	100	100	100	99	98	97	97	97	98	98	98	99	100	100	100	100	100	99	98	97	96	96	97	98	100	102	104	104	106	107	109	110	112	114	116	117	118	120	122	125	127	129	132	135	138	140	143	146	148	150	152	154	156	157	159	161	162	163	164	165	166	167	167	167	167	167	168	170	171	171	169	168	168	168	168	168	168	168	168	168	167	166	164	163	162	161	160	159	158	157	156	155	153	151	150	149	148	147	146	145	145	144	144	143	142	140	139	138	138	136	134	133	133	133	133	133	133	133	132	132	132	134	137	140	138	137	138	139	139	139	140	141	143	144	146	147	149	150	151	153	154	155	155	156	156	155	154	153	152	150	148	147	145	143	141	139	137	134	131	129	127	124	122	119	116	113	110	108	105	103	101	99	98	97	95	94	93	92	90	89	87	84	82	80	78	77	76	75	73	72	72	73	72	71	71	71	73	73	73	72	72	73	73	74	74	73	72	71	68	66	66	67	67	63	58	57	56	54	53	53	53	52	52	51	51	52	55	58	57	54	53	53	54	56	59	61	62	62	63	64	65	65	66	67	68	68	69	70	72	75	78	79	78	79	81	82	82	83	83	83	83	82	81	80	80	80	79	79	78	77	76	75	74	73	73	72	71	70	69	68	67	66	65	64	64	63	63	63	62	62	62	61	62	63	64	64	63	62	60	58	56	54	52	51	50	49	47	46	45	44	42	40	40	40	39	38	38	37	36	35	34	34	33	32	32	32	32	32	32	33	33	32	32	33	32	32	31	31	32	33	34	34	34
104	102	100	100	101	101	101	100	98	97	97	95	94	93	92	88	84	83	84	84	85	84	83	83	83	84	86	86	85	85	86	86	86	85	85	84	82	81	81	80	78	77	76	75	73	72	70	69	67	67	66	66	65	65	64	64	65	67	69	70	70	70	70	71	71	71	69	68	67	66	65	64	63	63	63	62	61	60	59	59	58	58	59	60	60	59	58	58	58	57	57	56	56	55	54	53	52	50	47	45	43	41	40	38	36	35	34	33	32	30	28	25	21	18	14	11	8	6	5	5	4	5	6	8	10	11	11	10	9	7	6	5	4	3	2	1	0	0	0	0	0	0	0	0	0	0	0	0	0	0	0	0	0	0	0	0	0	0	0	0	0	0	0	0	0	0	0	0	0	0	0	0	0	0	0	0	0	0	0	0	0	0	0	0	0	0	0	0	0	0	0	0	0	0	0	0	0	0	0	0	0	0	0	0	0	0	0	0	0	0	0	0	0	0	0	0	0	0	0	0	0	0	0	0	0	0	0	0	0	0	0	0	0	0	0	0	0	0	0	0	0	0	0	0	0	0	0	0	0	0	0	0	0	0	0	0	0	0	0	0	0	0	0	0	0	0	0	0	0	0	0	0	0	0	0	0	0	0	0	0	0	0	0	0	0	0	0	0	0	0	0	0	0	0	0	0	0	0	0	0	0	0	0	0	0	0	0	0	0	0	0	0	0	0	0	0	0	0	0	0	0	0	0	0	0	0	0	0	0	0	0	0	0	0	0	0	0	0	0	0	0	0	0	0	0	0	0	0	0	0	0	0	0	0	0	0	0	0	0	0	0	0	0	0	0	0	0	0	0	0	0	0	0	0	0	0	0	0	0	0	0	0	0	0	0	0	0	0	0	0	0	0	0	0	0	0	0	0	0	0	0	0	0	0	0	0	0	0	0	0	0	0	0	0	0	0	0	0	0	0	0	0	0	0	0	0	0	0	0	0	0	0	0	0	0	0	0	0	0	0	0	0	0	0	0	0	0	0	0	0	0	0	0	0	0	0	0	0	0	0	0	0	0	0	0	0	0	0	0	0	0	0	0	0	0	0	0	0	0	0	0	0	0	0	0	0	0	0	0	0	0	0	0	0	0	0	0	0	0	0	0	0	0	0	1	1	2	2	3	3	2	4	8	15	19	21	22	23	23	23	24	27	30	32	34	35	37	39	41	44	46	48	52	55	58	60	62	63	65	67	70	71	72	73	74	74	75	76	78	80	82	82	82	82	82	81	79	78	76	75	73	72	70	69	67	66	65	64	63	62	60	58	56	54	51	48	46	44	42	40	39	37	36	36	36	35	35	36	36	37	38	38	39	40	40	40	40	40	38	38	38	38	39	40	42	43	44	46	48	50	52	56	61	63	64	63	61	59	56	54	53	52	50	48	47	47	48	50	52	55	57	59	60	63	65	67	69	71	74	76	78	81	83	85	87	89	91	92	93	94	96	98	100	101	102	102	103	102	102	102	101	100	99	99	100	100	100	100	101	101	102	102	102	102	102	101	99	97	97	98	99	101	103	104	105	106	108	109	111	112	114	116	117	118	120	122	125	127	130	133	136	138	141	143	146	149	151	153	155	157	158	160	161	162	163	164	165	165	166	167	166	166	167	168	170	172	172	170	168	168	168	169	169	169	169	169	168	168	167	165	164	163	161	160	160	158	157	156	155	153	152	150	149	149	148	147	146	145	144	144	144	143	140	138	138	138	138	136	135	134	134	134	135	135	136	135	134	136	138	140	141	140	137	137	139	139	140	140	141	143	144	146	147	148	150	151	152	153	154	155	155	155	154	153	152	151	149	148	146	145	143	141	139	138	135	132	129	127	125	122	119	116	113	111	109	106	104	101	100	99	98	96	95	94	92	90	88	86	84	81	80	78	77	76	75	73	73	73	74	73	73	72	72	73	73	73	73	73	73	74	74	74	73	72	70	67	65	64	64	64	60	56	57	56	54	54	54	52	51	51	52	52	52	52	52	51	50	50	51	52	54	57	59	60	60	60	62	63	63	64	66	66	67	68	69	71	73	76	76	77	78	80	81	81	82	82	82	82	81	81	80	80	79	79	78	78	77	76	75	74	74	73	72	72	71	70	69	67	66	65	64	63	63	63	62	61	61	61	60	60	61	62	62	61	60	59	57	55	53	51	50	49	48	47	46	45	43	41	40	40	40	39	38	38	38	36	34	33	33	32	31	31	32	31	31	32	34	33	32	31	32	32	31	30	30	30	32	33	33	33
103	101	101	102	103	102	101	101	99	98	97	96	94	93	93	90	86	84	84	85	84	84	84	83	83	83	83	83	83	83	83	84	83	84	84	84	84	84	84	83	82	81	80	79	77	74	72	70	69	69	68	68	67	67	66	66	67	68	70	72	72	73	73	73	73	72	71	70	69	68	67	66	65	65	64	64	63	62	61	61	60	60	60	61	61	60	60	60	59	59	58	58	57	56	55	53	52	50	48	46	44	43	42	40	38	37	36	35	33	32	30	26	22	18	15	12	9	8	7	7	8	10	12	15	16	16	14	13	12	10	8	7	5	4	3	2	1	0	0	0	0	0	0	0	0	0	0	0	0	0	0	0	0	0	0	0	0	0	0	0	0	0	0	0	0	0	0	0	0	0	0	0	0	0	0	0	0	0	0	0	0	0	0	0	0	0	0	0	0	0	0	0	0	0	0	0	0	0	0	0	0	0	0	0	0	0	0	0	0	0	0	0	0	0	0	0	0	0	0	0	0	0	0	0	0	0	0	0	0	0	0	0	0	0	0	0	0	0	0	0	0	0	0	0	0	0	0	0	0	0	0	0	0	0	0	0	0	0	0	0	0	0	0	0	0	0	0	0	0	0	0	0	0	0	0	0	0	0	0	0	0	0	0	0	0	0	0	0	0	0	0	0	0	0	0	0	0	0	0	0	0	0	0	0	0	0	0	0	0	0	0	0	0	0	0	0	0	0	0	0	0	0	0	0	0	0	0	0	0	0	0	0	0	0	0	0	0	0	0	0	0	0	0	0	0	0	0	0	0	0	0	0	0	0	0	0	0	0	0	0	0	0	0	0	0	0	0	0	0	0	0	0	0	0	0	0	0	0	0	0	0	0	0	0	0	0	0	0	0	0	0	0	0	0	0	0	0	0	0	0	0	0	0	0	0	0	0	0	0	0	0	0	0	0	0	0	0	0	0	0	0	0	0	0	0	0	0	0	0	0	0	0	0	0	0	0	0	0	0	0	0	0	0	0	0	0	0	0	0	0	0	0	0	0	0	0	0	0	0	0	0	0	0	0	0	0	0	0	0	0	0	0	0	0	0	0	0	0	0	0	0	0	0	0	0	0	0	0	0	0	0	0	0	0	0	0	0	0	0	0	0	0	0	0	1	2	3	3	4	4	5	10	15	19	21	23	25	26	26	26	28	31	33	35	36	37	39	41	43	45	47	50	54	58	61	63	64	65	67	69	72	74	75	75	76	77	77	78	79	81	82	83	83	82	82	81	79	78	77	76	74	73	71	70	68	68	67	66	65	63	60	58	57	55	52	49	47	45	44	42	40	39	38	37	37	37	37	37	38	38	39	39	40	40	41	40	41	40	40	40	41	41	41	42	43	45	46	48	50	51	54	60	64	65	65	65	64	63	60	56	55	53	51	49	48	48	50	51	54	56	58	60	62	64	66	68	70	73	75	77	79	81	84	86	88	91	93	94	95	96	98	100	102	103	104	105	105	104	104	103	103	102	102	102	102	102	102	102	103	103	103	103	103	103	103	103	102	99	98	99	100	101	103	104	105	106	108	109	111	112	114	115	116	118	121	123	126	128	131	133	136	139	141	144	147	149	151	154	156	157	159	160	161	162	163	164	164	165	166	166	165	165	166	168	170	171	171	170	168	168	169	169	169	170	170	170	169	168	167	166	165	164	162	161	161	159	158	157	156	154	153	151	150	149	148	147	146	145	145	144	144	143	141	139	138	139	139	138	137	136	136	136	137	138	138	137	137	138	139	140	141	140	138	138	140	140	139	139	141	143	145	146	146	148	149	150	152	153	153	154	154	154	154	153	152	151	149	148	146	144	143	141	140	138	135	133	130	128	125	123	120	117	114	111	109	107	104	102	100	99	98	97	95	93	91	89	88	86	83	82	80	78	78	77	75	74	73	73	75	76	76	75	74	74	74	74	73	73	74	74	74	73	72	70	68	65	63	62	62	61	57	56	57	56	55	55	54	52	50	50	50	51	51	50	49	48	49	49	50	51	53	55	56	57	57	58	59	61	61	62	63	64	65	67	69	70	72	73	74	76	78	79	80	80	80	81	81	81	80	80	79	79	79	78	78	77	76	76	75	75	74	73	73	72	72	71	69	67	66	64	63	63	63	62	61	59	59	59	59	58	59	59	60	60	59	58	57	55	53	51	50	49	47	46	45	44	43	41	40	40	40	40	39	38	37	36	34	33	32	32	31	31	32	31	31	32	33	32	31	31	31	31	31	30	29	29	31	32	32	32
103	102	103	104	104	103	102	101	100	98	97	96	96	94	92	90	87	87	87	88	87	87	86	85	85	84	84	84	83	84	84	84	83	83	82	82	83	84	84	84	83	83	83	82	81	77	74	72	71	71	70	70	69	68	68	68	69	70	72	73	74	74	75	75	75	74	73	72	71	70	69	69	68	66	66	65	65	64	63	63	62	62	63	63	63	62	62	62	62	61	60	59	58	57	56	54	52	50	49	47	45	44	43	41	39	38	37	36	35	34	31	28	24	20	16	14	12	12	12	12	13	16	19	20	20	19	18	17	15	13	11	9	7	5	3	2	1	0	0	0	0	0	0	0	0	0	0	0	0	0	0	0	0	0	0	0	0	0	0	0	0	0	0	0	0	0	0	0	0	0	0	0	0	0	0	0	0	0	0	0	0	0	0	0	0	0	0	0	0	0	0	0	0	0	0	0	0	0	0	0	0	0	0	0	0	0	0	0	0	0	0	0	0	0	0	0	0	0	0	0	0	0	0	0	0	0	0	0	0	0	0	0	0	0	0	0	0	0	0	0	0	0	0	0	0	0	0	0	0	0	0	0	0	0	0	0	0	0	0	0	0	0	0	0	0	0	0	0	0	0	0	0	0	0	0	0	0	0	0	0	0	0	0	0	0	0	0	0	0	0	0	0	0	0	0	0	0	0	0	0	0	0	0	0	0	0	0	0	0	0	0	0	0	0	0	0	0	0	0	0	0	0	0	0	0	0	0	0	0	0	0	0	0	0	0	0	0	0	0	0	0	0	0	0	0	0	0	0	0	0	0	0	0	0	0	0	0	0	0	0	0	0	0	0	0	0	0	0	0	0	0	0	0	0	0	0	0	0	0	0	0	0	0	0	0	0	0	0	0	0	0	0	0	0	0	0	0	0	0	0	0	0	0	0	0	0	0	0	0	0	0	0	0	0	0	0	0	0	0	0	0	0	0	0	0	0	0	0	0	0	0	0	0	0	0	0	0	0	0	0	0	0	0	0	0	0	0	0	0	0	0	0	0	0	0	0	0	0	0	0	0	0	0	0	0	0	0	0	0	0	0	0	0	0	0	0	0	0	0	0	0	0	0	0	0	0	0	0	0	0	0	0	0	0	0	0	0	0	0	0	0	0	0	0	1	2	3	3	5	9	12	16	19	21	23	26	28	29	28	28	30	33	35	36	38	39	41	42	44	47	49	52	55	59	61	64	66	67	68	70	73	75	76	77	78	79	79	80	81	82	83	84	84	84	83	81	80	78	78	77	75	74	73	71	70	69	68	67	66	64	62	60	58	56	53	51	49	47	45	44	43	41	40	39	38	38	38	39	39	40	40	40	40	41	41	42	42	42	42	42	43	43	43	44	45	46	48	50	51	52	56	62	65	66	66	66	66	66	63	58	56	55	53	50	49	49	51	54	56	58	60	62	64	66	68	70	72	74	76	78	80	83	85	87	89	92	94	96	97	98	99	101	104	106	106	107	107	107	106	105	104	104	104	104	104	104	104	104	104	105	105	105	105	105	105	105	103	101	100	101	101	101	102	104	105	106	108	109	110	112	113	115	117	119	121	124	127	130	132	134	136	139	141	144	146	149	151	154	156	158	160	161	162	162	163	163	164	164	165	165	165	165	165	166	167	168	168	168	168	168	169	170	170	170	171	170	170	169	168	167	166	165	163	162	162	160	158	157	156	155	153	152	151	150	149	148	147	145	145	145	144	144	142	140	140	140	139	139	138	138	137	137	138	139	139	139	139	139	139	140	140	139	138	140	142	141	138	138	140	143	145	145	146	147	148	150	151	152	153	153	153	153	153	153	152	151	150	148	146	144	143	142	140	137	135	133	130	128	126	123	121	118	114	112	110	107	105	102	100	99	98	97	95	93	91	89	88	86	84	82	80	79	78	78	76	75	73	74	76	78	78	77	75	75	75	74	73	73	74	74	73	71	70	68	66	63	62	61	60	57	55	56	57	56	55	54	53	51	50	49	49	50	50	48	47	48	49	49	50	50	52	53	54	55	56	57	58	59	59	60	61	62	63	65	67	69	71	72	74	75	77	77	78	78	79	79	80	80	80	79	78	78	78	78	77	77	76	75	75	74	74	73	72	71	71	70	69	67	65	64	63	63	62	61	59	58	58	58	57	57	57	58	58	58	58	57	56	54	53	51	50	48	47	45	44	43	42	42	41	40	40	39	38	38	37	36	34	33	32	31	31	31	31	31	30	31	32	32	32	31	31	31	30	30	29	29	30	31	31	31
104	104	104	105	104	103	102	101	101	99	98	97	96	94	92	90	89	89	90	89	89	89	88	88	87	86	86	87	86	86	87	87	87	86	84	83	83	82	82	82	83	83	84	84	83	81	77	75	74	73	72	72	71	70	69	70	71	72	74	75	77	78	78	78	77	77	76	75	73	72	71	71	69	68	68	67	67	66	65	65	64	65	66	66	65	65	65	65	64	63	61	60	59	58	56	55	53	51	50	48	47	45	44	42	41	39	39	38	36	35	32	29	26	21	17	15	16	18	18	18	19	21	22	23	23	23	21	20	18	16	13	10	7	5	3	3	2	1	1	0	0	0	0	0	0	0	0	0	0	0	0	0	0	0	0	0	0	0	0	0	0	0	0	0	0	0	0	0	0	0	0	0	0	0	0	0	0	0	0	0	0	0	0	0	0	0	0	0	0	0	0	0	0	0	0	0	0	0	0	0	0	0	0	0	0	0	0	0	0	0	0	0	0	0	0	0	0	0	0	0	0	0	0	0	0	0	0	0	0	0	0	0	0	0	0	0	0	0	0	0	0	0	0	0	0	0	0	0	0	0	0	0	0	0	0	0	0	0	0	0	0	0	0	0	0	0	0	0	0	0	0	0	0	0	0	0	0	0	0	0	0	0	0	0	0	0	0	0	0	0	0	0	0	0	0	0	0	0	0	0	0	0	0	0	0	0	0	0	0	0	0	0	0	0	0	0	0	0	0	0	0	0	0	0	0	0	0	0	0	0	0	0	0	0	0	0	0	0	0	0	0	0	0	0	0	0	0	0	0	0	0	0	0	0	0	0	0	0	0	0	0	0	0	0	0	0	0	0	0	0	0	0	0	0	0	0	0	0	0	0	0	0	0	0	0	0	0	0	0	0	0	0	0	0	0	0	0	0	0	0	0	0	0	0	0	0	0	0	0	0	0	0	0	0	0	0	0	0	0	0	0	0	0	0	0	0	0	0	0	0	0	0	0	0	0	0	0	0	0	0	0	0	0	0	0	0	0	0	0	0	0	0	0	0	0	0	0	0	0	0	0	0	0	0	0	0	0	0	0	0	0	0	0	0	0	0	0	0	0	0	0	0	0	0	0	0	0	0	0	0	0	0	0	0	0	0	0	0	0	0	0	0	0	0	1	2	3	3	6	13	16	19	21	23	25	29	31	31	31	31	32	33	35	38	39	41	43	45	47	49	51	54	57	60	62	65	67	69	71	72	74	76	78	79	80	81	82	83	83	83	84	85	85	86	84	82	80	79	79	78	77	75	74	73	72	71	70	69	67	65	63	61	59	57	54	52	50	49	47	46	45	43	42	40	39	39	40	40	40	41	41	42	42	43	43	43	44	44	43	44	44	44	44	45	46	48	50	51	52	53	57	63	66	67	68	67	67	67	64	60	57	56	54	52	50	51	53	56	57	59	61	63	65	67	69	71	73	75	77	79	82	84	86	88	90	93	95	97	98	100	101	103	106	108	109	109	109	109	109	107	106	106	106	106	106	106	106	106	107	107	107	107	107	106	106	106	105	103	103	103	104	103	104	105	106	107	108	109	111	112	113	115	117	120	122	124	128	131	133	135	137	139	142	144	146	149	151	153	155	158	160	161	162	162	163	163	164	164	164	164	164	164	164	164	165	165	166	166	167	168	169	170	171	171	171	171	170	170	169	168	167	165	164	163	162	161	159	158	157	155	154	153	151	150	149	148	147	146	146	145	145	144	143	142	142	141	140	140	139	138	138	139	140	141	141	140	140	140	140	140	139	138	138	141	143	141	138	138	140	142	143	144	145	146	148	149	150	151	152	153	153	153	153	153	152	151	150	148	146	145	143	142	140	138	135	133	130	128	126	124	121	118	115	112	110	108	106	103	101	100	99	97	95	93	91	89	87	85	84	82	81	80	79	79	78	76	74	74	77	79	80	78	77	75	75	74	73	73	72	72	71	69	67	66	65	63	61	59	57	54	54	56	57	56	55	54	52	51	50	48	48	49	48	47	46	46	47	48	49	48	49	51	53	54	55	56	57	58	58	58	59	60	62	64	66	68	70	71	73	75	76	76	77	77	78	79	79	79	79	78	78	77	77	77	77	76	76	75	74	74	73	72	71	70	70	69	68	66	64	64	63	62	61	59	58	57	57	57	57	56	56	57	57	57	57	56	55	54	52	51	49	48	46	45	43	42	42	41	41	40	39	38	38	37	37	36	35	34	32	31	30	30	30	30	30	31	32	32	31	30	30	30	30	29	29	29	30	30	31	31
105	105	106	105	105	104	103	102	101	100	99	98	97	94	92	90	90	91	91	90	90	90	89	89	88	87	89	90	91	90	90	90	90	89	88	87	86	85	84	83	82	82	83	83	84	83	81	78	77	75	74	73	73	72	71	72	73	75	77	79	81	82	83	82	81	81	80	78	76	75	73	72	71	70	69	69	68	68	67	67	66	67	67	67	67	67	68	67	66	64	63	61	59	58	57	56	54	53	51	49	48	46	45	43	42	41	40	40	38	36	33	30	26	21	18	18	19	21	22	22	22	23	25	26	26	26	25	23	20	18	14	11	8	5	4	4	4	3	3	2	1	0	0	0	0	0	0	0	0	0	0	0	0	0	0	0	0	0	0	0	0	0	0	0	0	0	0	0	0	0	0	0	0	0	0	0	0	0	0	0	0	0	0	0	0	0	0	0	0	0	0	0	0	0	0	0	0	0	0	0	0	0	0	0	0	0	0	0	0	0	0	0	0	0	0	0	0	0	0	0	0	0	0	0	0	0	0	0	0	0	0	0	0	0	0	0	0	0	0	0	0	0	0	0	0	0	0	0	0	0	0	0	0	0	0	0	0	0	0	0	0	0	0	0	0	0	0	0	0	0	0	0	0	0	0	0	0	0	0	0	0	0	0	0	0	0	0	0	0	0	0	0	0	0	0	0	0	0	0	0	0	0	0	0	0	0	0	0	0	0	0	0	0	0	0	0	0	0	0	0	0	0	0	0	0	0	0	0	0	0	0	0	0	0	0	0	0	0	0	0	0	0	0	0	0	0	0	0	0	0	0	0	0	0	0	0	0	0	0	0	0	0	0	0	0	0	0	0	0	0	0	0	0	0	0	0	0	0	0	0	0	0	0	0	0	0	0	0	0	0	0	0	0	0	0	0	0	0	0	0	0	0	0	0	0	0	0	0	0	0	0	0	0	0	0	0	0	0	0	0	0	0	0	0	0	0	0	0	0	0	0	0	0	0	0	0	0	0	0	0	0	0	0	0	0	0	0	0	0	0	0	0	0	0	0	0	0	0	0	0	0	0	0	0	0	0	0	0	0	0	0	0	0	0	0	0	0	0	0	0	0	0	0	0	0	0	0	0	0	0	0	0	0	0	0	0	0	0	0	0	0	0	0	0	0	1	2	3	7	14	17	20	22	25	28	31	33	33	34	34	34	35	37	39	41	43	45	47	49	51	53	56	59	62	64	66	68	71	73	74	76	78	80	81	83	84	85	85	85	85	85	85	86	86	85	83	81	80	80	79	78	76	75	75	74	73	72	71	69	67	65	63	61	58	56	54	52	51	50	48	46	45	43	42	42	41	41	41	42	42	43	44	45	46	46	46	46	46	46	46	46	45	45	46	47	49	51	52	54	57	61	65	67	68	69	69	68	66	63	60	58	57	55	53	51	52	54	57	59	61	63	65	66	68	70	72	75	77	79	81	83	85	87	89	91	93	96	98	100	102	103	106	108	110	111	112	112	112	111	109	108	108	108	108	108	108	109	109	109	109	109	109	109	108	108	108	107	106	105	106	106	107	107	107	107	107	108	110	112	113	114	116	118	121	122	124	128	132	135	136	138	140	142	144	146	148	151	153	155	157	159	161	162	162	163	163	163	163	163	163	163	163	163	164	164	164	165	166	167	168	170	171	171	171	171	171	171	170	169	168	167	166	165	164	163	162	160	159	157	156	155	153	151	150	149	149	149	148	147	146	146	145	144	143	143	142	141	140	139	139	139	140	142	143	143	141	140	141	141	141	140	140	140	141	142	141	139	139	140	141	142	143	144	146	147	149	149	150	152	153	154	154	154	154	153	152	150	148	147	145	143	142	140	138	135	133	131	129	127	124	122	118	115	113	110	108	106	104	102	100	99	97	96	94	92	89	87	85	83	82	81	81	80	79	78	77	75	75	76	78	79	78	77	76	75	74	74	73	71	70	69	67	66	66	65	63	61	58	55	53	53	56	56	54	54	53	52	51	50	49	48	48	47	47	46	45	45	46	47	48	48	49	51	54	55	56	57	57	57	57	58	60	62	65	66	67	69	70	72	74	75	75	76	76	77	78	78	78	78	77	77	76	76	76	76	76	75	75	74	73	72	71	70	69	68	67	66	65	64	63	62	60	59	57	56	56	56	56	56	55	55	55	56	56	55	55	54	53	52	50	49	47	46	44	42	41	41	40	40	39	38	37	37	37	36	36	35	34	33	32	30	30	29	30	31	31	31	30	30	29	29	29	30	29	29	29	29	30	31	31
106	106	106	105	105	104	103	103	102	101	100	99	97	94	92	91	91	92	92	91	90	90	90	90	90	90	93	94	94	95	94	93	92	92	91	91	90	89	88	86	85	83	82	82	84	84	83	81	80	78	77	76	76	75	74	74	76	78	80	82	84	85	85	85	85	84	83	82	80	78	76	75	73	72	71	71	70	70	69	69	68	69	69	69	69	69	69	69	67	65	63	62	60	59	58	57	56	54	52	51	49	48	46	45	44	43	42	41	40	38	35	32	26	21	19	21	23	24	24	24	24	25	27	28	28	28	27	25	22	19	16	13	10	7	7	7	6	6	6	4	3	1	0	0	0	0	0	0	0	0	0	0	0	0	0	0	0	0	0	0	0	0	0	0	0	0	0	0	0	0	0	0	0	0	0	0	0	0	0	0	0	0	0	0	0	0	0	0	0	0	0	0	0	0	0	0	0	0	0	0	0	0	0	0	0	0	0	0	0	0	0	0	0	0	0	0	0	0	0	0	0	0	0	0	0	0	0	0	0	0	0	0	0	0	0	0	0	0	0	0	0	0	0	0	0	0	0	0	0	0	0	0	0	0	0	0	0	0	0	0	0	0	0	0	0	0	0	0	0	0	0	0	0	0	0	0	0	0	0	0	0	0	0	0	0	0	0	0	0	0	0	0	0	0	0	0	0	0	0	0	0	0	0	0	0	0	0	0	0	0	0	0	0	0	0	0	0	0	0	0	0	0	0	0	0	0	0	0	0	0	0	0	0	0	0	0	0	0	0	0	0	0	0	0	0	0	0	0	0	0	0	0	0	0	0	0	0	0	0	0	0	0	0	0	0	0	0	0	0	0	0	0	0	0	0	0	0	0	0	0	0	0	0	0	0	0	0	0	0	0	0	0	0	0	0	0	0	0	0	0	0	0	0	0	0	0	0	0	0	0	0	0	0	0	0	0	0	0	0	0	0	0	0	0	0	0	0	0	0	0	0	0	0	0	0	0	0	0	0	0	0	0	0	0	0	0	0	0	0	0	0	0	0	0	0	0	0	0	0	0	0	0	0	0	0	0	0	0	0	0	0	0	0	0	0	0	0	0	0	0	0	0	0	0	0	0	0	0	0	0	0	0	0	0	0	0	0	0	0	0	0	0	0	0	0	0	1	2	5	13	18	20	23	27	30	33	34	34	35	36	36	37	38	40	42	44	47	49	50	53	55	58	61	64	66	68	70	73	75	77	78	80	82	84	85	87	87	87	87	86	86	86	85	85	84	83	82	81	80	80	79	78	76	76	76	75	73	72	71	69	67	65	63	60	58	56	54	53	52	51	49	47	45	45	44	44	44	44	44	44	45	46	47	48	49	49	49	48	48	48	48	47	47	47	48	51	52	54	58	62	65	67	67	69	70	69	67	65	63	61	60	58	56	54	53	52	54	57	60	62	64	66	68	69	71	73	76	78	80	82	84	86	89	91	92	94	96	99	101	104	106	108	110	112	113	114	114	114	113	112	111	110	110	111	111	111	111	111	111	111	112	112	111	111	110	110	109	108	108	108	108	109	109	108	108	108	110	112	113	114	115	116	118	121	122	124	127	131	134	136	138	140	142	144	146	148	150	153	155	157	159	160	161	162	162	162	162	162	162	162	162	163	163	164	164	164	165	165	167	168	170	171	172	172	172	172	171	171	170	169	168	167	166	165	164	162	161	160	159	157	156	154	153	151	150	150	149	148	147	146	146	146	146	145	144	143	142	141	139	138	138	140	142	144	143	141	140	141	142	143	143	142	142	142	142	141	140	140	140	142	142	142	144	146	147	148	149	150	152	154	154	154	155	155	154	152	150	148	146	144	143	141	140	137	135	133	131	129	126	124	121	118	115	113	111	108	106	104	102	100	98	97	96	94	92	89	87	85	83	82	82	81	80	79	78	77	75	74	75	77	77	77	76	76	75	74	75	74	71	69	68	66	66	65	64	63	62	57	54	53	53	56	56	54	53	54	53	52	51	50	49	48	47	47	46	45	45	46	47	49	49	49	50	53	55	56	57	56	56	56	57	59	62	66	68	68	68	70	72	74	74	75	75	76	76	77	76	76	76	76	75	75	75	75	75	75	75	74	73	72	71	70	69	68	67	66	64	63	63	62	61	59	58	56	55	55	55	54	54	54	54	54	54	54	54	54	53	52	51	50	48	46	45	44	42	41	40	40	39	38	37	36	36	36	36	35	35	34	33	32	30	29	29	29	30	31	30	30	29	29	29	29	30	29	29	29	29	30	31	31
107	107	106	106	105	105	104	103	103	102	101	98	96	94	94	94	94	94	94	94	93	92	92	92	93	93	95	96	96	97	97	95	94	94	94	94	93	92	91	90	89	87	84	82	82	84	85	84	83	82	81	80	80	79	77	78	79	82	83	85	86	85	84	85	85	86	85	85	84	82	80	78	76	74	73	72	72	71	71	71	71	71	71	71	70	70	70	70	68	66	64	63	61	60	60	58	57	55	54	52	51	49	48	47	46	45	44	43	42	39	36	33	25	21	23	25	27	27	26	26	26	27	29	29	29	29	29	28	25	22	19	16	14	12	11	10	9	9	8	6	4	2	1	0	0	0	0	0	0	0	0	0	0	0	0	0	0	0	0	0	0	0	0	0	0	0	0	0	0	0	0	0	0	0	0	0	0	0	0	0	0	0	0	0	0	0	0	0	0	0	0	0	0	0	0	0	0	0	0	0	0	0	0	0	0	0	0	0	0	0	0	0	0	0	0	0	0	0	0	0	0	0	0	0	0	0	0	0	0	0	0	0	0	0	0	0	0	0	0	0	0	0	0	0	0	0	0	0	0	0	0	0	0	0	0	0	0	0	0	0	0	0	0	0	0	0	0	0	0	0	0	0	0	0	0	0	0	0	0	0	0	0	0	0	0	0	0	0	0	0	0	0	0	0	0	0	0	0	0	0	0	0	0	0	0	0	0	0	0	0	0	0	0	0	0	0	0	0	0	0	0	0	0	0	0	0	0	0	0	0	0	0	0	0	0	0	0	0	0	0	0	0	0	0	0	0	0	0	0	0	0	0	0	0	0	0	0	0	0	0	0	0	0	0	0	0	0	0	0	0	0	0	0	0	0	0	0	0	0	0	0	0	0	0	0	0	0	0	0	0	0	0	0	0	0	0	0	0	0	0	0	0	0	0	0	0	0	0	0	0	0	0	0	0	0	0	0	0	0	0	0	0	0	0	0	0	0	0	0	0	0	0	0	0	0	0	0	0	0	0	0	0	0	0	0	0	0	0	0	0	0	0	0	0	0	0	0	0	0	0	0	0	0	0	0	0	0	0	0	0	0	0	0	0	0	0	0	0	0	0	0	0	0	0	0	0	0	0	0	0	0	0	0	0	0	0	0	0	0	0	0	0	0	0	0	0	1	2	3	10	18	21	24	28	32	35	36	35	36	37	38	39	40	42	43	45	47	50	52	54	57	59	62	64	67	69	71	74	76	78	80	82	85	86	88	89	89	89	89	88	86	86	85	84	83	83	82	81	81	80	80	78	77	77	77	76	75	74	73	71	69	66	64	62	60	58	56	55	54	53	51	49	48	47	46	46	46	47	47	47	47	48	49	50	51	51	51	50	50	50	50	50	50	50	50	52	53	55	61	64	65	65	66	68	69	68	66	65	64	63	61	59	58	57	55	54	54	57	60	63	66	68	69	71	72	74	77	79	81	83	85	88	90	92	94	95	97	100	103	106	109	110	112	114	116	116	116	116	115	114	113	112	112	112	113	113	113	114	114	114	114	114	114	113	112	112	111	110	110	110	110	110	111	110	109	109	111	113	114	114	115	116	118	121	122	124	127	130	133	135	137	140	142	144	145	147	150	152	154	156	158	159	160	161	162	162	161	161	162	162	162	162	163	164	164	164	164	165	166	167	169	171	172	172	172	172	172	172	171	170	169	168	167	166	165	163	162	161	160	158	157	155	154	153	152	151	150	149	147	146	146	146	147	147	145	144	143	142	140	139	138	140	141	143	143	142	141	141	143	144	144	144	143	143	143	142	141	140	141	142	142	143	144	146	146	147	149	150	152	154	154	154	155	155	154	152	150	148	146	144	142	141	139	137	135	133	131	129	126	123	121	118	115	113	111	108	106	104	102	100	98	96	95	93	91	89	87	85	83	82	81	80	79	78	78	77	75	74	75	75	75	75	75	75	75	75	75	74	71	69	68	67	66	65	64	63	62	59	55	53	53	56	57	55	54	54	54	52	52	51	50	48	47	47	47	46	45	46	47	49	50	50	50	51	53	55	57	56	55	55	56	58	61	65	67	67	68	69	71	72	73	74	74	74	75	75	75	74	74	74	74	74	74	74	74	74	74	73	72	71	70	69	68	67	65	64	63	62	62	61	60	59	58	56	54	54	54	53	53	54	54	54	54	53	53	53	52	51	50	49	47	45	44	43	42	40	39	39	38	37	36	36	36	36	35	35	34	33	33	32	31	29	28	28	29	30	30	30	29	28	29	29	29	28	28	28	28	29	30	31
108	108	107	107	106	106	105	104	103	102	100	97	95	95	96	97	96	95	96	97	96	94	94	94	94	95	96	97	98	99	98	97	97	97	97	97	96	95	94	93	91	90	87	83	82	84	86	86	85	84	84	83	83	82	81	82	84	85	86	86	84	83	82	83	83	84	85	85	85	85	83	81	80	78	76	75	74	73	73	73	73	73	73	73	72	72	71	70	68	66	65	64	63	62	61	59	58	56	55	53	52	51	49	48	48	47	46	45	43	40	36	31	24	23	27	29	30	29	28	28	28	29	30	31	31	31	32	32	31	27	24	21	19	17	16	15	13	11	9	7	5	3	2	0	0	0	0	0	0	0	0	0	0	0	0	0	0	0	0	0	0	0	0	0	0	0	0	0	0	0	0	0	0	0	0	0	0	0	0	0	0	0	0	0	0	0	0	0	0	0	0	0	0	0	0	0	0	0	0	0	0	0	0	0	0	0	0	0	0	0	0	0	0	0	0	0	0	0	0	0	0	0	0	0	0	0	0	0	0	0	0	0	0	0	0	0	0	0	0	0	0	0	0	0	0	0	0	0	0	0	0	0	0	0	0	0	0	0	0	0	0	0	0	0	0	0	0	0	0	0	0	0	0	0	0	0	0	0	0	0	0	0	0	0	0	0	0	0	0	0	0	0	0	0	0	0	0	0	0	0	0	0	0	0	0	0	0	0	0	0	0	0	0	0	0	0	0	0	0	0	0	0	0	0	0	0	0	0	0	0	0	0	0	0	0	0	0	0	0	0	0	0	0	0	0	0	0	0	0	0	0	0	0	0	0	0	0	0	0	0	0	0	0	0	0	0	0	0	0	0	0	0	0	0	0	0	0	0	0	0	0	0	0	0	0	0	0	0	0	0	0	0	0	0	0	0	0	0	0	0	0	0	0	0	0	0	0	0	0	0	0	0	0	0	0	0	0	0	0	0	0	0	0	0	0	0	0	0	0	0	0	0	0	0	0	0	0	0	0	0	0	0	0	0	0	0	0	0	0	0	0	0	0	0	0	0	0	0	0	0	0	0	0	0	0	0	0	0	0	0	0	0	0	0	0	0	0	0	0	0	0	0	0	0	0	0	0	0	0	0	0	0	0	0	0	0	0	0	0	0	0	0	0	0	0	0	1	1	2	7	18	22	25	29	33	36	37	37	37	38	39	41	42	43	44	46	48	50	53	55	57	60	62	64	67	70	72	75	78	79	82	84	86	88	90	91	91	91	90	88	87	86	85	83	83	82	82	81	80	80	79	79	78	78	78	78	77	76	74	73	71	68	66	64	62	60	58	57	55	54	52	51	50	49	49	48	48	49	49	49	50	51	52	53	53	54	53	53	52	52	52	52	52	52	52	53	54	57	61	63	63	64	66	67	68	67	67	66	65	64	63	61	60	59	58	57	56	57	61	65	67	69	71	72	74	76	78	80	82	84	87	89	91	93	95	97	99	102	104	107	110	112	114	117	118	119	119	118	117	116	114	114	114	114	115	115	116	116	116	117	117	116	116	115	115	114	113	112	112	112	112	112	112	111	110	110	112	114	114	115	115	117	119	121	122	124	127	130	132	135	137	139	141	143	145	147	149	151	153	155	157	158	159	160	160	161	161	161	161	161	161	162	163	163	164	164	165	166	167	168	169	171	172	172	173	173	173	173	172	171	170	169	168	167	166	164	163	161	160	159	157	156	155	154	153	152	151	150	149	148	147	146	147	148	146	144	144	143	141	140	139	139	140	142	143	143	143	143	144	144	144	144	143	143	143	142	142	141	142	142	143	143	144	145	146	147	148	150	152	153	154	154	154	154	153	151	149	147	145	144	142	140	139	137	135	134	132	129	126	123	120	117	115	113	111	108	105	103	101	99	97	95	94	91	89	88	87	86	84	82	80	79	78	77	76	76	75	75	74	74	74	75	75	75	76	75	75	73	71	70	69	68	67	66	65	64	63	62	59	56	54	54	55	55	56	55	55	53	52	51	49	48	48	47	46	45	46	46	47	48	49	50	49	49	51	53	54	54	54	55	56	58	61	63	64	65	67	68	70	71	72	72	73	73	74	74	74	73	73	73	73	74	74	74	74	73	73	72	71	70	69	68	67	65	64	63	62	61	60	59	59	58	57	55	54	53	53	52	52	53	54	54	53	53	52	52	51	50	49	48	46	45	44	43	41	39	38	37	37	36	35	36	35	35	35	34	33	32	32	32	31	30	29	28	28	28	29	29	29	28	28	28	28	28	27	28	28	28	29	30
108	109	109	109	108	107	106	105	104	103	100	97	96	98	101	100	97	96	97	98	98	97	95	95	96	97	99	100	101	101	99	99	99	100	100	99	98	97	96	95	94	92	89	86	83	82	84	85	84	84	84	84	83	84	84	84	86	85	84	83	82	82	83	82	82	82	82	83	85	85	84	83	83	82	80	78	77	76	75	75	75	75	75	75	74	73	73	71	69	67	66	65	64	63	62	61	59	57	56	54	53	52	51	50	50	49	47	46	44	40	36	30	26	28	31	33	33	31	30	29	30	31	32	33	33	33	35	35	35	33	30	27	24	23	22	22	20	16	12	9	6	5	3	1	0	0	0	0	0	0	0	0	0	0	0	0	0	0	0	0	0	0	0	0	0	0	0	0	0	0	0	0	0	0	0	0	0	0	0	0	0	0	0	0	0	0	0	0	0	0	0	0	0	0	0	0	0	0	0	0	0	0	0	0	0	0	0	0	0	0	0	0	0	0	0	0	0	0	0	0	0	0	0	0	0	0	0	0	0	0	0	0	0	0	0	0	0	0	0	0	0	0	0	0	0	0	0	0	0	0	0	0	0	0	0	0	0	0	0	0	0	0	0	0	0	0	0	0	0	0	0	0	0	0	0	0	0	0	0	0	0	0	0	0	0	0	0	0	0	0	0	0	0	0	0	0	0	0	0	0	0	0	0	0	0	0	0	0	0	0	0	0	0	0	0	0	0	0	0	0	0	0	0	0	0	0	0	0	0	0	0	0	0	0	0	0	0	0	0	0	0	0	0	0	0	0	0	0	0	0	0	0	0	0	0	0	0	0	0	0	0	0	0	0	0	0	0	0	0	0	0	0	0	0	0	0	0	0	0	0	0	0	0	0	0	0	0	0	0	0	0	0	0	0	0	0	0	0	0	0	0	0	0	0	0	0	0	0	0	0	0	0	0	0	0	0	0	0	0	0	0	0	0	0	0	0	0	0	0	0	0	0	0	0	0	0	0	0	0	0	0	0	0	0	0	0	0	0	0	0	0	0	0	0	0	0	0	0	0	0	0	0	0	0	0	0	0	0	0	0	0	0	0	0	0	0	0	0	0	0	0	0	0	0	0	0	0	0	0	0	0	0	0	0	0	0	0	0	0	0	0	0	0	0	0	0	0	1	2	6	18	23	26	30	33	36	38	38	38	39	41	42	44	44	46	47	48	50	53	55	58	60	62	65	67	70	73	76	79	80	82	85	87	89	91	91	91	91	90	89	87	86	84	83	82	82	81	80	80	80	79	79	78	78	78	78	78	77	76	74	72	70	68	66	64	62	60	58	57	55	54	53	53	52	51	50	50	50	51	51	52	53	54	55	55	55	55	54	54	54	54	54	54	54	54	54	55	58	60	62	64	65	67	68	69	69	69	68	67	66	64	63	63	62	60	59	58	58	62	66	68	70	72	74	75	77	79	81	83	85	88	90	92	95	97	99	101	103	106	109	112	114	117	119	120	121	121	121	119	118	116	116	116	116	117	118	118	119	119	119	119	119	118	117	117	116	115	115	115	115	114	114	113	112	112	112	113	114	115	115	116	117	119	121	122	124	127	130	132	135	137	139	141	143	145	146	148	150	152	154	156	157	158	158	159	160	160	161	161	161	161	161	162	163	164	164	166	167	167	168	169	171	172	173	173	174	173	173	172	172	171	170	169	168	166	165	163	162	161	159	158	157	156	155	153	153	152	151	150	150	148	147	148	149	147	144	144	143	142	141	140	140	140	142	143	144	144	145	144	144	144	144	144	143	143	143	143	143	143	142	142	143	144	144	145	146	148	150	151	152	153	153	153	152	151	150	148	146	145	143	142	140	139	137	136	134	132	129	126	123	120	117	115	112	110	107	105	103	101	99	97	95	93	91	88	87	86	85	84	81	79	78	77	77	76	76	76	75	74	74	75	75	75	75	76	76	74	72	71	70	70	69	68	67	66	65	64	63	62	59	55	54	54	55	57	57	56	54	52	50	49	48	48	47	46	45	45	47	47	47	48	49	48	48	49	50	51	52	53	54	56	58	61	63	64	65	66	68	69	70	71	71	71	72	73	74	73	72	72	72	73	73	73	73	73	73	72	72	71	70	68	67	66	65	63	62	61	60	59	58	58	58	57	55	53	52	52	52	52	52	53	53	53	52	52	51	50	49	48	46	45	44	43	41	39	38	38	37	36	36	36	36	35	35	34	33	32	31	31	31	31	30	28	28	27	27	27	28	28	28	28	28	27	27	27	27	27	27	29	30
109	110	111	111	110	109	107	106	104	102	99	98	100	104	106	103	99	97	98	98	99	98	97	97	97	98	101	102	103	103	102	101	101	101	101	101	100	99	99	98	96	94	92	89	85	83	83	83	82	82	82	82	82	83	83	83	83	83	82	82	83	86	87	87	86	84	82	82	82	83	83	84	84	84	82	81	80	79	79	78	78	77	77	76	75	74	74	72	70	69	68	66	65	65	64	62	60	58	57	56	55	54	53	52	51	50	48	47	44	40	36	34	33	34	34	35	34	33	32	31	31	32	33	34	35	36	37	38	38	36	34	32	30	29	28	27	25	22	16	11	8	6	4	2	1	0	0	0	0	0	0	0	0	0	0	0	0	0	0	0	0	0	0	0	0	0	0	0	0	0	0	0	0	0	0	0	0	0	0	0	0	0	0	0	0	0	0	0	0	0	0	0	0	0	0	0	0	0	0	0	0	0	0	0	0	0	0	0	0	0	0	0	0	0	0	0	0	0	0	0	0	0	0	0	0	0	0	0	0	0	0	0	0	0	0	0	0	0	0	0	0	0	0	0	0	0	0	0	0	0	0	0	0	0	0	0	0	0	0	0	0	0	0	0	0	0	0	0	0	0	0	0	0	0	0	0	0	0	0	0	0	0	0	0	0	0	0	0	0	0	0	0	0	0	0	0	0	0	0	0	0	0	0	0	0	0	0	0	0	0	0	0	0	0	0	0	0	0	0	0	0	0	0	0	0	0	0	0	0	0	0	0	0	0	0	0	0	0	0	0	0	0	0	0	0	0	0	0	0	0	0	0	0	0	0	0	0	0	0	0	0	0	0	0	0	0	0	0	0	0	0	0	0	0	0	0	0	0	0	0	0	0	0	0	0	0	0	0	0	0	0	0	0	0	0	0	0	0	0	0	0	0	0	0	0	0	0	0	0	0	0	0	0	0	0	0	0	0	0	0	0	0	0	0	0	0	0	0	0	0	0	0	0	0	0	0	0	0	0	0	0	0	0	0	0	0	0	0	0	0	0	0	0	0	0	0	0	0	0	0	0	0	0	0	0	0	0	0	0	0	0	0	0	0	0	0	0	0	0	0	0	0	0	0	0	0	0	0	0	0	0	0	0	0	0	0	0	0	0	0	0	0	0	0	0	0	1	2	3	7	18	23	27	30	34	36	37	38	39	40	42	43	44	44	45	47	48	50	53	55	58	60	63	65	67	70	73	76	79	81	82	85	87	89	90	91	90	90	89	88	86	85	83	82	81	81	80	79	79	79	79	78	78	78	78	78	78	78	77	75	74	72	70	68	66	64	61	60	58	57	57	56	55	54	53	53	52	52	52	53	54	55	56	57	57	57	56	56	56	56	56	56	56	56	55	55	56	59	61	63	65	67	69	70	70	71	71	70	69	68	67	66	65	64	63	61	60	60	63	66	69	71	73	75	77	79	80	83	85	87	89	91	93	96	98	100	102	105	107	110	113	116	119	121	123	124	124	123	122	120	119	119	119	119	120	120	121	121	122	122	122	121	120	119	119	118	117	117	117	117	116	116	116	115	114	113	114	115	116	116	117	117	118	121	122	124	127	129	132	134	136	138	140	142	144	146	147	149	151	153	154	156	157	157	158	159	160	160	161	161	161	161	163	164	164	165	166	167	168	168	169	171	172	173	174	174	174	174	173	172	171	170	169	168	167	165	164	162	161	160	158	158	157	156	154	154	153	152	151	150	149	148	149	151	148	144	143	143	143	143	142	141	141	142	143	144	145	145	145	144	144	144	145	145	144	144	144	144	143	143	143	143	144	144	145	146	147	149	151	152	152	152	152	151	150	148	147	146	145	143	141	140	138	137	136	134	132	129	126	123	120	117	115	112	109	106	104	102	101	99	96	94	92	90	88	86	86	84	82	79	78	78	77	77	76	76	76	75	75	75	75	75	75	75	76	76	74	72	72	71	71	70	69	68	66	65	64	64	62	60	57	55	54	54	56	57	57	55	52	50	49	48	48	47	45	44	44	46	46	46	47	47	46	46	46	48	49	50	52	54	56	58	61	63	64	65	66	68	69	70	70	70	70	71	72	72	72	72	72	72	72	72	72	72	72	72	72	72	71	70	68	67	66	64	63	62	61	59	58	58	57	57	56	54	52	52	52	52	51	51	52	52	52	51	51	50	49	48	47	45	43	43	42	40	38	37	37	37	37	37	36	36	35	34	33	33	32	32	31	30	30	29	28	27	27	26	27	27	28	28	27	27	26	26	26	26	26	26	28	29
111	112	113	113	112	110	108	106	104	101	99	100	103	106	108	105	101	100	100	100	100	99	99	99	99	100	102	104	106	106	106	105	104	103	103	103	103	102	101	100	98	97	94	91	89	87	85	85	84	84	83	83	83	83	83	83	83	82	83	85	89	90	91	91	91	88	86	83	82	82	82	82	83	83	84	84	83	82	82	81	80	79	79	78	77	75	75	73	71	70	69	68	67	66	65	63	62	60	58	57	56	56	55	53	52	50	49	46	42	38	36	37	38	38	38	37	35	34	33	33	33	34	35	35	37	38	39	39	39	38	37	36	34	33	33	31	28	25	19	13	10	7	5	4	2	1	0	0	0	0	0	0	0	0	0	0	0	0	0	0	0	0	0	0	0	0	0	0	0	0	0	0	0	0	0	0	0	0	0	0	0	0	0	0	0	0	0	0	0	0	0	0	0	0	0	0	0	0	0	0	0	0	0	0	0	0	0	0	0	0	0	0	0	0	0	0	0	0	0	0	0	0	0	0	0	0	0	0	0	0	0	0	0	0	0	0	0	0	0	0	0	0	0	0	0	0	0	0	0	0	0	0	0	0	0	0	0	0	0	0	0	0	0	0	0	0	0	0	0	0	0	0	0	0	0	0	0	0	0	0	0	0	0	0	0	0	0	0	0	0	0	0	0	0	0	0	0	0	0	0	0	0	0	0	0	0	0	0	0	0	0	0	0	0	0	0	0	0	0	0	0	0	0	0	0	0	0	0	0	0	0	0	0	0	0	0	0	0	0	0	0	0	0	0	0	0	0	0	0	0	0	0	0	0	0	0	0	0	0	0	0	0	0	0	0	0	0	0	0	0	0	0	0	0	0	0	0	0	0	0	0	0	0	0	0	0	0	0	0	0	0	0	0	0	0	0	0	0	0	0	0	0	0	0	0	0	0	0	0	0	0	0	0	0	0	0	0	0	0	0	0	0	0	0	0	0	0	0	0	0	0	0	0	0	0	0	0	0	0	0	0	0	0	0	0	0	0	0	0	0	0	0	0	0	0	0	0	0	0	0	0	0	0	0	0	0	0	0	0	0	0	0	0	0	0	0	0	0	0	0	0	0	0	0	0	0	0	0	0	0	0	0	0	0	0	0	0	0	0	0	0	0	0	0	1	1	2	2	3	9	20	24	27	31	34	36	36	38	39	41	41	42	43	43	44	46	48	50	52	55	57	60	63	65	67	70	73	76	79	81	82	85	87	89	90	89	89	88	87	86	84	83	82	81	80	79	79	78	78	78	78	77	77	77	77	77	77	78	77	76	74	73	71	70	67	65	63	61	60	60	59	58	57	56	55	54	54	54	54	55	56	57	58	58	59	59	58	58	57	57	58	58	58	58	57	57	58	60	62	64	66	69	70	71	72	73	73	72	71	70	69	68	67	66	65	64	62	62	65	67	70	72	74	76	78	80	82	84	86	88	90	92	94	96	98	101	103	106	109	112	114	117	120	123	125	126	126	125	124	123	122	122	121	122	122	123	123	124	124	124	124	123	123	122	121	120	119	119	119	119	119	119	118	117	116	116	115	116	116	117	117	117	119	121	123	125	127	129	131	133	136	138	140	142	144	145	147	149	150	152	153	154	156	157	158	159	160	160	160	160	160	161	164	165	166	166	166	167	167	168	170	171	172	173	174	175	175	174	174	173	172	171	170	168	167	166	164	163	162	161	160	159	158	157	155	155	154	153	152	151	150	149	150	151	149	145	143	144	144	144	144	144	144	143	143	144	145	145	145	145	144	145	146	146	145	145	144	144	144	144	144	144	144	144	145	146	147	148	150	151	151	151	150	150	149	148	147	146	144	143	141	140	138	137	136	133	131	128	125	123	120	118	115	112	109	106	104	102	100	98	95	93	92	89	88	87	86	84	81	79	78	78	78	77	76	76	76	75	75	75	76	76	76	76	76	76	74	73	72	72	71	70	69	68	66	65	64	64	63	62	60	58	56	55	55	57	58	55	53	50	49	48	47	47	45	44	44	45	45	45	46	46	46	46	45	47	49	50	52	54	57	59	61	62	63	65	66	67	68	69	69	69	69	70	71	71	71	71	71	71	71	72	72	72	72	72	71	71	70	69	68	67	65	64	63	62	60	59	58	57	56	55	54	53	52	52	51	51	50	50	50	51	51	50	50	49	48	47	45	44	42	42	41	39	37	37	37	37	37	36	36	35	35	34	33	32	32	31	31	30	30	29	28	27	27	26	26	27	27	27	27	26	26	25	26	26	26	26	27	27
114	115	115	115	114	111	108	105	103	101	102	104	105	108	111	109	105	103	103	102	101	101	101	102	103	104	105	107	108	109	110	109	107	106	105	105	105	106	105	103	101	99	97	94	92	91	90	90	90	89	88	88	87	86	86	86	87	87	89	90	92	93	94	94	93	92	90	88	85	83	82	81	81	82	83	84	84	84	84	83	82	81	80	79	77	76	75	73	72	71	71	69	68	67	66	65	63	62	60	59	59	57	56	54	53	51	48	44	41	39	40	41	41	41	40	38	36	35	35	34	35	35	36	37	38	40	41	41	41	40	39	38	37	35	34	33	30	27	23	17	12	9	7	5	3	2	1	0	0	0	0	0	0	0	0	0	0	0	0	0	0	0	0	0	0	0	0	0	0	0	0	0	0	0	0	0	0	0	0	0	0	0	0	0	0	0	0	0	0	0	0	0	0	0	0	0	0	0	0	0	0	0	0	0	0	0	0	0	0	0	0	0	0	0	0	0	0	0	0	0	0	0	0	0	0	0	0	0	0	0	0	0	0	0	0	0	0	0	0	0	0	0	0	0	0	0	0	0	0	0	0	0	0	0	0	0	0	0	0	0	0	0	0	0	0	0	0	0	0	0	0	0	0	0	0	0	0	0	0	0	0	0	0	0	0	0	0	0	0	0	0	0	0	0	0	0	0	0	0	0	0	0	0	0	0	0	0	0	0	0	0	0	0	0	0	0	0	0	0	0	0	0	0	0	0	0	0	0	0	0	0	0	0	0	0	0	0	0	0	0	0	0	0	0	0	0	0	0	0	0	0	0	0	0	0	0	0	0	0	0	0	0	0	0	0	0	0	0	0	0	0	0	0	0	0	0	0	0	0	0	0	0	0	0	0	0	0	0	0	0	0	0	0	0	0	0	0	0	0	0	0	0	0	0	0	0	0	0	0	0	0	0	0	0	0	0	0	0	0	0	0	0	0	0	0	0	0	0	0	0	0	0	0	0	0	0	0	0	0	0	0	0	0	0	0	0	0	0	0	0	0	0	0	0	0	0	0	0	0	0	0	0	0	0	0	0	0	0	0	0	0	0	0	0	0	0	0	0	0	0	0	0	0	0	0	0	0	0	0	0	0	0	0	0	0	0	0	0	0	0	0	0	0	1	2	3	3	4	7	14	22	25	28	31	33	35	35	37	38	39	39	40	41	42	44	46	48	50	52	55	57	60	63	65	68	70	73	76	79	81	82	85	87	88	88	87	87	86	85	84	83	81	80	79	78	77	77	76	76	76	76	76	76	75	75	76	77	78	77	76	75	74	72	70	68	67	65	64	63	62	61	60	59	57	56	55	55	56	56	57	58	58	59	60	61	61	61	60	59	59	60	60	60	59	59	59	60	61	63	65	67	70	71	73	74	74	74	74	73	72	71	70	69	68	67	66	64	64	66	68	71	73	75	77	79	81	83	85	87	89	91	93	95	97	99	102	104	106	109	112	116	119	121	125	127	128	128	127	126	125	124	124	124	124	125	125	126	126	126	127	127	126	126	125	124	123	121	121	121	121	122	121	121	120	119	118	117	117	116	117	117	118	119	121	123	125	126	128	131	133	135	137	139	141	143	145	147	148	149	151	152	154	155	157	157	158	159	159	159	159	160	161	164	167	168	167	167	166	167	168	170	171	172	173	175	176	176	175	174	173	173	172	170	169	167	166	165	164	163	161	160	160	159	158	157	156	155	154	153	152	151	150	149	150	148	145	143	144	145	146	146	146	145	144	144	144	145	146	146	145	145	145	146	146	146	146	145	145	145	145	145	144	144	144	145	146	147	148	149	150	150	150	149	148	148	147	146	145	144	143	141	140	139	137	136	133	130	128	125	123	120	118	115	112	108	106	103	101	98	96	94	93	91	89	88	87	86	84	82	81	80	79	79	78	78	77	77	76	75	76	76	77	77	76	76	76	75	73	73	72	71	70	69	67	66	65	64	64	64	63	62	60	58	56	55	58	59	57	53	51	49	47	46	46	46	45	44	43	44	44	45	46	46	46	46	47	49	50	52	54	57	59	61	62	63	64	66	67	68	69	69	69	69	69	70	69	69	70	70	70	71	71	72	72	72	71	71	70	69	68	68	67	65	64	62	61	60	59	58	57	56	55	54	52	51	50	49	49	49	49	49	49	49	49	48	47	46	45	44	43	42	41	40	38	36	36	36	36	36	36	35	34	34	33	32	31	31	31	31	31	30	29	28	27	27	27	27	27	27	27	27	27	26	25	25	26	27	26	27	27
