50	53	57	60	62	63	65	66	66	65	65	66	68	69	70	71	72	74	75	77	78	80	81	83	84	85	85	85	85	84	83	83	82	82	82	83	84	84	84	84	84	84	84	84	85	86	86	86	87	87	87	87	89	91	94	96	100	105	107	107	106	105	104	102	100	99	97	95	93	90	87	85	82	80	77	74	71	68	65	61	59	56	53	49	47	45	42	39	36	33	30	27	25	23	20	18	16	15	14	14	14	12	9	8	6	5	4	3	2	1	0	0	0	0	0	0	0	0	0	0	0	0	0	0	0	0	0	0	0	0	0	0	0	0	0	0	0	0	0	0	0	0	0	0	0	0	0	0	0	0	0	0	0	0	0	0	0	0	0	0	0	0	0	0	0	0	0	0	0	0	0	0	0	0	0	0	0	0	0	0	0	0	0	0	0	0	0	0	0	0	0	0	0	0	0	0	0	0	0	0	0	0	0	0	0	0	0	0	0	0	0	0	0	0	0	0	0	0	0	0	0	0	0	0	0	0	0	0	0	0	0	0	0	0	0	0	0	0	0	0	0	0	0	0	0	0	0	0	0	0	0	0	0	0	0	0	0	0	0	0	0	0	0	0	0	0	0	0	0	0	0	0	0	0	0	0	0	0	0	0	0	0	0	0	0	0	0	0	0	0	0	0	0	0	0	0	0	0	0	0	0	0	0	0	0	0	0	0	0	0	0	0	0	0	0	0	0	0	0	0	0	0	0	0	0	0	0	0	0	0	0	0	0	0	0	0	0	0	0	0	0	0	0	0	0	0	0	0	0	0	0	0	0	0	0	0	0	0	0	0	0	0	0	0	0	0	0	0	0	0	0	0	0	0	0	0	0	0	0	0	0	0	0	0	0	0	0	0	0	0	0	0	0	0	0	0	0	0	0	0	0	0	0	0	0	0	0	0	0	0	0	0	0	0	0	0	0	0	0	0	0	0	0	0	0	0	0	0	0	0	0	0	0	0	0	0	0	0	0	0	0	0	0	0	0	0	0	0	0	0	0	0	0	0	0	0	0	0	0	0	0	0	0	0	0	0	0	0	0	0	0	0	0	0	0	0	0	0	0	0	0	0	0	0	0	0	0	0	0	0	0	0	0	0	0	0	0	0	0	0	0	0	0	0	0	0	0	0	0	0	0	0	0	0	0	0	0	0	0	0	0	0	0	0	0	0	0	0	0	0	0	0	0	0	0	0	0	0	0	0	0	0	0	0	0	0	0	0	0	0	0	0	0	0	0	0	0	0	0	0	0	0	0	0	0	0	0	0	0	0	0	0	0	0	0	0	0	0	0	0	0	0	0	0	0	0	0	0	0	0	1	1	3	5	7	11	16	20	24	28	32	34	37	40	42	43	44	45	47	49	51	55	57	59	60	62	64	67	69	72	75	77	80	82	84	86	90	93	96	99	101	103	104	105	106	109	113	115	116	116	116	115	115	116	119	120	117	118	122	124	124	123	122	120	119	119	120	120	119	119	119	118	118	118	118	118	118	118	118	118	118	118	118	119	120	120	120	119	118	118	117	117	116	116	116	116	116	116	116	116	116	116	116	117	118	118	118	118	117	116	115	115	116	114	112	111	110	110	109	110	109	108	106	104	100	97	96	98	96	92	89	87	87	87	87	87	87	87	87	85	85	88	90	90	92	93	91	88	89	90	92	95	98	101	103	105	106	106	104	103	103	104	104	104	103	101	99	97	98	99	98	97	97	99	100	100	100	101	103	104	105	106	106	106	106	107	107	107	107	107	107	105	104	103	103	102	101	101	101	101	100	98	97	95	94	92	91	89	87	86	84	82	81	80	79	78	76	75	75	75	75	75	74	73	71	69	67	65	64	63	62	62	62	61	61	61	59	57	54	53	52	51	51	51	49	47	45	44	43	42	42	41	42	42	42	43	44	44	46	49	51	51	52	52	52	51	50	49	48	47	47	46	44	43	42	42	41	41	40	38	36	35	35	36	36	35	33	33	33	35	35	35	35	35	34	33	32	32	32	31	28	26	25	24	22	20	19	19	21	21	21	22	23	25	27	27	27	27	29	31	34	35	34	36	41	44	45	47	48	50	52	54	55	56	57	57	57	57	57	56	56	55	55	53	51	49	47	44	38	32	26	22	15	10	12	15	18	20	21	20	20	19	20	21	22	22	22	23	23	22	21	20	17	14	11	9	8	5	2	1	1	1	0	0	0	0	0	0	0	0	0	0	0	0	0	0	0	0	0	0	0	0	0	0	0	0	0	0	0	0
48	51	55	57	59	61	63	64	66	66	65	65	65	67	68	69	70	71	73	74	76	78	79	80	82	82	82	82	81	80	80	79	79	79	79	80	81	81	81	80	81	81	81	82	83	83	83	83	83	83	84	85	87	90	93	95	99	103	106	107	106	104	103	101	99	97	96	94	91	89	86	83	81	78	75	72	69	66	62	59	56	53	50	47	45	42	39	36	33	31	28	26	24	22	20	17	15	15	15	15	17	17	12	9	7	6	4	3	2	1	0	0	0	0	0	0	0	0	0	0	0	0	0	0	0	0	0	0	0	0	0	0	0	0	0	0	0	0	0	0	0	0	0	0	0	0	0	0	0	0	0	0	0	0	0	0	0	0	0	0	0	0	0	0	0	0	0	0	0	0	0	0	0	0	0	0	0	0	0	0	0	0	0	0	0	0	0	0	0	0	0	0	0	0	0	0	0	0	0	0	0	0	0	0	0	0	0	0	0	0	0	0	0	0	0	0	0	0	0	0	0	0	0	0	0	0	0	0	0	0	0	0	0	0	0	0	0	0	0	0	0	0	0	0	0	0	0	0	0	0	0	0	0	0	0	0	0	0	0	0	0	0	0	0	0	0	0	0	0	0	0	0	0	0	0	0	0	0	0	0	0	0	0	0	0	0	0	0	0	0	0	0	0	0	0	0	0	0	0	0	0	0	0	0	0	0	0	0	0	0	0	0	0	0	0	0	0	0	0	0	0	0	0	0	0	0	0	0	0	0	0	0	0	0	0	0	0	0	0	0	0	0	0	0	0	0	0	0	0	0	0	0	0	0	0	0	0	0	0	0	0	0	0	0	0	0	0	0	0	0	0	0	0	0	0	0	0	0	0	0	0	0	0	0	0	0	0	0	0	0	0	0	0	0	0	0	0	0	0	0	0	0	0	0	0	0	0	0	0	0	0	0	0	0	0	0	0	0	0	0	0	0	0	0	0	0	0	0	0	0	0	0	0	0	0	0	0	0	0	0	0	0	0	0	0	0	0	0	0	0	0	0	0	0	0	0	0	0	0	0	0	0	0	0	0	0	0	0	0	0	0	0	0	0	0	0	0	0	0	0	0	0	0	0	0	0	0	0	0	0	0	0	0	0	0	0	0	0	0	0	0	0	0	0	0	0	0	0	0	0	0	0	0	0	0	0	0	0	0	0	0	0	0	0	0	0	0	0	0	0	0	0	0	0	0	0	0	0	0	0	0	0	0	0	0	0	0	0	0	0	0	0	0	0	0	0	0	0	0	0	0	0	0	0	0	0	0	0	0	0	0	0	0	0	0	0	0	0	0	0	0	0	0	0	0	0	0	0	1	1	1	2	4	7	10	14	18	22	25	29	34	39	44	48	48	46	47	47	48	50	52	55	57	58	60	62	65	67	70	72	75	78	80	83	85	87	89	93	97	99	101	102	104	105	107	110	114	115	116	116	116	115	115	116	119	119	117	120	124	125	125	124	124	123	121	119	119	119	119	120	121	121	120	119	118	118	118	118	118	118	118	118	118	119	120	120	120	119	118	118	117	117	117	116	116	116	116	116	116	116	116	116	116	116	117	117	117	117	116	115	115	115	115	113	112	111	110	109	109	108	108	107	106	103	101	98	96	99	99	98	94	89	87	88	88	88	88	89	91	91	90	93	94	93	94	95	93	90	90	92	96	98	99	101	104	106	107	107	105	104	104	105	106	106	105	102	100	98	99	100	99	98	98	100	103	103	102	102	103	103	104	106	106	107	107	108	109	108	109	109	109	107	106	105	105	104	104	103	103	102	101	100	98	97	95	94	93	91	89	87	85	84	82	81	80	78	76	75	75	75	75	75	74	74	73	71	69	67	65	64	64	63	63	62	61	61	60	58	56	54	53	52	51	51	50	49	47	45	43	42	42	41	41	40	40	41	42	43	44	47	48	49	50	50	50	50	49	49	48	47	46	45	44	43	42	42	41	41	40	38	36	35	37	38	39	38	36	35	36	37	37	37	37	36	35	33	31	30	32	33	31	29	28	26	24	21	19	19	20	22	23	24	24	25	27	27	27	27	28	31	34	34	34	38	42	44	46	48	49	51	53	54	56	56	58	58	58	58	58	57	56	55	53	50	48	45	41	36	26	19	16	13	8	5	8	10	13	14	13	12	13	14	15	16	15	14	14	15	16	17	16	15	12	9	7	6	4	2	1	1	0	0	0	0	0	0	0	0	0	0	0	0	0	0	0	0	0	0	0	0	0	0	0	0	0	0	0	0	0	0
47	49	51	54	56	59	61	63	65	66	65	64	64	65	66	67	68	69	70	72	74	76	77	78	79	79	79	78	77	77	76	76	76	76	76	77	78	78	78	77	77	78	79	79	80	81	80	80	79	80	82	84	85	88	91	94	99	103	106	106	105	104	102	100	98	96	94	92	90	87	85	82	79	76	73	70	67	63	60	57	54	51	48	45	42	39	36	34	31	28	26	24	22	21	19	16	15	15	15	16	18	19	16	11	8	6	4	3	3	2	1	0	0	0	0	0	0	0	0	0	0	0	0	0	0	0	0	0	0	0	0	0	0	0	0	0	0	0	0	0	0	0	0	0	0	0	0	0	0	0	0	0	0	0	0	0	0	0	0	0	0	0	0	0	0	0	0	0	0	0	0	0	0	0	0	0	0	0	0	0	0	0	0	0	0	0	0	0	0	0	0	0	0	0	0	0	0	0	0	0	0	0	0	0	0	0	0	0	0	0	0	0	0	0	0	0	0	0	0	0	0	0	0	0	0	0	0	0	0	0	0	0	0	0	0	0	0	0	0	0	0	0	0	0	0	0	0	0	0	0	0	0	0	0	0	0	0	0	0	0	0	0	0	0	0	0	0	0	0	0	0	0	0	0	0	0	0	0	0	0	0	0	0	0	0	0	0	0	0	0	0	0	0	0	0	0	0	0	0	0	0	0	0	0	0	0	0	0	0	0	0	0	0	0	0	0	0	0	0	0	0	0	0	0	0	0	0	0	0	0	0	0	0	0	0	0	0	0	0	0	0	0	0	0	0	0	0	0	0	0	0	0	0	0	0	0	0	0	0	0	0	0	0	0	0	0	0	0	0	0	0	0	0	0	0	0	0	0	0	0	0	0	0	0	0	0	0	0	0	0	0	0	0	0	0	0	0	0	0	0	0	0	0	0	0	0	0	0	0	0	0	0	0	0	0	0	0	0	0	0	0	0	0	0	0	0	0	0	0	0	0	0	0	0	0	0	0	0	0	0	0	0	0	0	0	0	0	0	0	0	0	0	0	0	0	0	0	0	0	0	0	0	0	0	0	0	0	0	0	0	0	0	0	0	0	0	0	0	0	0	0	0	0	0	0	0	0	0	0	0	0	0	0	0	0	0	0	0	0	0	0	0	0	0	0	0	0	0	0	0	0	0	0	0	0	0	0	0	0	0	0	0	0	0	0	0	0	0	0	0	0	0	0	0	0	0	0	0	0	0	0	0	0	0	0	0	0	0	0	0	0	0	0	0	0	0	0	0	0	0	0	0	0	0	0	0	0	0	0	0	0	0	0	0	0	0	0	0	0	0	0	0	0	0	0	0	0	0	1	1	2	4	7	9	12	17	21	23	27	31	37	44	49	51	50	48	48	48	49	51	53	56	58	59	60	62	65	67	70	72	76	78	81	84	86	87	88	92	96	99	100	102	104	106	107	111	114	116	117	117	117	116	116	118	120	118	118	123	126	126	125	124	124	123	122	120	120	119	119	121	123	124	123	122	121	121	119	118	118	118	119	119	119	121	122	122	121	120	119	118	117	117	117	117	116	116	116	116	116	116	116	116	116	116	116	116	115	115	115	115	114	115	114	113	111	110	110	109	108	107	106	106	106	103	103	100	96	98	100	103	103	94	89	90	90	89	90	94	95	95	93	95	96	95	95	96	96	93	94	97	99	100	100	102	104	106	106	105	104	104	105	106	108	108	106	104	103	102	101	100	98	98	99	101	104	104	103	102	103	103	104	106	107	109	109	110	110	110	110	111	111	109	108	107	107	106	106	105	105	104	103	102	101	99	98	96	94	92	90	89	87	85	83	82	80	78	76	75	75	75	75	75	75	75	75	73	71	68	66	66	65	64	63	62	61	61	60	58	57	56	55	54	52	51	51	50	48	46	44	43	42	41	40	39	39	39	40	41	43	45	46	47	48	48	49	49	48	48	47	47	46	46	45	44	42	42	41	41	40	38	36	35	36	38	39	39	38	37	37	38	38	38	39	38	36	34	31	30	30	31	31	30	29	28	27	24	22	20	20	21	23	24	24	25	27	28	28	28	29	31	34	34	35	38	42	45	47	48	50	52	54	55	56	57	58	59	59	59	58	57	56	53	50	46	41	35	33	27	17	11	8	5	2	2	4	4	7	9	8	7	7	8	9	10	8	5	5	7	9	11	12	10	8	6	5	4	3	1	1	0	0	0	0	0	0	0	0	0	0	0	0	0	0	0	0	0	0	0	0	0	0	0	0	0	0	0	0	0	0	0
45	47	49	51	54	57	60	62	64	65	66	65	64	63	64	64	66	67	68	70	72	74	75	76	76	77	76	74	74	73	73	73	72	73	73	74	75	75	74	74	74	75	76	77	77	78	78	77	77	78	81	83	84	87	90	94	99	103	104	104	103	102	101	99	96	94	92	90	88	86	83	81	78	75	71	68	65	62	59	55	53	49	46	44	41	38	35	32	29	27	24	22	21	20	19	17	17	17	16	17	21	22	19	12	8	6	5	4	3	2	1	0	0	0	0	0	0	0	0	0	0	0	0	0	0	0	0	0	0	0	0	0	0	0	0	0	0	0	0	0	0	0	0	0	0	0	0	0	0	0	0	0	0	0	0	0	0	0	0	0	0	0	0	0	0	0	0	0	0	0	0	0	0	0	0	0	0	0	0	0	0	0	0	0	0	0	0	0	0	0	0	0	0	0	0	0	0	0	0	0	0	0	0	0	0	0	0	0	0	0	0	0	0	0	0	0	0	0	0	0	0	0	0	0	0	0	0	0	0	0	0	0	0	0	0	0	0	0	0	0	0	0	0	0	0	0	0	0	0	0	0	0	0	0	0	0	0	0	0	0	0	0	0	0	0	0	0	0	0	0	0	0	0	0	0	0	0	0	0	0	0	0	0	0	0	0	0	0	0	0	0	0	0	0	0	0	0	0	0	0	0	0	0	0	0	0	0	0	0	0	0	0	0	0	0	0	0	0	0	0	0	0	0	0	0	0	0	0	0	0	0	0	0	0	0	0	0	0	0	0	0	0	0	0	0	0	0	0	0	0	0	0	0	0	0	0	0	0	0	0	0	0	0	0	0	0	0	0	0	0	0	0	0	0	0	0	0	0	0	0	0	0	0	0	0	0	0	0	0	0	0	0	0	0	0	0	0	0	0	0	0	0	0	0	0	0	0	0	0	0	0	0	0	0	0	0	0	0	0	0	0	0	0	0	0	0	0	0	0	0	0	0	0	0	0	0	0	0	0	0	0	0	0	0	0	0	0	0	0	0	0	0	0	0	0	0	0	0	0	0	0	0	0	0	0	0	0	0	0	0	0	0	0	0	0	0	0	0	0	0	0	0	0	0	0	0	0	0	0	0	0	0	0	0	0	0	0	0	0	0	0	0	0	0	0	0	0	0	0	0	0	0	0	0	0	0	0	0	0	0	0	0	0	0	0	0	0	0	0	0	0	0	0	0	0	0	0	0	0	0	0	0	0	0	0	0	0	0	0	0	0	0	0	0	0	0	0	0	0	0	0	0	0	0	0	0	0	0	0	0	0	0	0	0	0	0	0	0	0	0	0	0	0	0	0	0	0	1	1	2	3	6	8	10	14	19	22	25	28	31	39	47	49	50	48	47	48	49	51	52	54	57	59	60	60	62	64	67	69	72	75	78	81	83	85	86	87	90	95	98	100	102	104	106	109	112	114	116	117	118	118	118	119	121	121	118	122	126	128	128	127	125	124	123	123	123	124	123	121	122	123	124	124	123	123	123	121	120	119	120	121	120	120	122	124	123	121	120	121	120	119	118	118	117	117	116	117	117	117	117	117	116	117	117	116	115	115	115	115	115	115	115	115	113	111	110	110	109	107	106	105	106	105	104	106	103	97	99	102	105	107	101	94	91	91	90	93	99	99	97	94	94	93	94	95	96	98	98	97	98	99	100	101	102	103	104	105	104	103	104	105	107	109	109	108	106	105	103	102	99	98	98	99	100	102	103	102	102	104	106	107	108	109	110	111	112	112	112	112	112	113	112	110	109	108	108	108	107	107	106	105	105	103	102	100	98	96	94	92	90	89	87	84	82	80	77	75	75	75	75	75	75	75	75	75	74	72	69	67	67	66	65	64	63	62	61	60	59	58	57	57	56	53	51	51	51	50	47	45	44	42	41	40	39	38	38	39	39	41	43	44	45	46	47	47	48	47	47	47	46	46	46	45	43	42	41	41	41	41	40	37	35	34	37	39	40	39	38	38	38	39	39	39	39	37	35	33	31	29	30	31	31	29	28	27	26	25	22	20	20	21	22	24	25	26	28	29	29	30	32	34	34	35	38	41	45	47	48	51	53	55	56	57	58	59	60	59	59	58	57	55	51	46	38	30	26	26	21	12	7	4	2	1	2	2	3	3	4	5	5	4	3	3	3	2	1	1	3	5	6	7	6	6	5	5	3	2	1	0	0	0	0	0	0	0	0	0	0	0	0	0	0	0	0	0	0	0	0	0	0	0	0	0	0	0	0	0	0	0	0
44	46	47	49	52	55	58	60	63	64	65	66	65	63	62	63	64	65	66	69	71	72	73	74	75	75	73	71	70	69	69	69	68	68	69	71	72	71	71	70	70	71	73	73	74	74	74	74	75	77	79	82	84	86	90	94	98	102	102	102	101	101	100	98	95	93	91	89	86	84	82	79	77	74	71	68	65	62	58	55	51	49	46	43	40	37	34	31	28	26	24	22	21	21	20	19	21	23	22	23	24	23	20	13	9	7	5	4	3	2	1	0	0	0	0	0	0	0	0	0	0	0	0	0	0	0	0	0	0	0	0	0	0	0	0	0	0	0	0	0	0	0	0	0	0	0	0	0	0	0	0	0	0	0	0	0	0	0	0	0	0	0	0	0	0	0	0	0	0	0	0	0	0	0	0	0	0	0	0	0	0	0	0	0	0	0	0	0	0	0	0	0	0	0	0	0	0	0	0	0	0	0	0	0	0	0	0	0	0	0	0	0	0	0	0	0	0	0	0	0	0	0	0	0	0	0	0	0	0	0	0	0	0	0	0	0	0	0	0	0	0	0	0	0	0	0	0	0	0	0	0	0	0	0	0	0	0	0	0	0	0	0	0	0	0	0	0	0	0	0	0	0	0	0	0	0	0	0	0	0	0	0	0	0	0	0	0	0	0	0	0	0	0	0	0	0	0	0	0	0	0	0	0	0	0	0	0	0	0	0	0	0	0	0	0	0	0	0	0	0	0	0	0	0	0	0	0	0	0	0	0	0	0	0	0	0	0	0	0	0	0	0	0	0	0	0	0	0	0	0	0	0	0	0	0	0	0	0	0	0	0	0	0	0	0	0	0	0	0	0	0	0	0	0	0	0	0	0	0	0	0	0	0	0	0	0	0	0	0	0	0	0	0	0	0	0	0	0	0	0	0	0	0	0	0	0	0	0	0	0	0	0	0	0	0	0	0	0	0	0	0	0	0	0	0	0	0	0	0	0	0	0	0	0	0	0	0	0	0	0	0	0	0	0	0	0	0	0	0	0	0	0	0	0	0	0	0	0	0	0	0	0	0	0	0	0	0	0	0	0	0	0	0	0	0	0	0	0	0	0	0	0	0	0	0	0	0	0	0	0	0	0	0	0	0	0	0	0	0	0	0	0	0	0	0	0	0	0	0	0	0	0	0	0	0	0	0	0	0	0	0	0	0	0	0	0	0	0	0	0	0	0	0	0	0	0	0	0	0	0	0	0	0	0	0	0	0	0	0	0	0	0	0	0	0	0	0	0	0	0	0	0	0	0	0	0	0	0	0	0	0	0	0	0	0	0	0	0	0	0	0	0	0	0	0	0	1	1	2	3	4	6	9	12	16	20	23	26	29	32	39	47	49	48	47	47	48	50	52	53	54	56	58	60	61	62	64	66	69	72	75	77	80	82	83	85	86	89	93	97	100	102	105	108	110	113	114	116	118	119	119	120	121	122	120	119	124	127	128	129	128	126	125	125	125	126	126	125	123	122	122	123	123	123	123	123	123	123	124	125	126	123	121	122	124	125	123	122	122	122	121	119	118	118	117	117	117	117	117	117	117	117	117	117	117	116	115	115	115	116	117	117	116	114	112	110	109	108	106	105	105	105	106	107	108	106	100	100	103	106	104	98	95	93	92	93	96	99	99	96	92	91	90	90	92	94	97	97	97	98	100	101	102	103	104	104	104	104	104	105	106	108	109	110	109	107	106	104	102	100	100	99	100	101	102	102	102	102	104	107	109	110	110	111	113	114	115	114	114	114	114	114	112	111	110	110	109	109	108	107	107	106	105	103	102	100	98	96	94	92	90	87	85	82	79	76	75	75	75	75	75	75	75	75	75	75	73	71	69	68	67	66	64	63	62	61	61	59	59	58	57	57	55	53	51	51	50	49	47	45	44	42	40	39	38	37	38	38	40	42	43	44	45	45	46	46	46	46	46	46	45	45	44	42	41	41	41	41	41	40	39	36	34	36	38	39	39	39	39	39	39	39	39	38	37	37	36	34	31	30	30	30	29	28	27	26	24	23	22	21	20	22	23	25	27	28	30	30	31	33	34	34	35	39	42	45	47	49	51	54	56	57	58	59	60	60	60	60	58	57	54	49	41	30	23	20	21	18	9	5	3	2	1	1	2	2	0	1	2	3	3	2	0	0	0	0	0	1	2	3	3	3	3	4	3	1	0	0	0	0	0	0	0	0	0	0	0	0	0	0	0	0	0	0	0	0	0	0	0	0	0	0	0	0	0	0	0	0	0	0
43	45	46	47	49	52	55	58	60	63	64	65	66	65	63	62	62	62	64	66	68	69	71	72	73	72	71	68	67	65	65	63	62	61	61	65	67	67	67	67	67	68	69	69	70	71	71	71	72	75	78	81	84	87	91	94	97	101	101	100	100	99	98	96	94	92	90	87	85	83	81	78	76	73	70	67	64	61	58	54	51	48	46	43	40	37	34	31	28	26	24	22	21	21	21	22	27	28	25	22	22	22	19	14	10	9	6	4	3	3	2	1	0	0	0	0	0	0	0	0	0	0	0	0	0	0	0	0	0	0	0	0	0	0	0	0	0	0	0	0	0	0	0	0	0	0	0	0	0	0	0	0	0	0	0	0	0	0	0	0	0	0	0	0	0	0	0	0	0	0	0	0	0	0	0	0	0	0	0	0	0	0	0	0	0	0	0	0	0	0	0	0	0	0	0	0	0	0	0	0	0	0	0	0	0	0	0	0	0	0	0	0	0	0	0	0	0	0	0	0	0	0	0	0	0	0	0	0	0	0	0	0	0	0	0	0	0	0	0	0	0	0	0	0	0	0	0	0	0	0	0	0	0	0	0	0	0	0	0	0	0	0	0	0	0	0	0	0	0	0	0	0	0	0	0	0	0	0	0	0	0	0	0	0	0	0	0	0	0	0	0	0	0	0	0	0	0	0	0	0	0	0	0	0	0	0	0	0	0	0	0	0	0	0	0	0	0	0	0	0	0	0	0	0	0	0	0	0	0	0	0	0	0	0	0	0	0	0	0	0	0	0	0	0	0	0	0	0	0	0	0	0	0	0	0	0	0	0	0	0	0	0	0	0	0	0	0	0	0	0	0	0	0	0	0	0	0	0	0	0	0	0	0	0	0	0	0	0	0	0	0	0	0	0	0	0	0	0	0	0	0	0	0	0	0	0	0	0	0	0	0	0	0	0	0	0	0	0	0	0	0	0	0	0	0	0	0	0	0	0	0	0	0	0	0	0	0	0	0	0	0	0	0	0	0	0	0	0	0	0	0	0	0	0	0	0	0	0	0	0	0	0	0	0	0	0	0	0	0	0	0	0	0	0	0	0	0	0	0	0	0	0	0	0	0	0	0	0	0	0	0	0	0	0	0	0	0	0	0	0	0	0	0	0	0	0	0	0	0	0	0	0	0	0	0	0	0	0	0	0	0	0	0	0	0	0	0	0	0	0	0	0	0	0	0	0	0	0	0	0	0	0	0	0	0	0	0	0	0	0	0	0	0	0	0	0	0	0	0	0	0	0	0	0	0	0	0	0	0	0	0	0	0	0	0	0	0	0	0	0	0	0	0	0	0	0	1	2	2	3	4	7	11	15	19	22	25	27	30	33	39	46	48	49	48	47	49	51	54	55	55	56	58	60	61	62	64	66	69	72	74	76	78	80	82	84	86	88	92	96	99	101	105	108	111	113	115	117	119	120	120	121	122	121	118	121	126	127	128	129	128	127	126	127	127	127	127	126	124	123	122	122	122	123	123	123	123	125	128	129	128	125	122	122	123	124	124	124	123	122	121	120	119	118	118	118	119	119	119	118	118	118	118	118	117	116	115	115	115	116	117	116	116	114	113	110	108	107	107	106	105	105	106	108	107	107	104	103	104	104	99	96	95	94	94	95	96	95	95	94	91	90	90	90	90	92	94	96	97	99	101	102	104	105	106	106	106	106	106	106	108	109	109	110	110	109	108	106	102	101	101	101	102	103	103	103	103	104	105	108	111	111	110	112	114	116	116	116	116	115	115	115	114	113	112	111	111	110	110	108	108	107	106	104	103	101	99	97	95	93	91	88	85	82	78	76	75	76	76	75	75	75	75	75	75	74	74	71	70	69	68	66	65	63	62	62	61	60	59	58	57	58	57	55	52	51	51	50	49	47	45	43	41	40	38	37	37	37	39	40	42	43	44	44	44	45	45	45	45	45	44	43	42	41	41	41	41	41	41	41	40	38	35	35	37	38	39	39	39	39	39	39	38	38	38	37	37	37	35	32	30	29	29	28	27	25	23	23	25	25	23	22	23	25	28	29	30	30	31	34	35	34	36	41	43	45	48	50	53	55	56	58	58	59	61	61	60	60	59	57	53	46	32	20	16	14	16	15	9	4	2	2	2	1	1	1	0	0	0	1	2	2	1	0	0	0	0	0	1	1	1	1	1	1	0	0	0	0	0	0	0	0	0	0	0	0	0	0	0	0	0	0	0	0	0	0	0	0	0	0	0	0	0	0	0	0	0	0	0	0
42	43	45	46	47	50	52	55	57	60	62	63	65	65	64	63	62	61	61	63	64	66	67	69	68	67	66	63	62	61	60	59	58	57	57	59	60	60	61	62	64	64	65	66	67	68	68	69	71	74	77	80	84	88	91	93	95	98	99	98	98	97	96	94	92	90	89	87	85	83	81	78	76	73	70	67	64	61	57	54	51	48	46	43	40	36	34	30	28	26	25	23	23	23	23	25	28	26	21	18	18	20	18	15	12	10	7	4	3	3	2	1	0	0	0	0	0	0	0	0	0	0	0	0	0	0	0	0	0	0	0	0	0	0	0	0	0	0	0	0	0	0	0	0	0	0	0	0	0	0	0	0	0	0	0	0	0	0	0	0	0	0	0	0	0	0	0	0	0	0	0	0	0	0	0	0	0	0	0	0	0	0	0	0	0	0	0	0	0	0	0	0	0	0	0	0	0	0	0	0	0	0	0	0	0	0	0	0	0	0	0	0	0	0	0	0	0	0	0	0	0	0	0	0	0	0	0	0	0	0	0	0	0	0	0	0	0	0	0	0	0	0	0	0	0	0	0	0	0	0	0	0	0	0	0	0	0	0	0	0	0	0	0	0	0	0	0	0	0	0	0	0	0	0	0	0	0	0	0	0	0	0	0	0	0	0	0	0	0	0	0	0	0	0	0	0	0	0	0	0	0	0	0	0	0	0	0	0	0	0	0	0	0	0	0	0	0	0	0	0	0	0	0	0	0	0	0	0	0	0	0	0	0	0	0	0	0	0	0	0	0	0	0	0	0	0	0	0	0	0	0	0	0	0	0	0	0	0	0	0	0	0	0	0	0	0	0	0	0	0	0	0	0	0	0	0	0	0	0	0	0	0	0	0	0	0	0	0	0	0	0	0	0	0	0	0	0	0	0	0	0	0	0	0	0	0	0	0	0	0	0	0	0	0	0	0	0	0	0	0	0	0	0	0	0	0	0	0	0	0	0	0	0	0	0	0	0	0	0	0	0	0	0	0	0	0	0	0	0	0	0	0	0	0	0	0	0	0	0	0	0	0	0	0	0	0	0	0	0	0	0	0	0	0	0	0	0	0	0	0	0	0	0	0	0	0	0	0	0	0	0	0	0	0	0	0	0	0	0	0	0	0	0	0	0	0	0	0	0	0	0	0	0	0	0	0	0	0	0	0	0	0	0	0	0	0	0	0	0	0	0	0	0	0	0	0	0	0	0	0	0	0	0	0	0	0	0	0	0	0	0	0	0	0	0	0	0	0	0	0	0	0	0	0	0	0	0	0	0	0	0	0	0	0	0	0	0	0	0	0	0	0	0	0	0	0	0	1	2	4	5	8	13	17	21	24	27	30	33	36	39	44	47	49	49	48	49	53	55	56	56	57	59	60	62	64	66	68	70	72	73	74	76	78	81	83	85	88	90	94	97	100	104	107	110	113	116	118	120	121	121	122	122	120	119	123	126	127	128	128	127	127	127	128	129	128	127	127	126	125	124	123	123	123	123	124	124	127	128	128	127	125	123	122	122	123	124	125	123	123	122	121	119	118	119	120	122	122	121	121	120	121	120	119	118	118	117	116	115	116	117	115	115	115	114	111	108	107	107	106	105	105	106	107	107	106	106	105	105	103	99	96	95	95	95	96	95	92	92	94	94	92	91	90	90	92	94	96	98	100	102	104	105	107	107	108	108	108	108	108	109	110	110	111	112	112	111	109	103	102	102	103	104	105	104	104	105	105	106	109	111	112	112	113	116	117	117	117	117	116	116	115	115	114	113	112	112	112	111	110	109	109	107	105	104	102	100	98	96	94	92	89	86	82	78	76	75	75	76	76	75	75	75	75	75	74	74	72	71	70	69	67	65	64	63	62	62	60	59	58	58	58	58	56	54	52	51	51	50	48	47	44	42	40	39	37	36	37	38	39	40	42	43	43	43	44	44	44	44	43	42	41	41	41	41	41	41	41	41	41	40	39	36	35	36	37	38	39	39	39	38	38	39	39	39	38	38	37	37	34	32	30	29	28	28	27	26	27	28	28	26	24	24	26	28	30	31	31	32	35	35	34	38	43	45	47	49	52	54	56	57	58	59	60	61	61	61	61	60	57	52	41	18	12	10	10	13	12	9	4	2	2	2	1	1	1	1	0	0	1	2	1	1	0	0	0	0	0	0	0	0	0	0	0	0	0	0	0	0	0	0	0	0	0	0	0	0	0	0	0	0	0	0	0	0	0	0	0	0	0	0	0	0	0	0	0	0	0	0	0
41	42	44	45	46	48	50	52	54	57	59	61	63	64	65	64	64	62	61	61	61	62	63	63	62	61	60	59	59	59	59	58	58	58	58	58	58	57	57	59	60	61	63	65	65	66	67	69	71	74	77	80	84	88	91	92	93	95	96	96	95	95	94	93	91	89	87	86	84	82	80	78	76	73	70	67	64	61	58	55	52	49	46	43	39	36	34	31	29	28	27	26	26	25	24	25	25	23	20	20	21	20	19	17	14	11	8	6	4	3	2	2	1	0	0	0	0	0	0	0	0	0	0	0	0	0	0	0	0	0	0	0	1	0	0	0	1	1	0	0	0	0	0	0	0	0	0	0	0	0	0	0	0	0	0	0	0	0	0	0	0	0	0	0	0	0	0	0	0	0	0	0	0	0	0	0	0	0	0	0	0	0	0	0	0	0	0	0	0	0	0	0	0	0	0	0	0	0	0	0	0	0	0	0	0	0	0	0	0	0	0	0	0	0	0	0	0	0	0	0	0	0	0	0	0	0	0	0	0	0	0	0	0	0	0	0	0	0	0	0	0	0	0	0	0	0	0	0	0	0	0	0	0	0	0	0	0	0	0	0	0	0	0	0	0	0	0	0	0	0	0	0	0	0	0	0	0	0	0	0	0	0	0	0	0	0	0	0	0	0	0	0	0	0	0	0	0	0	0	0	0	0	0	0	0	0	0	0	0	0	0	0	0	0	0	0	0	0	0	0	0	0	0	0	0	0	0	0	0	0	0	0	0	0	0	0	0	0	0	0	0	0	0	0	0	0	0	0	0	0	0	0	0	0	0	0	0	0	0	0	0	0	0	0	0	0	0	0	0	0	0	0	0	0	0	0	0	0	0	0	0	0	0	0	0	0	0	0	0	0	0	0	0	0	0	0	0	0	0	0	0	0	0	0	0	0	0	0	0	0	0	0	0	0	0	0	0	0	0	0	0	0	0	0	0	0	0	0	0	0	0	0	0	0	0	0	0	0	0	0	0	0	0	0	0	0	0	0	0	0	0	0	0	0	0	0	0	0	0	0	0	0	0	0	0	0	0	0	0	0	0	0	0	0	0	0	0	0	0	0	0	0	0	0	0	0	0	0	0	0	0	0	0	0	0	0	0	0	0	0	0	0	0	0	0	0	0	0	0	0	0	0	0	0	0	0	0	0	0	0	0	0	0	0	0	0	0	0	0	0	0	0	0	0	0	0	0	0	0	0	0	0	0	0	0	0	0	0	0	0	0	0	0	0	0	0	0	0	0	0	0	0	0	0	0	0	0	0	0	0	0	0	0	0	0	0	0	0	0	0	0	0	0	0	0	0	1	1	2	4	6	10	15	19	23	26	28	32	35	37	39	43	46	48	48	49	52	55	57	57	57	58	60	62	64	65	67	69	71	72	73	74	76	78	80	82	85	87	89	92	96	99	102	106	110	113	115	118	120	122	122	122	122	120	121	124	126	127	128	128	127	127	128	129	130	129	128	128	128	128	127	126	125	124	124	124	125	126	127	126	126	125	124	123	122	122	123	124	124	124	124	122	120	119	120	122	124	124	124	124	123	123	122	121	122	122	121	120	119	119	117	114	115	117	116	112	108	107	106	106	106	107	109	108	107	107	107	106	105	104	101	97	96	95	95	95	95	93	92	94	95	93	91	91	91	93	94	96	98	101	104	105	107	108	109	110	110	110	110	110	111	111	111	111	112	112	112	111	107	103	103	104	105	105	105	106	107	107	107	110	112	113	114	115	117	118	118	118	117	117	116	116	115	115	114	114	113	112	112	111	111	110	109	107	105	103	101	99	97	95	92	90	86	83	79	76	75	75	75	76	76	76	76	75	75	74	73	72	72	71	70	68	66	65	64	63	62	61	60	59	58	58	58	57	55	53	51	51	51	49	48	45	43	41	40	38	36	36	37	38	40	41	42	43	43	43	43	43	42	41	41	41	41	41	41	41	41	41	41	40	40	39	37	36	36	36	37	38	39	38	38	39	40	41	41	40	38	37	36	35	33	31	29	29	28	29	29	30	30	30	29	27	25	26	28	31	33	33	34	35	34	35	39	43	46	48	50	53	55	57	58	59	60	60	61	61	61	61	60	57	51	40	15	9	7	9	12	8	6	4	2	2	2	2	1	1	0	0	0	1	1	0	0	0	0	0	0	0	0	0	0	0	0	0	0	0	0	0	0	0	0	0	0	0	0	0	0	0	0	0	0	0	0	0	0	0	0	0	0	0	0	0	0	0	0	0	0	0	0	0
40	42	43	44	44	46	48	50	51	53	56	59	61	61	62	63	63	61	60	61	62	62	63	63	62	61	60	60	59	59	59	59	59	58	58	57	57	57	57	57	58	58	60	63	64	64	66	68	72	75	77	80	84	87	89	91	92	93	94	93	93	93	92	92	90	88	86	85	84	82	80	78	76	74	71	69	66	62	59	56	52	49	46	43	39	36	34	33	31	30	30	29	28	27	26	26	25	24	23	24	24	22	21	19	16	14	11	8	6	4	3	2	1	1	0	0	0	0	0	0	0	0	0	0	0	0	0	0	0	0	0	1	1	1	1	1	1	1	1	0	0	0	0	0	0	0	0	0	0	0	0	0	0	0	0	0	0	0	0	0	0	0	0	0	0	0	0	0	0	0	0	0	0	0	0	0	0	0	0	0	0	0	0	0	0	0	0	0	0	0	0	0	0	0	0	0	0	0	0	0	0	0	0	0	0	0	0	0	0	0	0	0	0	0	0	0	0	0	0	0	0	0	0	0	0	0	0	0	0	0	0	0	0	0	0	0	0	0	0	0	0	0	0	0	0	0	0	0	0	0	0	0	0	0	0	0	0	0	0	0	0	0	0	0	0	0	0	0	0	0	0	0	0	0	0	0	0	0	0	0	0	0	0	0	0	0	0	0	0	0	0	0	0	0	0	0	0	0	0	0	0	0	0	0	0	0	0	0	0	0	0	0	0	0	0	0	0	0	0	0	0	0	0	0	0	0	0	0	0	0	0	0	0	0	0	0	0	0	0	0	0	0	0	0	0	0	0	0	0	0	0	0	0	0	0	0	0	0	0	0	0	0	0	0	0	0	0	0	0	0	0	0	0	0	0	0	0	0	0	0	0	0	0	0	0	0	0	0	0	0	0	0	0	0	0	0	0	0	0	0	0	0	0	0	0	0	0	0	0	0	0	0	0	0	0	0	0	0	0	0	0	0	0	0	0	0	0	0	0	0	0	0	0	0	0	0	0	0	0	0	0	0	0	0	0	0	0	0	0	0	0	0	0	0	0	0	0	0	0	0	0	0	0	0	0	0	0	0	0	0	0	0	0	0	0	0	0	0	0	0	0	0	0	0	0	0	0	0	0	0	0	0	0	0	0	0	0	0	0	0	0	0	0	0	0	0	0	0	0	0	0	0	0	0	0	0	0	0	0	0	0	0	0	0	0	0	0	0	0	0	0	0	0	0	0	0	0	0	0	0	0	0	0	0	0	0	0	0	0	0	0	0	0	0	0	0	0	0	0	0	0	0	0	0	0	0	0	0	0	0	0	0	0	0	0	0	0	0	0	0	0	0	0	0	0	1	1	2	3	5	8	12	17	21	24	27	30	32	36	38	40	44	48	50	51	52	54	56	57	58	59	60	62	64	65	66	69	71	72	72	74	76	77	78	80	82	84	87	89	92	95	98	102	106	109	112	115	117	120	122	122	122	122	120	122	125	126	127	128	128	129	129	129	130	131	130	130	130	130	130	129	128	127	127	127	127	126	127	127	127	126	125	125	124	123	123	122	123	124	126	126	124	122	121	123	124	125	124	125	125	125	125	124	124	125	125	124	122	121	119	116	113	115	118	119	116	112	110	108	108	111	113	113	110	108	108	108	107	106	104	102	99	96	95	94	94	94	94	95	95	94	93	92	91	91	93	95	97	100	103	105	107	108	110	111	112	112	112	111	111	111	112	112	112	113	113	112	112	110	106	105	108	108	107	107	108	108	109	110	113	115	116	117	118	119	119	118	118	118	117	117	117	116	115	115	114	114	113	112	112	111	111	109	107	105	103	101	99	97	95	93	90	87	84	80	77	76	75	75	75	75	76	76	75	75	74	73	72	71	71	70	69	68	66	65	64	63	61	60	59	59	58	57	57	56	55	53	52	51	50	48	46	44	42	41	39	36	35	37	38	39	40	42	43	43	43	43	42	41	41	41	41	41	41	41	41	41	41	41	40	40	39	38	36	36	36	37	38	38	38	39	40	42	43	43	42	40	38	37	35	34	32	30	29	29	29	30	32	32	31	32	31	30	29	29	31	33	34	34	34	33	36	41	44	46	48	51	53	56	57	58	60	60	60	60	61	61	61	60	57	52	40	19	12	8	8	7	5	3	2	1	1	1	1	1	0	0	0	0	0	0	0	0	0	0	0	0	0	0	0	0	0	0	0	0	0	0	0	0	0	0	0	0	0	0	0	0	0	0	0	0	0	0	0	0	0	0	0	0	0	0	0	0	0	0	0	0	0	0	0
41	42	43	43	44	44	45	47	48	50	52	55	57	58	58	59	59	58	58	60	61	62	64	64	63	62	61	60	58	57	57	56	56	56	56	55	54	54	55	56	56	56	57	59	61	64	66	68	73	77	78	80	84	86	87	88	89	89	90	90	90	91	91	91	90	88	86	85	84	82	80	78	77	75	73	70	67	63	60	56	53	49	46	43	40	37	36	35	34	34	33	32	32	31	30	28	28	27	27	27	27	25	23	21	19	16	13	11	8	5	3	2	2	1	0	0	0	0	0	0	0	0	0	0	0	0	0	0	1	1	1	1	1	1	2	2	2	2	1	1	1	0	0	0	0	0	0	0	0	0	0	0	0	0	0	0	0	0	0	0	0	0	0	0	0	0	0	0	0	0	0	0	0	0	0	0	0	0	0	0	0	0	0	0	0	0	0	0	0	0	0	0	0	0	0	0	0	0	0	0	0	0	0	0	0	0	0	0	0	0	0	0	0	0	0	0	0	0	0	0	0	0	0	0	0	0	0	0	0	0	0	0	0	0	0	0	0	0	0	0	0	0	0	0	0	0	0	0	0	0	0	0	0	0	0	0	0	0	0	0	0	0	0	0	0	0	0	0	0	0	0	0	0	0	0	0	0	0	0	0	0	0	0	0	0	0	0	0	0	0	0	0	0	0	0	0	0	0	0	0	0	0	0	0	0	0	0	0	0	0	0	0	0	0	0	0	0	0	0	0	0	0	0	0	0	0	0	0	0	0	0	0	0	0	0	0	0	0	0	0	0	0	0	0	0	0	0	0	0	0	0	0	0	0	0	0	0	0	0	0	0	0	0	0	0	0	0	0	0	0	0	0	0	0	0	0	0	0	0	0	0	0	0	0	0	0	0	0	0	0	0	0	0	0	0	0	0	0	0	0	0	0	0	0	0	0	0	0	0	0	0	0	0	0	0	0	0	0	0	0	0	0	0	0	0	0	0	0	0	0	0	0	0	0	0	0	0	0	0	0	0	0	0	0	0	0	0	0	0	0	0	0	0	0	0	0	0	0	0	0	0	0	0	0	0	0	0	0	0	0	0	0	0	0	0	0	0	0	0	0	0	0	0	0	0	0	0	0	0	0	0	0	0	0	0	0	0	0	0	0	0	0	0	0	0	0	0	0	0	0	0	0	0	0	0	0	0	0	0	0	0	0	0	0	0	0	0	0	0	0	0	0	0	0	0	0	0	0	0	0	0	0	0	0	0	0	0	0	0	0	0	0	0	0	0	0	0	0	0	0	0	0	0	0	0	0	0	0	0	0	0	0	0	0	0	0	0	0	0	0	0	0	0	0	0	1	2	2	4	6	9	14	18	22	25	28	31	34	37	39	41	44	49	52	54	55	55	56	57	58	59	61	63	64	65	67	70	71	72	72	74	76	78	79	81	82	84	87	90	92	95	99	102	106	109	112	114	117	119	120	121	121	121	120	124	126	126	127	127	128	130	131	130	130	132	131	131	132	132	131	131	130	130	131	131	131	129	129	129	129	129	128	126	124	124	123	123	122	124	127	127	125	125	125	126	126	125	125	125	126	126	126	125	126	125	124	122	120	119	116	114	114	115	118	121	119	114	112	111	111	114	114	113	110	108	108	109	108	107	106	104	102	98	96	94	93	94	96	97	95	93	94	94	92	92	94	96	98	101	104	106	108	110	111	112	113	114	113	113	113	112	113	113	113	113	113	113	113	112	111	111	112	111	110	109	109	110	111	114	117	119	119	119	120	120	119	119	118	118	118	117	117	116	116	115	115	114	113	113	112	112	111	109	107	105	103	101	99	97	95	93	90	88	85	82	79	77	75	75	75	75	75	75	75	75	74	72	71	71	71	71	70	68	67	65	64	63	62	60	59	59	58	58	57	56	55	55	54	52	50	48	46	44	43	42	40	37	36	36	37	39	40	41	42	43	43	42	41	41	41	41	41	41	41	41	41	41	41	41	40	39	39	38	37	36	37	38	38	38	39	40	42	44	45	44	44	42	41	39	37	35	33	31	30	30	29	30	32	33	33	33	33	33	33	32	31	32	33	34	34	34	38	42	44	46	49	51	54	57	58	59	60	61	61	61	61	62	61	60	57	52	41	24	18	12	9	5	3	2	2	1	1	1	1	0	0	0	0	0	0	0	0	0	0	0	0	0	0	0	0	0	0	0	0	0	0	0	0	0	0	0	0	0	0	0	0	0	0	0	0	0	0	0	0	0	0	0	0	0	0	0	0	0	0	0	0	0	0	0	0
41	42	43	43	43	43	43	44	46	47	50	52	54	55	56	57	57	57	57	58	58	60	61	61	61	60	59	58	56	55	53	53	53	53	53	52	51	51	52	53	53	54	54	55	58	62	65	67	73	77	78	79	82	83	84	85	85	86	86	86	87	88	90	90	90	88	87	86	84	83	81	80	78	77	75	72	68	63	60	56	53	49	46	44	41	39	38	38	38	37	36	35	36	36	34	33	32	33	34	34	33	31	25	22	21	19	15	12	9	6	4	3	2	2	1	0	0	0	0	0	0	0	0	0	0	0	0	1	1	2	2	2	2	2	3	3	3	2	2	2	1	1	0	0	0	0	0	0	0	0	0	0	0	0	0	0	0	0	0	0	0	0	0	0	0	0	0	0	0	0	0	0	0	0	0	0	0	0	0	0	0	0	0	0	0	0	0	0	0	0	0	0	0	0	0	0	0	0	0	0	0	0	0	0	0	0	0	0	0	0	0	0	0	0	0	0	0	0	0	0	0	0	0	0	0	0	0	0	0	0	0	0	0	0	0	0	0	0	0	0	0	0	0	0	0	0	0	0	0	0	0	0	0	0	0	0	0	0	0	0	0	0	0	0	0	0	0	0	0	0	0	0	0	0	0	0	0	0	0	0	0	0	0	0	0	0	0	0	0	0	0	0	0	0	0	0	0	0	0	0	0	0	0	0	0	0	0	0	0	0	0	0	0	0	0	0	0	0	0	0	0	0	0	0	0	0	0	0	0	0	0	0	0	0	0	0	0	0	0	0	0	0	0	0	0	0	0	0	0	0	0	0	0	0	0	0	0	0	0	0	0	0	0	0	0	0	0	0	0	0	0	0	0	0	0	0	0	0	0	0	0	0	0	0	0	0	0	0	0	0	0	0	0	0	0	0	0	0	0	0	0	0	0	0	0	0	0	0	0	0	0	0	0	0	0	0	0	0	0	0	0	0	0	0	0	0	0	0	0	0	0	0	0	0	0	0	0	0	0	0	0	0	0	0	0	0	0	0	0	0	0	0	0	0	0	0	0	0	0	0	0	0	0	0	0	0	0	0	0	0	0	0	0	0	0	0	0	0	0	0	0	0	0	0	0	0	0	0	0	0	0	0	0	0	0	0	0	0	0	0	0	0	0	0	0	0	0	0	0	0	0	0	0	0	0	0	0	0	0	0	0	0	0	0	0	0	0	0	0	0	0	0	0	0	0	0	0	0	0	0	0	0	0	0	0	0	0	0	0	0	0	0	0	0	0	0	0	0	0	0	0	0	0	0	0	0	0	0	0	0	0	0	0	0	0	0	0	0	0	0	0	0	0	0	0	1	2	2	4	7	11	15	19	22	25	28	32	35	37	39	41	44	48	53	55	55	56	57	57	58	59	61	63	63	65	67	70	71	71	72	74	76	77	79	80	82	84	87	91	93	96	99	102	106	109	111	114	116	117	118	119	121	121	120	124	127	127	127	126	127	130	131	129	129	130	130	131	133	133	133	132	132	132	133	133	133	132	131	132	132	132	130	128	126	124	124	123	123	123	125	125	124	125	127	128	127	126	125	125	126	126	126	126	126	125	123	121	119	118	115	115	116	117	118	120	119	115	113	111	110	112	112	111	109	108	109	109	108	108	107	106	105	103	101	99	97	96	98	98	96	96	96	94	93	93	95	97	98	101	104	108	110	112	113	114	115	115	115	114	114	114	114	114	113	114	114	114	114	115	115	115	113	111	111	110	110	111	115	118	120	121	121	121	120	120	120	119	119	119	118	118	117	117	116	115	115	114	114	113	112	111	110	109	107	105	103	101	99	96	94	92	90	88	86	84	81	79	77	76	76	76	75	75	75	75	73	72	72	72	72	72	70	68	67	66	64	63	62	60	59	58	58	58	57	56	55	55	54	53	51	49	47	45	43	42	41	39	37	37	37	39	41	41	41	42	42	42	42	41	41	41	41	41	41	41	41	41	41	41	40	40	39	38	38	37	38	38	38	39	40	42	44	45	45	45	45	43	42	41	39	36	35	33	32	31	31	30	31	31	32	32	31	32	34	35	33	32	32	33	33	35	40	43	45	47	50	52	55	57	59	61	62	62	62	62	62	62	62	60	57	52	43	29	22	18	12	6	3	2	2	2	1	0	0	0	0	0	0	0	0	0	0	0	0	0	0	0	0	0	0	0	0	0	0	0	0	0	0	0	0	0	0	0	0	0	0	0	0	0	0	0	0	0	0	0	0	0	0	0	0	0	0	0	0	0	0	0	0	0	0
41	42	43	43	43	42	42	43	44	46	48	50	52	54	55	56	56	57	57	57	57	58	58	58	58	57	56	55	53	52	50	50	50	51	50	49	48	48	49	50	50	51	53	55	57	60	62	65	72	77	77	78	79	80	81	82	82	83	83	84	85	87	89	91	90	89	88	86	85	84	84	82	79	78	76	72	68	63	59	56	53	50	48	46	44	42	42	42	42	41	39	39	40	38	35	35	36	36	37	38	38	35	27	22	22	21	17	13	10	7	5	4	3	2	2	1	0	0	0	0	0	0	0	0	0	0	1	1	2	3	3	3	3	3	4	4	4	3	3	2	2	1	1	0	0	0	0	0	0	0	0	0	0	0	0	0	0	0	0	0	0	0	0	0	0	0	0	0	0	0	0	0	0	0	0	0	0	0	0	0	0	0	0	0	0	0	0	0	0	0	0	0	0	0	0	0	0	0	0	0	0	0	0	0	0	0	0	0	0	0	0	0	0	0	0	0	0	0	0	0	0	0	0	0	0	0	0	0	0	0	0	0	0	0	0	0	0	0	0	0	0	0	0	0	0	0	0	0	0	0	0	0	0	0	0	0	0	0	0	0	0	0	0	0	0	0	0	0	0	0	0	0	0	0	0	0	0	0	0	0	0	0	0	0	0	0	0	0	0	0	0	0	0	0	0	0	0	0	0	0	0	0	0	0	0	0	0	0	0	0	0	0	0	0	0	0	0	0	0	0	0	0	0	0	0	0	0	0	0	0	0	0	0	0	0	0	0	0	0	0	0	0	0	0	0	0	0	0	0	0	0	0	0	0	0	0	0	0	0	0	0	0	0	0	0	0	0	0	0	0	0	0	0	0	0	0	0	0	0	0	0	0	0	0	0	0	0	0	0	0	0	0	0	0	0	0	0	0	0	0	0	0	0	0	0	0	0	0	0	0	0	0	0	0	0	0	0	0	0	0	0	0	0	0	0	0	0	0	0	0	0	0	0	0	0	0	0	0	0	0	0	0	0	0	0	0	0	0	0	0	0	0	0	0	0	0	0	0	0	0	0	0	0	0	0	0	0	0	0	0	0	0	0	0	0	0	0	0	0	0	0	0	0	0	0	0	0	0	0	0	0	0	0	0	0	0	0	0	0	0	0	0	0	0	0	0	0	0	0	0	0	0	0	0	0	0	0	0	0	0	0	0	0	0	0	0	0	0	0	0	0	0	0	0	0	0	0	0	0	0	0	0	0	0	0	0	0	0	0	0	0	0	0	0	0	0	0	0	0	0	0	0	0	0	0	0	0	0	0	0	0	0	0	0	0	0	0	0	0	0	0	0	0	0	0	1	1	3	5	8	12	16	19	22	25	28	32	35	37	39	41	44	47	52	55	55	57	58	59	58	59	60	61	62	64	66	68	69	70	72	73	74	76	78	80	82	84	87	91	94	96	99	102	105	108	111	113	115	116	117	119	122	121	120	122	125	127	126	124	124	126	126	126	126	127	128	131	133	133	133	133	134	134	133	133	134	134	134	133	133	133	132	130	128	126	124	123	122	123	123	123	123	124	126	127	126	126	126	126	126	127	127	126	126	125	124	122	120	118	117	117	118	118	118	119	117	115	113	111	110	110	110	109	109	108	108	109	108	108	108	107	107	105	103	103	101	97	97	99	100	100	97	95	94	93	94	96	99	101	105	108	112	114	115	115	116	116	116	116	116	116	116	115	115	115	116	117	117	118	118	118	116	115	113	110	110	113	119	121	121	122	122	122	121	121	120	120	119	119	118	118	117	117	116	115	115	114	113	112	111	111	110	109	107	105	102	100	98	96	94	92	90	88	87	85	83	81	79	77	76	76	75	75	74	74	73	72	72	72	72	71	70	68	67	66	64	63	62	60	58	58	58	57	57	55	54	54	53	52	51	49	47	45	43	42	40	39	38	36	37	40	41	41	41	41	42	42	42	41	41	41	41	41	41	41	41	41	41	41	41	40	39	38	38	38	38	38	38	39	41	43	45	46	46	46	45	44	43	43	41	39	38	36	35	33	32	32	31	31	31	31	31	31	33	35	34	33	33	33	34	38	42	44	46	48	50	53	55	57	60	62	63	63	63	63	63	63	62	61	57	52	45	35	27	22	16	8	4	2	2	2	1	0	0	0	0	0	0	0	0	0	0	0	0	0	0	0	0	0	0	0	0	0	0	0	0	0	0	0	0	0	0	0	0	0	0	0	0	0	0	0	0	0	0	0	0	0	0	0	0	0	0	0	0	0	0	0	0	0	0
39	40	41	41	41	41	42	43	44	44	46	48	50	51	53	54	55	56	57	57	57	56	55	55	55	54	53	52	50	49	48	47	47	47	47	46	45	45	45	46	47	49	52	55	57	59	60	61	67	75	77	76	76	77	77	78	79	79	80	81	83	85	89	91	91	90	89	87	85	85	85	83	79	78	75	72	67	62	59	56	54	52	50	49	47	46	46	45	45	44	43	44	45	41	36	36	38	37	36	38	40	38	34	29	27	27	22	15	12	9	6	5	4	3	2	1	1	0	0	0	0	0	1	1	1	1	1	2	3	4	4	4	5	5	5	5	5	4	4	3	3	2	1	0	0	0	0	0	0	0	0	0	0	0	0	0	0	0	0	0	0	0	0	0	0	0	0	0	0	0	0	0	0	0	0	0	0	0	0	0	0	0	0	0	0	0	0	0	0	0	0	0	0	0	0	0	0	0	0	0	0	0	0	0	0	0	0	0	0	0	0	0	0	0	0	0	0	0	0	0	0	0	0	0	0	0	0	0	0	0	0	0	0	0	0	0	0	0	0	0	0	0	0	0	0	0	0	0	0	0	0	0	0	0	0	0	0	0	0	0	0	0	0	0	0	0	0	0	0	0	0	0	0	0	0	0	0	0	0	0	0	0	0	0	0	0	0	0	0	0	0	0	0	0	0	0	0	0	0	0	0	0	0	0	0	0	0	0	0	0	0	0	0	0	0	0	0	0	0	0	0	0	0	0	0	0	0	0	0	0	0	0	0	0	0	0	0	0	0	0	0	0	0	0	0	0	0	0	0	0	0	0	0	0	0	0	0	0	0	0	0	0	0	0	0	0	0	0	0	0	0	0	0	0	0	0	0	0	0	0	0	0	0	0	0	0	0	0	0	0	0	0	0	0	0	0	0	0	0	0	0	0	0	0	0	0	0	0	0	0	0	0	0	0	0	0	0	0	0	0	0	0	0	0	0	0	0	0	0	0	0	0	0	0	0	0	0	0	0	0	0	0	0	0	0	0	0	0	0	0	0	0	0	0	0	0	0	0	0	0	0	0	0	0	0	0	0	0	0	0	0	0	0	0	0	0	0	0	0	0	0	0	0	0	0	0	0	0	0	0	0	0	0	0	0	0	0	0	0	0	0	0	0	0	0	0	0	0	0	0	0	0	0	0	0	0	0	0	0	0	0	0	0	0	0	0	0	0	0	0	0	0	0	0	0	0	0	0	0	0	0	0	0	0	0	0	0	0	0	0	0	0	0	0	0	0	0	0	0	0	0	0	0	0	0	0	0	0	0	0	0	0	0	0	0	0	0	0	0	0	0	0	0	0	0	1	1	3	6	9	13	16	19	22	27	30	33	36	38	39	41	43	45	50	53	54	56	58	58	58	58	58	59	61	63	65	66	67	69	71	72	74	75	77	79	82	84	88	91	94	96	99	101	104	107	110	112	114	117	120	122	123	123	120	119	121	123	124	125	125	126	126	127	127	128	128	130	131	131	132	134	135	135	134	134	135	136	135	134	133	133	132	131	131	128	125	123	122	122	123	123	123	124	124	124	125	125	126	127	127	128	127	127	127	126	125	123	121	120	119	119	119	119	118	118	117	115	114	112	112	111	110	109	109	109	109	109	108	108	108	107	107	106	104	104	101	96	96	100	103	103	99	97	96	94	94	96	99	102	105	108	112	114	115	116	117	118	118	118	118	119	118	117	117	118	119	119	119	119	120	120	120	119	116	113	114	117	122	123	123	123	123	123	122	122	121	121	120	120	119	118	117	116	116	115	115	114	113	111	110	110	109	108	107	105	103	100	98	96	93	91	90	88	87	86	83	81	78	77	75	74	73	73	73	73	72	72	71	71	71	71	70	68	67	66	64	63	62	60	58	56	56	57	56	55	53	52	52	51	50	49	47	45	43	41	40	38	37	35	36	38	40	40	40	40	41	41	41	41	41	41	41	41	41	41	41	41	41	41	40	39	39	38	38	38	38	38	39	40	42	44	45	46	47	47	46	45	45	44	44	43	42	41	39	37	36	35	34	33	33	33	33	33	34	34	34	35	35	35	36	39	42	45	47	49	51	53	55	57	59	61	63	64	64	64	64	64	63	62	58	53	47	39	32	27	20	10	4	2	2	1	0	0	0	0	0	0	0	0	0	0	0	0	0	0	0	0	0	0	0	0	0	0	0	0	0	0	0	0	0	0	0	0	0	0	0	0	0	0	0	0	0	0	0	0	0	0	0	0	0	0	0	0	0	0	0	0	0	0	0
37	38	38	39	40	41	42	43	44	44	44	46	48	49	51	52	54	55	56	55	54	53	52	52	52	52	50	49	47	46	45	44	43	42	42	42	43	42	42	43	44	47	50	53	56	59	61	60	61	68	73	73	73	74	74	74	75	76	77	79	81	84	87	90	91	91	89	88	86	85	84	82	79	77	74	70	66	62	59	57	56	54	53	51	50	49	49	49	49	48	47	47	45	43	38	37	39	39	37	38	41	41	40	37	34	31	24	18	15	12	8	6	5	4	3	2	1	1	1	1	1	1	1	1	2	2	2	3	4	4	5	6	6	6	6	6	6	5	5	4	4	3	2	1	1	0	0	0	0	0	0	0	0	0	0	0	0	0	0	0	0	0	0	0	0	0	0	0	0	0	0	0	0	0	0	0	0	0	0	0	0	0	0	0	0	0	0	0	0	0	0	0	0	0	0	0	0	0	0	0	0	0	0	0	0	0	0	0	0	0	0	0	0	0	0	0	0	0	0	0	0	0	0	0	0	0	0	0	0	0	0	0	0	0	0	0	0	0	0	0	0	0	0	0	0	0	0	0	0	0	0	0	0	0	0	0	0	0	0	0	0	0	0	0	0	0	0	0	0	0	0	0	0	0	0	0	0	0	0	0	0	0	0	0	0	0	0	0	0	0	0	0	0	0	0	0	0	0	0	0	0	0	0	0	0	0	0	0	0	0	0	0	0	0	0	0	0	0	0	0	0	0	0	0	0	0	0	0	0	0	0	0	0	0	0	0	0	0	0	0	0	0	0	0	0	0	0	0	0	0	0	0	0	0	0	0	0	0	0	0	0	0	0	0	0	0	0	0	0	0	0	0	0	0	0	0	0	0	0	0	0	0	0	0	0	0	0	0	0	0	0	0	0	0	0	0	0	0	0	0	0	0	0	0	0	0	0	0	0	0	0	0	0	0	0	0	0	0	0	0	0	0	0	0	0	0	0	0	0	0	0	0	0	0	0	0	0	0	0	0	0	0	0	0	0	0	0	0	0	0	0	0	0	0	0	0	0	0	0	0	0	0	0	0	0	0	0	0	0	0	0	0	0	0	0	0	0	0	0	0	0	0	0	0	0	0	0	0	0	0	0	0	0	0	0	0	0	0	0	0	0	0	0	0	0	0	0	0	0	0	0	0	0	0	0	0	0	0	0	0	0	0	0	0	0	0	0	0	0	0	0	0	0	0	0	0	0	0	0	0	0	0	0	0	0	0	0	0	0	0	0	0	0	0	0	0	0	0	0	0	0	0	0	0	0	0	0	0	0	0	0	0	0	0	0	0	0	0	0	0	0	0	0	0	0	0	1	4	7	10	14	17	20	23	29	33	35	39	40	40	41	43	45	49	51	52	54	56	57	57	57	57	58	60	62	64	65	66	68	70	71	73	75	77	79	82	85	88	90	93	96	98	100	103	106	108	110	113	119	123	124	124	123	121	120	124	126	126	128	128	129	130	130	130	131	132	132	131	130	131	132	135	135	135	135	136	136	136	135	134	134	133	132	132	130	127	125	124	124	124	124	124	125	125	125	125	126	127	128	128	129	128	128	128	126	125	124	123	122	121	120	120	120	119	119	118	117	116	115	114	113	111	110	109	109	109	109	109	108	108	107	107	107	106	105	102	98	98	100	102	103	101	99	97	95	94	96	99	102	105	108	112	114	115	116	118	119	120	120	120	120	120	120	120	120	120	121	121	121	121	122	122	121	119	118	119	121	123	124	124	124	124	124	124	123	123	122	122	121	120	119	118	117	116	115	115	114	113	111	110	109	109	108	107	105	104	101	98	96	93	91	90	88	87	85	82	80	77	75	73	72	71	71	71	71	71	70	70	70	69	69	68	68	66	65	64	63	61	59	57	55	55	56	55	54	52	51	50	50	49	48	47	46	44	41	39	38	36	35	34	36	38	39	39	39	40	41	41	41	41	41	41	41	41	41	41	41	40	40	39	39	38	38	38	38	38	39	39	41	42	43	45	46	47	47	47	47	46	46	45	45	45	44	43	42	40	39	38	37	36	36	36	36	36	37	37	38	39	39	38	38	42	45	47	49	51	53	56	57	58	60	62	63	64	64	65	65	64	62	59	54	49	42	36	31	23	10	4	3	2	1	0	0	0	0	0	0	0	0	0	0	0	0	0	0	0	0	0	0	0	0	0	0	0	0	0	0	0	0	0	0	0	0	0	0	0	0	0	0	0	0	0	0	0	0	0	0	0	0	0	0	0	0	0	0	0	0	0	0	0
35	36	36	37	38	39	41	42	43	43	43	45	47	48	49	50	52	53	53	52	50	49	49	49	49	48	47	46	44	43	41	39	38	37	38	39	40	40	39	40	42	46	49	52	55	58	60	60	57	57	63	68	70	71	71	71	72	74	76	78	80	82	85	89	91	91	90	88	86	84	82	80	77	75	72	69	65	62	60	58	57	57	55	54	52	52	52	52	52	51	50	48	46	44	43	43	42	43	42	42	42	41	41	39	36	30	23	19	17	14	10	7	5	4	3	3	2	2	1	1	1	2	2	3	3	3	4	4	6	6	7	8	8	8	8	8	7	7	6	5	5	5	4	3	2	1	1	0	0	0	0	0	0	0	0	0	0	0	0	0	0	0	0	0	0	0	0	0	0	0	0	0	0	0	0	0	0	0	0	0	0	0	0	0	0	0	0	0	0	0	0	0	0	0	0	0	0	0	0	0	0	0	0	0	0	0	0	0	0	0	0	0	0	0	0	0	0	0	0	0	0	0	0	0	0	0	0	0	0	0	0	0	0	0	0	0	0	0	0	0	0	0	0	0	0	0	0	0	0	0	0	0	0	0	0	0	0	0	0	0	0	0	0	0	0	0	0	0	0	0	0	0	0	0	0	0	0	0	0	0	0	0	0	0	0	0	0	0	0	0	0	0	0	0	0	0	0	0	0	0	0	0	0	0	0	0	0	0	0	0	0	0	0	0	0	0	0	0	0	0	0	0	0	0	0	0	0	0	0	0	0	0	0	0	0	0	0	0	0	0	0	0	0	0	0	0	0	0	0	0	0	0	0	0	0	0	0	0	0	0	0	0	0	0	0	0	0	0	0	0	0	0	0	0	0	0	0	0	0	0	0	0	0	0	0	0	0	0	0	0	0	0	0	0	0	0	0	0	0	0	0	0	0	0	0	0	0	0	0	0	0	0	0	0	0	0	0	0	0	0	0	0	0	0	0	0	0	0	0	0	0	0	0	0	0	0	0	0	0	0	0	0	0	0	0	0	0	0	0	0	0	0	0	0	0	0	0	0	0	0	0	0	0	0	0	0	0	0	0	0	0	0	0	0	0	0	0	0	0	0	0	0	0	0	0	0	0	0	0	0	0	0	0	0	0	0	0	0	0	0	0	0	0	0	0	0	0	0	0	0	0	0	0	0	0	0	0	0	0	0	0	0	0	0	0	0	0	0	0	0	0	0	0	0	0	0	0	0	0	0	0	0	0	0	0	0	0	0	0	0	0	0	0	0	0	0	0	0	0	0	0	0	0	0	0	0	0	0	0	0	0	0	0	0	0	0	0	0	0	0	0	0	0	0	0	0	1	4	8	11	14	17	20	23	28	32	35	40	42	42	42	44	46	48	50	51	52	53	54	55	54	55	56	59	61	63	64	65	67	69	71	72	74	77	79	82	85	87	90	93	95	98	100	102	104	106	108	113	120	124	125	124	124	123	123	127	128	127	128	129	131	131	132	132	133	134	135	134	134	132	132	132	134	135	136	136	136	136	136	135	135	134	133	132	131	129	128	127	127	127	127	128	129	128	127	127	127	128	128	129	129	129	129	128	127	125	124	123	123	122	121	121	121	121	120	120	119	118	117	115	114	113	111	110	109	109	110	110	108	107	107	107	108	106	104	102	100	100	100	101	102	102	99	97	95	94	96	100	103	106	109	111	113	115	116	119	120	121	122	122	122	122	122	122	122	121	121	122	123	123	123	123	123	121	120	120	123	124	124	124	125	126	126	126	125	124	124	123	122	121	120	119	118	116	115	114	114	113	112	111	109	108	108	107	105	104	102	99	96	94	91	89	88	86	83	81	78	75	73	72	71	70	69	68	68	68	68	68	67	67	67	67	66	66	64	63	62	61	59	57	54	54	54	54	53	51	50	49	49	48	47	47	45	44	41	39	37	35	34	33	34	36	38	39	39	39	40	41	41	41	41	41	41	40	40	40	40	39	39	39	38	38	38	38	38	38	39	39	40	41	43	44	46	47	48	48	48	48	47	47	46	46	47	46	44	43	42	41	40	40	40	40	40	40	41	41	42	42	41	41	40	42	45	47	49	51	53	55	57	58	60	62	63	64	65	65	65	65	63	60	55	50	43	37	32	21	8	4	4	5	3	1	1	0	0	0	0	0	0	0	0	0	0	0	0	0	0	0	0	0	0	0	0	0	0	0	0	0	0	0	0	0	0	0	0	0	0	0	0	0	0	0	0	0	0	0	0	0	0	0	0	0	0	0	0	0	0	0	0	0
32	34	34	35	36	38	39	40	41	42	43	45	46	47	47	48	49	50	49	48	47	46	46	45	45	44	44	43	42	39	36	35	34	34	35	37	38	37	36	38	41	45	48	51	54	56	58	58	55	53	56	63	67	67	68	68	69	71	74	77	79	81	84	88	90	90	89	87	85	82	80	78	76	73	71	68	65	63	62	61	60	59	58	56	55	55	55	55	54	53	51	50	48	47	47	46	45	45	44	43	42	41	41	38	32	26	22	20	18	16	12	8	6	5	4	3	2	2	2	2	2	3	4	5	5	6	6	8	8	9	11	11	11	10	9	9	9	9	8	7	6	6	6	5	4	3	1	1	0	0	0	1	1	1	0	0	0	0	0	0	0	0	0	0	0	0	0	0	0	0	0	0	0	0	0	0	0	0	0	0	0	0	0	0	0	0	0	0	0	0	0	0	0	0	0	0	0	0	0	0	0	0	0	0	0	0	0	0	0	0	0	0	0	0	0	0	0	0	0	0	0	0	0	0	0	0	0	0	0	0	0	0	0	0	0	0	0	0	0	0	0	0	0	0	0	0	0	0	0	0	0	0	0	0	0	0	0	0	0	0	0	0	0	0	0	0	0	0	0	0	0	0	0	0	0	0	0	0	0	0	0	0	0	0	0	0	0	0	0	0	0	0	0	0	0	0	0	0	0	0	0	0	0	0	0	0	0	0	0	0	0	0	0	0	0	0	0	0	0	0	0	0	0	0	0	0	0	0	0	0	0	0	0	0	0	0	0	0	0	0	0	0	0	0	0	0	0	0	0	0	0	0	0	0	0	0	0	0	0	0	0	0	0	0	0	0	0	0	0	0	0	0	0	0	0	0	0	0	0	0	0	0	0	0	0	0	0	0	0	0	0	0	0	0	0	0	0	0	0	0	0	0	0	0	0	0	0	0	0	0	0	0	0	0	0	0	0	0	0	0	0	0	0	0	0	0	0	0	0	0	0	0	0	0	0	0	0	0	0	0	0	0	0	0	0	0	0	0	0	0	0	0	0	0	0	0	0	0	0	0	0	0	0	0	0	0	0	0	0	0	0	0	0	0	0	0	0	0	0	0	0	0	0	0	0	0	0	0	0	0	0	0	0	0	0	0	0	0	0	0	0	0	0	0	0	0	0	0	0	0	0	0	0	0	0	0	0	0	0	0	0	0	0	0	0	0	0	0	0	0	0	0	0	0	0	0	0	0	0	0	0	0	0	0	0	0	0	0	0	0	0	0	0	0	0	0	0	0	0	0	0	0	0	0	0	0	0	0	0	0	0	0	0	0	0	0	0	0	0	0	0	0	0	0	0	1	1	3	7	12	16	19	21	24	27	30	33	39	43	43	43	46	47	48	49	50	50	51	52	52	52	53	54	56	59	61	63	65	66	68	70	72	74	76	79	81	84	87	90	92	94	98	100	102	103	105	107	112	119	122	123	123	123	124	125	128	128	127	128	130	131	132	132	133	134	135	136	137	137	135	134	133	133	135	136	137	137	137	136	135	136	136	135	134	132	131	130	129	129	129	130	131	132	132	130	129	129	129	129	129	130	130	130	128	127	126	125	124	123	122	122	122	123	122	122	121	120	119	118	116	114	114	113	112	111	111	111	111	109	108	108	109	109	106	104	102	101	100	100	101	102	100	98	96	95	95	97	101	104	106	109	111	113	115	117	119	121	122	123	124	124	124	124	124	124	123	122	123	124	125	125	124	124	124	123	123	124	125	125	124	125	126	127	127	126	125	124	124	123	122	121	119	118	117	116	114	113	112	112	111	110	108	107	106	104	103	101	100	97	94	91	89	87	85	82	80	77	74	73	72	71	69	67	67	66	66	65	65	65	64	64	64	64	64	64	62	61	60	58	56	54	52	52	53	52	51	49	48	47	47	47	46	45	44	41	39	36	34	33	31	32	34	36	38	39	40	40	41	41	41	41	41	41	40	40	40	39	39	38	38	38	38	38	38	38	38	38	39	40	41	42	43	45	46	48	48	48	49	49	48	48	48	48	48	46	44	44	44	44	43	43	43	43	43	43	43	43	43	43	43	42	43	45	47	49	51	53	55	56	58	60	62	63	64	65	65	65	65	63	60	55	49	43	37	31	19	6	2	3	6	5	3	1	1	0	0	0	0	0	0	0	0	0	0	0	0	0	0	0	0	0	0	0	0	0	0	0	0	0	0	0	0	0	0	0	0	0	0	0	0	0	0	0	0	0	0	0	0	0	0	0	0	0	0	0	0	0	0	0	0
30	31	32	33	35	36	37	38	39	41	42	44	45	46	46	46	47	47	47	45	44	43	42	41	41	40	40	40	38	34	32	31	31	31	33	34	36	35	35	37	40	43	46	49	52	54	56	56	55	53	53	58	63	65	65	66	67	70	73	76	79	81	84	86	88	88	86	85	82	80	79	77	76	74	72	68	66	65	64	63	62	62	61	60	59	59	58	57	55	55	53	52	51	49	48	47	46	45	43	42	41	40	38	34	29	26	23	21	19	17	14	10	6	5	4	3	3	3	3	3	3	4	6	7	8	8	9	10	10	12	13	14	13	12	11	11	11	12	12	11	9	8	7	6	5	4	3	2	1	1	1	1	1	1	0	0	0	0	0	0	0	0	0	0	0	0	0	0	0	0	0	0	0	0	0	0	0	0	0	0	0	0	0	0	0	0	0	0	0	0	0	0	0	0	0	0	0	0	0	0	0	0	0	0	0	0	0	0	0	0	0	0	0	0	0	0	0	0	0	0	0	0	0	0	0	0	0	0	0	0	0	0	0	0	0	0	0	0	0	0	0	0	0	0	0	0	0	0	0	0	0	0	0	0	0	0	0	0	0	0	0	0	0	0	0	0	0	0	0	0	0	0	0	0	0	0	0	0	0	0	0	0	0	0	0	0	0	0	0	0	0	0	0	0	0	0	0	0	0	0	0	0	0	0	0	0	0	0	0	0	0	0	0	0	0	0	0	0	0	0	0	0	0	0	0	0	0	0	0	0	0	0	0	0	0	0	0	0	0	0	0	0	0	0	0	0	0	0	0	0	0	0	0	0	0	0	0	0	0	0	0	0	0	0	0	0	0	0	0	0	0	0	0	0	0	0	0	0	0	0	0	0	0	0	0	0	0	0	0	0	0	0	0	0	0	0	0	0	0	0	0	0	0	0	0	0	0	0	0	0	0	0	0	0	0	0	0	0	0	0	0	0	0	0	0	0	0	0	0	0	0	0	0	0	0	0	0	0	0	0	0	0	0	0	0	0	0	0	0	0	0	0	0	0	0	0	0	0	0	0	0	0	0	0	0	0	0	0	0	0	0	0	0	0	0	0	0	0	0	0	0	0	0	0	0	0	0	0	0	0	0	0	0	0	0	0	0	0	0	0	0	0	0	0	0	0	0	0	0	0	0	0	0	0	0	0	0	0	0	0	0	0	0	0	0	0	0	0	0	0	0	0	0	0	0	0	0	0	0	0	0	0	0	0	0	0	0	0	0	0	0	0	0	0	0	0	0	0	0	0	0	0	0	0	0	0	0	0	0	0	0	0	0	0	0	0	0	0	0	0	0	0	0	0	0	1	1	3	7	13	19	23	24	25	27	30	33	37	40	40	42	45	47	48	49	50	49	48	49	50	50	51	52	54	57	60	62	64	65	67	69	71	73	75	78	80	83	86	89	91	94	97	99	101	103	105	107	110	114	118	120	120	122	124	125	126	127	126	127	129	131	131	132	133	134	135	137	137	138	138	137	136	135	135	136	137	138	138	137	137	137	137	136	135	134	132	131	130	130	130	131	131	131	131	131	130	130	130	130	130	131	131	131	129	128	127	126	124	123	122	122	123	123	123	123	122	121	120	118	116	115	115	114	113	113	113	112	111	110	109	109	110	109	106	104	103	103	102	101	101	101	100	98	97	97	96	98	102	105	106	109	111	113	115	117	119	122	123	124	125	126	126	125	125	125	125	125	125	125	126	125	125	125	126	125	125	126	127	126	125	125	126	127	128	127	126	126	126	124	123	121	120	119	117	116	115	113	112	111	111	110	108	107	105	103	102	101	99	97	94	91	89	87	84	81	79	76	74	73	72	70	69	67	66	65	64	63	63	62	62	61	61	61	62	62	62	60	59	57	56	53	51	50	51	51	50	48	47	46	45	46	46	45	43	41	38	35	33	31	30	30	32	35	37	39	40	40	40	41	41	41	41	40	40	39	39	39	38	38	38	37	37	37	37	37	38	38	39	40	41	41	42	44	45	46	47	48	50	51	50	49	49	49	50	49	47	46	46	46	46	45	44	44	44	44	44	44	44	44	44	44	43	45	47	49	51	52	54	56	58	60	62	63	64	65	65	65	65	63	60	55	49	43	37	29	15	3	1	2	3	4	3	2	1	0	0	0	0	0	0	0	0	0	0	0	0	0	0	0	0	0	0	0	0	0	0	0	0	0	0	0	0	0	0	0	0	0	0	0	0	0	0	0	0	0	0	0	0	0	0	0	0	0	0	0	0	0	0	0	0
27	29	30	31	33	34	35	37	38	40	42	43	45	45	45	45	45	45	44	43	41	40	39	38	37	37	36	35	33	30	29	29	29	29	30	32	34	34	34	37	39	42	45	47	50	52	53	54	55	53	52	55	60	62	62	64	66	68	71	75	79	81	84	85	86	86	85	84	82	80	79	79	79	79	76	72	69	68	67	66	66	65	65	64	63	62	61	59	57	56	55	55	53	51	49	47	46	44	42	41	41	39	35	32	31	28	25	22	19	18	15	11	7	5	4	4	4	5	5	5	6	7	8	9	10	10	10	11	11	13	15	16	15	13	13	12	13	15	16	15	13	11	10	8	7	6	5	3	2	2	1	1	1	1	0	0	0	0	0	0	0	0	0	0	0	0	0	0	0	0	0	0	0	0	0	0	0	0	0	0	0	0	0	0	0	0	0	0	0	0	0	0	0	0	0	0	0	0	0	0	0	0	0	0	0	0	0	0	0	0	0	0	0	0	0	0	0	0	0	0	0	0	0	0	0	0	0	0	0	0	0	0	0	0	0	0	0	0	0	0	0	0	0	0	0	0	0	0	0	0	0	0	0	0	0	0	0	0	0	0	0	0	0	0	0	0	0	0	0	0	0	0	0	0	0	0	0	0	0	0	0	0	0	0	0	0	0	0	0	0	0	0	0	0	0	0	0	0	0	0	0	0	0	0	0	0	0	0	0	0	0	0	0	0	0	0	0	0	0	0	0	0	0	0	0	0	0	0	0	0	0	0	0	0	0	0	0	0	0	0	0	0	0	0	0	0	0	0	0	0	0	0	0	0	0	0	0	0	0	0	0	0	0	0	0	0	0	0	0	0	0	0	0	0	0	0	0	0	0	0	0	0	0	0	0	0	0	0	0	0	0	0	0	0	0	0	0	0	0	0	0	0	0	0	0	0	0	0	0	0	0	0	0	0	0	0	0	0	0	0	0	0	0	0	0	0	0	0	0	0	0	0	0	0	0	0	0	0	0	0	0	0	0	0	0	0	0	0	0	0	0	0	0	0	0	0	0	0	0	0	0	0	0	0	0	0	0	0	0	0	0	0	0	0	0	0	0	0	0	0	0	0	0	0	0	0	0	0	0	0	0	0	0	0	0	0	0	0	0	0	0	0	0	0	0	0	0	0	0	0	0	0	0	0	0	0	0	0	0	0	0	0	0	0	0	0	0	0	0	0	0	0	0	0	0	0	0	0	0	0	0	0	0	0	0	0	0	0	0	0	0	0	0	0	0	0	0	0	0	0	0	0	0	0	0	0	0	0	0	0	0	0	0	0	0	0	0	0	0	0	0	0	0	0	0	1	2	4	7	15	22	25	25	26	28	30	32	34	36	38	40	42	44	46	47	47	46	46	46	47	48	49	50	52	54	58	60	63	65	67	69	70	72	75	77	80	83	86	88	91	93	96	99	100	102	104	106	108	110	112	114	117	120	123	124	124	124	124	125	127	129	131	131	131	133	135	137	138	138	139	139	139	138	137	136	136	137	138	139	139	138	137	137	136	136	134	133	132	131	131	131	131	131	131	131	131	131	131	131	131	132	132	132	131	129	128	127	125	125	124	124	124	123	123	122	122	121	120	119	118	117	116	115	115	115	114	113	112	111	110	110	109	108	106	106	105	104	103	102	101	100	100	99	99	98	98	99	102	105	107	108	110	113	115	117	120	122	124	125	126	127	127	127	127	127	127	128	128	128	128	127	126	126	127	127	128	129	129	128	128	128	127	127	128	129	129	128	127	125	124	122	121	119	118	116	115	114	113	111	110	110	108	106	103	102	100	99	98	96	93	91	89	86	84	81	78	76	74	73	72	70	69	67	65	64	63	62	61	60	60	59	58	58	59	60	60	60	59	57	55	53	51	49	49	50	49	48	46	45	44	44	44	44	42	40	37	34	31	29	28	29	31	34	36	39	40	40	40	40	40	40	40	40	39	39	38	38	38	37	37	37	37	37	37	37	38	38	39	40	40	41	42	43	44	45	46	48	50	51	51	51	51	51	51	51	49	48	47	47	47	46	46	46	45	45	45	45	45	45	46	46	45	45	47	49	50	51	54	55	57	59	61	62	63	64	65	65	64	63	61	57	51	45	38	29	10	1	0	0	1	2	3	2	0	0	0	0	0	0	0	0	0	0	0	0	0	0	0	0	0	0	0	0	0	0	0	0	0	0	0	0	0	0	0	0	0	0	0	0	0	0	0	0	0	0	0	0	0	0	0	0	0	0	0	0	0	0	0	0	0
26	27	29	31	32	34	35	36	37	38	40	42	43	44	44	43	43	43	41	40	38	37	36	35	34	33	32	30	29	28	27	27	27	27	28	30	31	32	33	35	38	41	43	45	48	50	51	52	52	52	53	55	59	60	60	62	65	67	69	73	76	79	82	84	84	85	85	86	86	86	85	86	86	84	80	75	73	72	71	71	70	70	69	67	66	65	63	61	60	58	57	56	55	53	50	48	46	44	41	40	40	38	34	29	28	27	25	22	20	19	16	11	8	6	6	7	7	8	9	9	10	10	11	11	11	11	11	12	13	15	17	17	15	14	14	14	15	17	18	18	16	14	12	10	9	8	6	4	3	3	2	2	1	1	0	0	0	0	0	0	0	0	0	0	0	0	0	0	0	0	0	0	0	0	0	0	0	0	0	0	0	0	0	0	0	0	0	0	0	0	0	0	0	0	0	0	0	0	0	0	0	0	0	0	0	0	0	0	0	0	0	0	0	0	0	0	0	0	0	0	0	0	0	0	0	0	0	0	0	0	0	0	0	0	0	0	0	0	0	0	0	0	0	0	0	0	0	0	0	0	0	0	0	0	0	0	0	0	0	0	0	0	0	0	0	0	0	0	0	0	0	0	0	0	0	0	0	0	0	0	0	0	0	0	0	0	0	0	0	0	0	0	0	0	0	0	0	0	0	0	0	0	0	0	0	0	0	0	0	0	0	0	0	0	0	0	0	0	0	0	0	0	0	0	0	0	0	0	0	0	0	0	0	0	0	0	0	0	0	0	0	0	0	0	0	0	0	0	0	0	0	0	0	0	0	0	0	0	0	0	0	0	0	0	0	0	0	0	0	0	0	0	0	0	0	0	0	0	0	0	0	0	0	0	0	0	0	0	0	0	0	0	0	0	0	0	0	0	0	0	0	0	0	0	0	0	0	0	0	0	0	0	0	0	0	0	0	0	0	0	0	0	0	0	0	0	0	0	0	0	0	0	0	0	0	0	0	0	0	0	0	0	0	0	0	0	0	0	0	0	0	0	0	0	0	0	0	0	0	0	0	0	0	0	0	0	0	0	0	0	0	0	0	0	0	0	0	0	0	0	0	0	0	0	0	0	0	0	0	0	0	0	0	0	0	0	0	0	0	0	0	0	0	0	0	0	0	0	0	0	0	0	0	0	0	0	0	0	0	0	0	0	0	0	0	0	0	0	0	0	0	0	0	0	0	0	0	0	0	0	0	0	0	0	0	0	0	0	0	0	0	0	0	0	0	0	0	0	0	0	0	0	0	0	0	0	0	0	0	0	0	0	0	0	0	0	0	0	0	0	0	0	0	0	0	1	2	4	7	16	23	24	25	26	29	32	32	34	35	38	40	41	41	42	43	43	43	43	44	45	47	48	49	51	53	56	59	62	64	66	68	70	72	74	77	80	83	86	88	90	93	96	99	100	102	104	106	107	108	109	110	113	117	120	122	122	122	123	124	126	128	130	131	132	133	135	137	138	139	140	140	140	140	140	139	138	137	138	139	139	139	139	138	138	137	136	135	133	132	132	131	131	131	131	131	132	132	132	132	132	133	133	133	132	131	129	128	127	126	126	125	125	124	123	123	122	122	121	121	120	118	118	117	117	117	116	115	114	113	111	110	109	108	107	108	106	104	104	103	102	101	101	101	100	99	98	98	103	106	108	109	111	113	115	117	120	122	124	126	128	129	129	129	129	129	129	130	131	131	130	129	128	128	128	129	130	131	131	131	133	132	130	129	129	130	131	130	128	126	125	123	122	120	118	117	116	114	113	112	110	109	107	105	103	101	99	98	96	95	93	90	88	86	84	81	78	76	74	73	72	71	69	68	66	64	63	62	60	59	58	57	56	56	56	57	58	58	58	57	55	53	51	48	47	47	47	47	45	44	42	42	42	42	40	38	36	33	30	27	26	27	29	32	35	37	39	39	39	40	40	39	39	39	38	38	38	37	37	37	37	37	37	37	37	37	37	38	38	39	40	41	42	43	43	45	46	47	49	50	51	51	51	52	53	53	52	50	48	48	48	48	47	47	46	46	45	45	45	46	47	47	46	46	47	48	50	51	54	55	56	58	61	62	63	64	64	64	64	63	62	59	55	48	40	30	10	3	2	0	0	1	1	1	0	0	0	0	0	0	0	0	0	0	0	0	0	0	0	0	0	0	0	0	0	0	0	0	0	0	0	0	0	0	0	0	0	0	0	0	0	0	0	0	0	0	0	0	0	0	0	0	0	0	0	0	0	0	0	0	0
26	27	29	31	33	34	35	35	36	37	38	40	41	42	41	41	40	40	38	36	35	34	33	31	30	29	27	26	26	27	27	27	27	26	27	28	28	29	31	34	37	40	42	44	46	48	48	48	49	50	53	55	58	60	58	61	64	66	67	70	73	76	79	81	83	85	86	88	90	89	88	89	89	85	80	77	76	76	76	76	74	73	72	70	68	67	65	63	61	60	58	57	55	54	51	49	47	44	41	40	36	32	28	25	24	25	25	22	20	19	16	12	10	10	10	9	9	10	12	12	13	13	13	13	13	12	12	13	15	17	17	17	15	15	15	15	16	17	19	19	18	16	14	11	10	9	8	6	4	3	3	2	2	1	0	-1	-1	0	0	0	0	0	0	0	0	0	0	0	0	0	0	0	0	0	0	0	0	0	0	0	0	0	0	0	0	0	0	0	0	0	0	0	0	0	0	0	0	0	0	0	0	0	0	0	0	0	0	0	0	0	0	0	0	0	0	0	0	0	0	0	0	0	0	0	0	0	0	0	0	0	0	0	0	0	0	0	0	0	0	0	0	0	0	0	0	0	0	0	0	0	0	0	0	0	0	0	0	0	0	0	0	0	0	0	0	0	0	0	0	0	0	0	0	0	0	0	0	0	0	0	0	0	0	0	0	0	0	0	0	0	0	0	0	0	0	0	0	0	0	0	0	0	0	0	0	0	0	0	0	0	0	0	0	0	0	0	0	0	0	0	0	0	0	0	0	0	0	0	0	0	0	0	0	0	0	0	0	0	0	0	0	0	0	0	0	0	0	0	0	0	0	0	0	0	0	0	0	0	0	0	0	0	0	0	0	0	0	0	0	0	0	0	0	0	0	0	0	0	0	0	0	0	0	0	0	0	0	0	0	0	0	0	0	0	0	0	0	0	0	0	0	0	0	0	0	0	0	0	0	0	0	0	0	0	0	0	0	0	0	0	0	0	0	0	0	0	0	0	0	0	0	0	0	0	0	0	0	0	0	0	0	0	0	0	0	0	0	0	0	0	0	0	0	0	0	0	0	0	0	0	0	0	0	0	0	0	0	0	0	0	0	0	0	0	0	0	0	0	0	0	0	0	0	0	0	0	0	0	0	0	0	0	0	0	0	0	0	0	0	0	0	0	0	0	0	0	0	0	0	0	0	0	0	0	0	0	0	0	0	0	0	0	0	0	0	0	0	0	0	0	0	0	0	0	0	0	0	0	0	0	0	0	0	0	0	0	0	0	0	0	0	0	0	0	0	0	0	0	0	0	0	0	0	0	0	0	0	0	0	0	0	0	0	0	0	0	0	0	0	0	0	0	0	0	0	1	1	3	7	17	23	26	26	27	30	33	33	33	35	38	40	39	38	40	40	40	41	42	43	44	46	47	49	51	53	56	59	62	63	65	67	69	72	74	76	80	83	86	88	90	93	95	98	100	101	103	104	106	107	108	108	110	113	117	120	122	122	122	123	125	126	129	132	133	134	136	137	138	139	140	141	141	142	142	141	140	139	138	138	139	139	140	140	140	139	138	137	135	134	133	133	133	132	132	132	132	133	133	134	134	134	134	134	133	132	130	129	128	127	126	126	125	125	125	124	123	122	122	121	121	120	119	118	118	118	117	116	115	114	113	111	110	109	109	109	107	105	104	103	103	103	102	102	101	101	99	99	105	108	109	112	113	114	115	117	119	122	124	126	128	130	130	131	131	131	131	131	132	132	132	131	131	130	130	130	131	132	132	133	136	136	134	131	130	131	131	130	128	127	125	124	123	121	119	118	117	115	114	112	110	109	107	105	103	101	99	97	96	94	92	90	88	86	83	81	78	76	75	74	73	71	70	69	67	65	64	62	61	59	57	56	55	54	54	54	55	56	56	55	54	53	51	49	46	45	45	46	45	43	41	40	39	39	38	36	34	31	28	26	25	26	28	30	32	35	37	38	38	38	38	38	37	37	37	37	37	37	37	37	37	37	37	36	36	37	37	38	38	39	39	40	41	42	43	45	46	47	48	49	50	50	51	53	56	60	58	53	50	50	50	49	49	49	48	47	46	46	46	46	47	47	47	46	47	48	50	52	54	55	55	57	59	62	63	63	63	63	63	63	62	60	56	51	42	29	9	5	4	2	1	0	1	0	0	0	0	0	0	0	0	0	0	0	0	0	0	0	0	0	0	0	0	0	0	0	0	0	0	0	0	0	0	0	0	0	0	0	0	0	0	0	0	0	0	0	0	0	0	0	0	0	0	0	0	0	0	0	0	0	0
26	28	30	32	33	34	35	35	36	36	37	38	38	39	39	38	38	37	35	33	31	30	29	28	26	25	24	23	23	25	27	27	27	27	27	28	28	29	32	35	37	40	42	43	44	45	45	45	45	48	50	55	60	59	58	62	64	65	66	69	74	76	77	79	81	84	87	89	90	89	87	88	87	83	80	79	79	79	79	79	77	76	74	72	70	69	66	64	62	61	59	58	56	54	51	49	47	44	42	39	34	28	23	23	23	23	23	21	20	19	16	11	11	12	10	9	10	12	14	14	15	15	15	14	14	13	14	14	16	17	17	16	16	16	16	17	17	18	19	20	19	18	16	14	12	12	11	9	7	5	4	3	3	2	1	0	-1	-1	0	0	0	0	0	0	0	0	0	0	0	0	0	0	0	0	0	0	0	0	0	0	0	0	0	0	0	0	0	0	0	0	0	0	0	0	0	0	0	0	0	0	0	0	0	0	0	0	0	0	0	0	0	0	0	0	0	0	0	0	0	0	0	0	0	0	0	0	0	0	0	0	0	0	0	0	0	0	0	0	0	0	0	0	0	0	0	0	0	0	0	0	0	0	0	0	0	0	0	0	0	0	0	0	0	0	0	0	0	0	0	0	0	0	0	0	0	0	0	0	0	0	0	0	0	0	0	0	0	0	0	0	0	0	0	0	0	0	0	0	0	0	0	0	0	0	0	0	0	0	0	0	0	0	0	0	0	0	0	0	0	0	0	0	0	0	0	0	0	0	0	0	0	0	0	0	0	0	0	0	0	0	0	0	0	0	0	0	0	0	0	0	0	0	0	0	0	0	0	0	0	0	0	0	0	0	0	0	0	0	0	0	0	0	0	0	0	0	0	0	0	0	0	0	0	0	0	0	0	0	0	0	0	0	0	0	0	0	0	0	0	0	0	0	0	0	0	0	0	0	0	0	0	0	0	0	0	0	0	0	0	0	0	0	0	0	0	0	0	0	0	0	0	0	0	0	0	0	0	0	0	0	0	0	0	0	0	0	0	0	0	0	0	0	0	0	0	0	0	0	0	0	0	0	0	0	0	0	0	0	0	0	0	0	0	0	0	0	0	0	0	0	0	0	0	0	0	0	0	0	0	0	0	0	0	0	0	0	0	0	0	0	0	0	0	0	0	0	0	0	0	0	0	0	0	0	0	0	0	0	0	0	0	0	0	0	0	0	0	0	0	0	0	0	0	0	0	0	0	0	0	0	0	0	0	0	0	0	0	0	0	0	0	0	0	0	0	0	0	0	0	0	0	0	0	0	0	0	0	0	0	0	0	0	0	0	0	0	0	0	0	0	0	0	0	0	0	1	1	3	5	14	22	26	27	28	31	34	34	33	34	37	38	37	37	39	39	39	39	40	42	44	45	47	48	50	53	55	58	61	63	64	65	68	71	73	76	79	82	85	88	90	92	94	96	99	100	101	102	104	105	107	108	109	111	115	118	120	121	121	122	124	125	128	130	132	134	136	137	138	140	141	141	142	143	143	143	143	142	141	139	139	139	140	141	142	142	141	139	138	136	135	134	134	134	134	133	134	134	134	135	135	135	136	135	134	133	132	130	129	128	127	127	126	126	126	125	124	124	123	123	122	122	121	120	120	119	119	117	116	115	114	113	112	111	110	109	108	107	106	105	104	103	103	102	102	102	101	102	106	109	111	113	114	115	117	118	120	121	123	125	128	130	131	132	133	132	132	132	133	134	133	132	132	132	131	131	132	132	133	135	137	136	135	133	132	132	132	131	129	128	126	125	124	122	120	118	117	116	114	112	111	109	108	106	104	102	100	98	96	94	92	90	88	85	83	81	79	77	75	74	73	72	71	69	68	67	65	64	62	60	58	56	54	53	52	51	51	52	52	52	53	52	51	49	46	44	43	44	44	43	41	39	38	36	35	34	32	30	27	24	23	24	27	28	30	32	34	36	36	37	37	36	36	36	37	37	37	37	37	36	36	36	36	36	36	36	37	37	38	38	39	40	41	42	43	45	46	47	49	50	50	50	50	53	60	64	63	59	54	53	53	52	51	51	50	49	47	47	47	47	46	46	46	47	47	48	50	52	53	54	54	55	58	61	62	63	63	63	62	62	61	59	56	52	43	30	9	4	3	2	1	0	0	0	0	0	0	0	0	0	0	0	0	0	0	0	0	0	0	0	0	0	0	0	0	0	0	0	0	0	0	0	0	0	0	0	0	0	0	0	0	0	0	0	0	0	0	0	0	0	0	0	0	0	0	0	0	0	0	0	0
26	29	31	33	34	35	35	34	34	35	35	35	36	36	36	36	35	34	32	30	28	27	26	25	24	23	22	21	22	24	26	26	26	27	28	28	29	31	34	37	38	39	41	42	41	41	41	41	42	44	48	56	62	61	59	62	65	65	65	71	77	79	77	77	80	84	88	89	88	87	87	89	86	83	82	82	82	82	81	80	79	77	75	74	72	70	68	65	64	62	61	59	56	54	52	49	47	44	42	38	33	26	23	23	23	23	23	22	21	20	18	14	13	13	12	11	12	14	15	16	16	16	16	16	15	15	15	16	17	17	17	17	17	17	17	18	18	19	20	20	20	19	18	15	14	14	14	13	12	9	6	4	3	2	1	-1	-1	-1	0	0	0	0	0	0	0	0	0	0	0	0	0	0	0	0	0	0	0	0	0	0	0	0	0	0	0	0	0	0	0	0	0	0	0	0	0	0	0	0	0	0	0	0	0	0	0	0	0	0	0	0	0	0	0	0	0	0	0	0	0	0	0	0	0	0	0	0	0	0	0	0	0	0	0	0	0	0	0	0	0	0	0	0	0	0	0	0	0	0	0	0	0	0	0	0	0	0	0	0	0	0	0	0	0	0	0	0	0	0	0	0	0	0	0	0	0	0	0	0	0	0	0	0	0	0	0	0	0	0	0	0	0	0	0	0	0	0	0	0	0	0	0	0	0	0	0	0	0	0	0	0	0	0	0	0	0	0	0	0	0	0	0	0	0	0	0	0	0	0	0	0	0	0	0	0	0	0	0	0	0	0	0	0	0	0	0	0	0	0	0	0	0	0	0	0	0	0	0	0	0	0	0	0	0	0	0	0	0	0	0	0	0	0	0	0	0	0	0	0	0	0	0	0	0	0	0	0	0	0	0	0	0	0	0	0	0	0	0	0	0	0	0	0	0	0	0	0	0	0	0	0	0	0	0	0	0	0	0	0	0	0	0	0	0	0	0	0	0	0	0	0	0	0	0	0	0	0	0	0	0	0	0	0	0	0	0	0	0	0	0	0	0	0	0	0	0	0	0	0	0	0	0	0	0	0	0	0	0	0	0	0	0	0	0	0	0	0	0	0	0	0	0	0	0	0	0	0	0	0	0	0	0	0	0	0	0	0	0	0	0	0	0	0	0	0	0	0	0	0	0	0	0	0	0	0	0	0	0	0	0	0	0	0	0	0	0	0	0	0	0	0	0	0	0	0	0	0	0	0	0	0	0	0	0	0	0	0	0	0	0	0	0	0	0	0	0	0	0	0	0	0	0	0	0	0	0	0	0	0	0	0	0	0	0	0	0	0	0	0	0	0	0	0	0	0	0	1	2	3	5	10	19	23	25	29	32	34	34	33	34	36	36	36	36	36	37	37	38	39	41	43	44	46	48	50	52	54	56	59	61	63	65	67	70	72	75	78	81	84	87	89	91	93	95	97	99	100	101	102	104	105	107	108	109	112	115	117	118	119	121	123	125	126	128	130	133	136	138	139	141	142	142	143	144	145	145	145	145	144	143	141	140	140	142	143	144	143	142	140	138	136	136	136	136	136	136	135	135	136	136	137	137	137	136	135	134	133	132	130	129	129	128	127	127	127	126	125	125	125	124	124	123	123	123	122	121	120	118	117	116	115	114	113	112	111	109	109	108	107	106	105	104	104	104	104	103	103	103	106	109	111	113	115	117	118	119	120	121	123	125	127	129	131	133	133	133	133	134	136	136	135	135	135	134	132	133	134	133	133	135	137	136	135	133	133	133	132	131	129	128	127	126	124	122	121	119	118	116	115	113	111	110	109	107	105	103	101	99	96	95	93	91	88	86	84	81	79	77	75	74	73	72	71	69	68	67	67	66	64	62	60	58	55	53	52	50	49	48	48	49	50	51	50	48	46	43	41	42	42	42	40	38	37	35	33	32	30	28	26	23	22	23	25	26	27	29	31	33	34	34	35	35	35	35	36	37	37	38	37	37	36	36	36	36	36	36	36	37	37	38	38	39	40	41	43	44	46	47	49	50	50	50	51	52	59	63	62	59	57	58	59	58	55	53	52	51	49	48	48	47	47	46	47	48	48	49	51	53	53	53	53	54	57	60	62	63	63	62	63	62	61	58	56	52	44	27	7	2	2	1	0	0	0	0	0	0	0	0	0	0	0	0	0	0	0	0	0	0	0	0	0	0	0	0	0	0	0	0	0	0	0	0	0	0	0	0	0	0	0	0	0	0	0	0	0	0	0	0	0	0	0	0	0	0	0	0	0	0	0	0	0
27	29	31	33	34	35	34	34	33	33	33	33	34	34	34	33	33	31	29	27	25	25	24	23	22	21	21	21	21	22	23	23	24	26	27	29	31	33	35	37	37	38	39	39	38	37	37	38	40	41	44	52	59	57	54	56	62	64	63	72	78	80	76	76	79	83	87	88	88	88	90	91	88	84	84	84	84	84	83	82	80	79	77	75	74	71	69	67	65	64	62	60	57	54	52	49	47	44	42	38	32	26	23	23	23	23	23	22	22	22	22	21	20	20	19	17	17	18	18	18	18	18	18	18	17	17	17	17	18	18	18	18	18	18	18	19	19	20	21	21	20	19	18	16	15	15	15	15	14	11	7	4	3	2	1	-1	-1	-1	0	0	0	0	0	0	0	0	0	0	0	0	0	0	0	0	0	0	0	0	0	0	0	0	0	0	0	0	0	0	0	0	0	0	0	0	0	0	0	0	0	0	0	0	0	0	0	0	0	0	0	0	0	0	0	0	0	0	0	0	0	0	0	0	0	0	0	0	0	0	0	0	0	0	0	0	0	0	0	0	0	0	0	0	0	0	0	0	0	0	0	0	0	0	0	0	0	0	0	0	0	0	0	0	0	0	0	0	0	0	0	0	0	0	0	0	0	0	0	0	0	0	0	0	0	0	0	0	0	0	0	0	0	0	0	0	0	0	0	0	0	0	0	0	0	0	0	0	0	0	0	0	0	0	0	0	0	0	0	0	0	0	0	0	0	0	0	0	0	0	0	0	0	0	0	0	0	0	0	0	0	0	0	0	0	0	0	0	0	0	0	0	0	0	0	0	0	0	0	0	0	0	0	0	0	0	0	0	0	0	0	0	0	0	0	0	0	0	0	0	0	0	0	0	0	0	0	0	0	0	0	0	0	0	0	0	0	0	0	0	0	0	0	0	0	0	0	0	0	0	0	0	0	0	0	0	0	0	0	0	0	0	0	0	0	0	0	0	0	0	0	0	0	0	0	0	0	0	0	0	0	0	0	0	0	0	0	0	0	0	0	0	0	0	0	0	0	0	0	0	0	0	0	0	0	0	0	0	0	0	0	0	0	0	0	0	0	0	0	0	0	0	0	0	0	0	0	0	0	0	0	0	0	0	0	0	0	0	0	0	0	0	0	0	0	0	0	0	0	0	0	0	0	0	0	0	0	0	0	0	0	0	0	0	0	0	0	0	0	0	0	0	0	0	0	0	0	0	0	0	0	0	0	0	0	0	0	0	0	0	0	0	0	0	0	0	0	0	0	0	0	0	0	0	0	0	0	0	0	0	0	0	0	0	0	0	0	0	0	0	0	0	0	0	0	0	0	1	3	4	6	12	20	22	25	29	32	33	33	34	35	35	35	35	35	35	35	35	36	37	39	41	43	45	47	49	50	52	54	57	59	62	64	66	69	72	74	77	80	82	85	87	90	92	93	95	97	98	99	101	103	104	106	107	108	110	113	115	117	118	120	122	124	126	127	129	132	135	137	139	141	143	144	145	146	147	147	147	147	147	147	145	143	141	142	143	144	144	144	142	140	138	138	137	137	138	138	137	137	137	137	138	138	138	138	136	135	134	133	132	131	131	130	129	129	128	128	127	126	126	126	126	125	125	124	124	122	120	119	118	117	117	116	114	113	112	110	109	107	106	105	105	106	107	107	106	104	104	103	105	108	110	113	115	117	118	118	119	121	122	124	126	129	132	133	134	134	135	136	137	137	137	136	136	135	134	134	135	134	135	136	136	136	135	134	133	132	132	131	129	128	127	126	124	123	122	120	119	117	116	114	112	111	109	108	106	104	102	100	98	96	94	91	89	87	85	83	81	78	76	75	73	72	70	69	68	68	68	67	65	63	61	59	56	54	52	50	48	46	45	45	46	48	48	47	44	41	39	39	40	40	39	37	36	34	32	30	28	26	24	22	21	22	24	25	25	27	29	30	31	32	33	33	34	34	36	37	37	37	37	37	36	36	36	35	35	35	36	36	37	37	38	39	39	41	42	44	45	47	48	49	50	50	51	52	54	57	58	58	58	60	62	62	59	54	53	52	50	49	49	49	48	48	48	48	49	49	51	53	53	53	53	54	57	59	61	62	62	62	63	62	60	57	54	50	41	22	7	4	2	1	0	0	0	0	0	0	0	0	0	0	0	0	0	0	0	0	0	0	0	0	0	0	0	0	0	0	0	0	0	0	0	0	0	0	0	0	0	0	0	0	0	0	0	0	0	0	0	0	0	0	0	0	0	0	0	0	0	0	0	0	0
28	30	31	32	33	34	34	33	32	31	31	30	31	31	31	31	30	28	26	25	24	23	22	21	20	20	20	20	20	20	19	20	23	25	28	30	33	34	35	36	36	37	37	36	35	35	34	35	37	38	41	45	49	51	51	50	51	57	58	61	70	72	73	73	77	82	85	87	88	88	89	92	90	88	88	87	86	86	85	84	82	80	79	78	75	72	71	69	67	65	63	60	57	54	52	49	47	44	42	38	32	25	23	23	23	22	22	22	22	22	22	22	22	22	22	22	22	22	21	21	21	21	20	20	19	19	18	18	18	19	19	19	19	19	19	20	20	21	22	22	21	20	18	17	17	16	16	16	16	12	6	4	3	2	1	0	0	0	0	0	0	0	0	0	0	0	0	0	0	0	0	0	0	0	0	0	0	0	0	0	0	0	0	0	0	0	0	0	0	0	0	0	0	0	0	0	0	0	0	0	0	0	0	0	0	0	0	0	0	0	0	0	0	0	0	0	0	0	0	0	0	0	0	0	0	0	0	0	0	0	0	0	0	0	0	0	0	0	0	0	0	0	0	0	0	0	0	0	0	0	0	0	0	0	0	0	0	0	0	0	0	0	0	0	0	0	0	0	0	0	0	0	0	0	0	0	0	0	0	0	0	0	0	0	0	0	0	0	0	0	0	0	0	0	0	0	0	0	0	0	0	0	0	0	0	0	0	0	0	0	0	0	0	0	0	0	0	0	0	0	0	0	0	0	0	0	0	0	0	0	0	0	0	0	0	0	0	0	0	0	0	0	0	0	0	0	0	0	0	0	0	0	0	0	0	0	0	0	0	0	0	0	0	0	0	0	0	0	0	0	0	0	0	0	0	0	0	0	0	0	0	0	0	0	0	0	0	0	0	0	0	0	0	0	0	0	0	0	0	0	0	0	0	0	0	0	0	0	0	0	0	0	0	0	0	0	0	0	0	0	0	0	0	0	0	0	0	0	0	0	0	0	0	0	0	0	0	0	0	0	0	0	0	0	0	0	0	0	0	0	0	0	0	0	0	0	0	0	0	0	0	0	0	0	0	0	0	0	0	0	0	0	0	0	0	0	0	0	0	0	0	0	0	0	0	0	0	0	0	0	0	0	0	0	0	0	0	0	0	0	0	0	0	0	0	0	0	0	0	0	0	0	0	0	0	0	0	0	0	0	0	0	0	0	0	0	0	0	0	0	0	0	0	0	0	0	0	0	0	0	0	0	0	0	0	0	0	0	0	0	0	0	0	0	0	0	0	0	0	0	0	0	0	0	0	0	0	0	0	0	0	0	0	0	0	0	0	0	0	0	0	0	0	0	0	1	3	4	7	12	19	23	25	28	31	32	33	34	35	35	35	35	34	35	36	35	34	35	38	39	41	43	45	47	48	50	52	55	57	60	63	65	68	71	74	77	79	81	83	85	88	90	92	93	95	96	97	99	102	103	104	105	107	109	111	114	116	118	119	122	124	125	127	129	133	135	138	140	142	143	145	146	147	148	148	148	148	149	149	148	147	144	143	143	144	144	145	144	142	141	140	139	139	139	139	139	139	139	139	139	140	140	140	138	137	136	135	134	133	132	131	131	131	131	130	128	128	128	128	127	126	125	125	124	123	121	120	120	119	119	118	116	114	113	111	110	108	107	105	105	107	108	108	107	106	105	105	106	107	110	113	116	117	118	118	119	121	123	125	127	129	132	134	135	136	136	137	138	137	137	137	137	136	135	135	136	135	136	137	137	137	136	135	134	133	132	131	130	128	127	125	124	124	123	122	120	118	116	115	113	111	110	108	106	105	103	101	99	97	95	92	90	88	86	84	82	79	77	75	73	72	70	69	69	68	68	67	66	64	62	59	57	54	52	50	47	45	43	42	42	44	45	44	43	40	37	35	37	38	37	36	34	32	31	29	27	25	23	21	20	20	21	23	24	25	26	28	29	30	31	32	33	34	35	36	36	36	36	36	36	36	36	35	35	35	35	36	36	37	37	38	39	40	41	43	44	45	46	47	49	50	51	52	53	54	56	58	58	59	61	61	57	54	54	53	52	51	51	50	49	48	48	48	49	50	52	53	53	53	53	54	56	58	59	61	61	62	62	62	59	56	52	48	38	21	9	6	4	2	1	0	0	0	0	0	0	0	0	0	0	0	0	0	0	0	0	0	0	0	0	0	0	0	0	0	0	0	0	0	0	0	0	0	0	0	0	0	0	0	0	0	0	0	0	0	0	0	0	0	0	0	0	0	0	0	0	0	0	0	0
30	32	32	33	33	34	33	32	31	29	28	28	28	28	29	29	28	26	24	23	22	22	21	20	20	19	18	19	19	19	18	20	23	26	29	31	33	35	36	36	35	35	35	34	33	32	32	32	34	36	40	44	47	48	49	50	50	51	50	52	60	65	69	70	72	78	83	85	87	86	82	86	91	90	91	89	88	88	87	86	84	82	83	81	78	75	73	71	68	66	63	60	57	54	52	49	47	44	42	38	30	24	23	23	22	22	22	22	22	22	22	22	22	22	22	22	22	22	22	22	22	22	22	22	21	21	21	21	20	20	20	20	20	20	20	21	21	22	23	23	22	21	19	18	18	18	18	18	18	13	6	4	3	2	2	1	1	0	0	0	0	0	0	0	0	0	0	0	0	0	0	0	0	0	0	0	0	0	0	0	0	0	0	0	0	0	0	0	0	0	0	0	0	0	0	0	0	0	0	0	0	0	0	0	0	0	0	0	0	0	0	0	0	0	0	0	0	0	0	0	0	0	0	0	0	0	0	0	0	0	0	0	0	0	0	0	0	0	0	0	0	0	0	0	0	0	0	0	0	0	0	0	0	0	0	0	0	0	0	0	0	0	0	0	0	0	0	0	0	0	0	0	0	0	0	0	0	0	0	0	0	0	0	0	0	0	0	0	0	0	0	0	0	0	0	0	0	0	0	0	0	0	0	0	0	0	0	0	0	0	0	0	0	0	0	0	0	0	0	0	0	0	0	0	0	0	0	0	0	0	0	0	0	0	0	0	0	0	0	0	0	0	0	0	0	0	0	0	0	0	0	0	0	0	0	0	0	0	0	0	0	0	0	0	0	0	0	0	0	0	0	0	0	0	0	0	0	0	0	0	0	0	0	0	0	0	0	0	0	0	0	0	0	0	0	0	0	0	0	0	0	0	0	0	0	0	0	0	0	0	0	0	0	0	0	0	0	0	0	0	0	0	0	0	0	0	0	0	0	0	0	0	0	0	0	0	0	0	0	0	0	0	0	0	0	0	0	0	0	0	0	0	0	0	0	0	0	0	0	0	0	0	0	0	0	0	0	0	0	0	0	0	0	0	0	0	0	0	0	0	0	0	0	0	0	0	0	0	0	0	0	0	0	0	0	0	0	0	0	0	0	0	0	0	0	0	0	0	0	0	0	0	0	0	0	0	0	0	0	0	0	0	0	0	0	0	0	0	0	0	0	0	0	0	0	0	0	0	0	0	0	0	0	0	0	0	0	0	0	0	0	0	0	0	0	0	0	0	0	0	0	0	0	0	0	0	0	0	0	0	0	0	0	0	0	0	0	0	0	0	0	0	0	0	0	1	3	4	6	10	18	23	25	28	30	31	32	34	35	35	35	35	35	36	37	35	33	34	36	38	40	42	44	45	47	48	50	53	56	59	62	64	67	69	73	76	78	80	81	84	86	89	90	91	92	94	95	98	101	102	103	104	106	108	110	112	115	118	121	123	125	125	127	130	133	136	138	140	142	144	146	147	148	149	149	149	150	151	151	151	150	149	146	145	144	144	145	145	145	144	143	142	141	141	141	140	140	141	141	141	142	142	142	141	139	138	137	136	135	134	133	132	132	133	132	131	130	129	129	128	127	126	125	125	124	123	122	122	121	120	119	118	115	114	112	111	110	109	107	107	108	109	110	109	108	106	105	107	108	110	114	117	118	118	118	119	121	123	125	127	129	131	133	135	136	137	138	138	138	137	137	138	138	137	137	138	138	138	139	139	138	137	137	135	134	133	132	131	130	128	126	126	125	124	123	121	119	117	115	114	112	110	108	106	105	103	101	100	98	96	93	91	89	87	84	82	80	78	75	74	72	71	70	69	69	69	68	67	64	62	59	57	54	52	49	47	45	42	40	39	39	40	41	40	37	34	32	33	34	34	34	32	31	29	27	26	24	22	20	19	19	19	21	22	23	24	25	26	27	28	29	31	33	34	35	34	34	34	34	35	35	35	35	34	34	35	35	36	36	37	38	38	39	40	41	43	44	45	46	48	50	52	54	54	54	55	56	57	57	57	57	55	55	56	57	54	52	52	51	50	49	49	49	50	51	52	53	53	53	53	54	56	57	58	59	60	61	61	60	59	55	51	45	35	23	12	8	6	4	2	0	0	0	0	0	0	0	0	0	0	0	0	0	0	0	0	0	0	0	0	0	0	0	0	0	0	0	0	0	0	0	0	0	0	0	0	0	0	0	0	0	0	0	0	0	0	0	0	0	0	0	0	0	0	0	0	0	0	0	0
32	33	33	33	33	33	33	31	30	28	26	25	25	26	27	27	27	25	23	22	21	20	20	20	19	18	17	18	19	19	19	20	24	27	30	32	34	36	37	37	35	34	33	31	30	29	30	31	33	35	38	43	45	47	49	50	51	51	48	53	58	62	65	66	70	75	80	84	86	84	80	80	86	90	92	90	90	89	87	86	85	84	84	83	81	79	75	71	69	65	62	60	57	54	52	49	47	45	42	36	29	24	23	23	22	22	22	22	22	22	22	22	22	22	22	22	22	22	22	22	22	23	23	23	23	22	23	23	22	22	22	22	22	22	22	22	22	23	23	23	22	21	20	19	20	20	19	19	18	13	6	5	4	3	2	2	1	0	0	0	0	0	0	0	0	0	0	0	0	0	0	0	0	0	0	0	0	0	0	0	0	0	0	0	0	0	0	0	0	0	0	0	0	0	0	0	0	0	0	0	0	0	0	0	0	0	0	0	0	0	0	0	0	0	0	0	0	0	0	0	0	0	0	0	0	0	0	0	0	0	0	0	0	0	0	0	0	0	0	0	0	0	0	0	0	0	0	0	0	0	0	0	0	0	0	0	0	0	0	0	0	0	0	0	0	0	0	0	0	0	0	0	0	0	0	0	0	0	0	0	0	0	0	0	0	0	0	0	0	0	0	0	0	0	0	0	0	0	0	0	0	0	0	0	0	0	0	0	0	0	0	0	0	0	0	0	0	0	0	0	0	0	0	0	0	0	0	0	0	0	0	0	0	0	0	0	0	0	0	0	0	0	0	0	0	0	0	0	0	0	0	0	0	0	0	0	0	0	0	0	0	0	0	0	0	0	0	0	0	0	0	0	0	0	0	0	0	0	0	0	0	0	0	0	0	0	0	0	0	0	0	0	0	0	0	0	0	0	0	0	0	0	0	0	0	0	0	0	0	0	0	0	0	0	0	0	0	0	0	0	0	0	0	0	0	0	0	0	0	0	0	0	0	0	0	0	0	0	0	0	0	0	0	0	0	0	0	0	0	0	0	0	0	0	0	0	0	0	0	0	0	0	0	0	0	0	0	0	0	0	0	0	0	0	0	0	0	0	0	0	0	0	0	0	0	0	0	0	0	0	0	0	0	0	0	0	0	0	0	0	0	0	0	0	0	0	0	0	0	0	0	0	0	0	0	0	0	0	0	0	0	0	0	0	0	0	0	0	0	0	0	0	0	0	0	0	0	0	0	0	0	0	0	0	0	0	0	0	0	0	0	0	0	0	0	0	0	0	0	0	0	0	0	0	0	0	0	0	0	0	0	0	0	0	0	0	0	0	0	0	0	0	0	0	0	1	2	3	4	7	16	21	24	27	29	30	32	34	35	34	35	35	35	36	36	34	32	32	34	36	38	41	42	43	45	47	49	52	55	58	61	63	65	68	71	74	77	78	80	82	85	87	88	88	90	92	94	97	100	101	102	103	104	106	108	110	113	117	121	123	124	125	126	130	133	135	137	140	143	144	146	148	149	150	150	151	152	152	153	153	153	152	150	148	146	145	145	146	146	146	146	146	144	143	143	143	143	143	143	143	143	143	143	143	141	140	139	138	137	136	134	134	134	134	134	133	132	132	131	129	128	127	127	127	127	125	124	124	123	121	120	118	116	114	113	112	111	110	109	108	108	110	111	111	110	108	106	107	108	111	114	117	118	119	119	120	121	124	125	127	129	131	132	134	136	137	138	138	139	139	139	141	140	139	139	140	141	141	142	141	140	139	138	137	136	135	133	132	131	130	128	127	126	125	123	122	120	118	116	114	112	110	109	107	105	104	101	100	98	96	94	92	90	87	85	82	80	78	76	74	73	73	72	70	69	69	68	67	64	62	59	57	54	51	48	46	44	42	39	37	35	35	36	36	34	31	30	29	30	30	31	30	28	27	26	25	24	22	20	19	18	18	19	20	20	21	23	24	24	25	26	28	30	32	32	32	31	31	32	32	33	34	34	34	34	34	35	36	36	36	36	37	38	39	40	41	42	43	44	47	50	53	55	55	55	56	56	56	56	56	56	56	56	58	59	56	54	53	52	50	50	51	51	52	52	53	53	53	52	52	53	54	56	57	58	59	60	60	59	57	54	50	43	33	23	14	11	8	5	3	1	0	0	0	0	0	0	0	0	0	0	0	0	0	0	0	0	0	0	0	0	0	0	0	0	0	0	0	0	0	0	0	0	0	0	0	0	0	0	0	0	0	0	0	0	0	0	0	0	0	0	0	0	0	0	0	0	0	0	0
31	32	33	33	32	31	30	29	28	26	24	23	23	23	23	24	24	23	21	20	18	18	19	20	19	18	17	19	20	21	21	23	26	29	31	33	35	37	38	37	34	33	30	28	27	27	28	30	32	34	37	41	44	46	48	50	51	50	49	55	56	58	62	64	69	75	78	82	84	82	79	78	80	84	86	87	89	88	86	85	85	83	82	82	82	80	75	71	68	65	62	59	56	53	51	49	47	45	41	36	28	23	23	22	22	23	23	23	23	23	23	23	23	23	23	23	23	23	23	23	23	23	23	23	23	23	23	23	23	23	23	23	22	22	22	22	22	22	23	23	22	22	21	21	21	21	20	19	18	13	7	5	5	3	3	2	1	0	0	0	0	0	0	0	0	0	0	0	0	0	0	0	0	0	0	0	0	0	0	0	0	0	0	0	0	0	0	0	0	0	0	0	0	0	0	0	0	0	0	0	0	0	0	0	0	0	0	0	0	0	0	0	0	0	0	0	0	0	0	0	0	0	0	0	0	0	0	0	0	0	0	0	0	0	0	0	0	0	0	0	0	0	0	0	0	0	0	0	0	0	0	0	0	0	0	0	0	0	0	0	0	0	0	0	0	0	0	0	0	0	0	0	0	0	0	0	0	0	0	0	0	0	0	0	0	0	0	0	0	0	0	0	0	0	0	0	0	0	0	0	0	0	0	0	0	0	0	0	0	0	0	0	0	0	0	0	0	0	0	0	0	0	0	0	0	0	0	0	0	0	0	0	0	0	0	0	0	0	0	0	0	0	0	0	0	0	0	0	0	0	0	0	0	0	0	0	0	0	0	0	0	0	0	0	0	0	0	0	0	0	0	0	0	0	0	0	0	0	0	0	0	0	0	0	0	0	0	0	0	0	0	0	0	0	0	0	0	0	0	0	0	0	0	0	0	0	0	0	0	0	0	0	0	0	0	0	0	0	0	0	0	0	0	0	0	0	0	0	0	0	0	0	0	0	0	0	0	0	0	0	0	0	0	0	0	0	0	0	0	0	0	0	0	0	0	0	0	0	0	0	0	0	0	0	0	0	0	0	0	0	0	0	0	0	0	0	0	0	0	0	0	0	0	0	0	0	0	0	0	0	0	0	0	0	0	0	0	0	0	0	0	0	0	0	0	0	0	0	0	0	0	0	0	0	0	0	0	0	0	0	0	0	0	0	0	0	0	0	0	0	0	0	0	0	0	0	0	0	0	0	0	0	0	0	0	0	0	0	0	0	0	0	0	0	0	0	0	0	0	0	0	0	0	0	0	0	0	0	0	0	0	0	0	0	0	0	0	0	0	0	0	0	0	0	0	0	1	2	4	7	12	18	23	25	27	29	31	33	33	33	33	33	33	33	34	32	31	31	32	33	36	38	40	42	43	45	48	52	55	57	60	62	64	67	70	73	75	76	78	80	82	84	85	86	88	91	93	95	98	100	101	102	103	105	107	109	112	116	119	120	122	124	126	129	132	134	135	139	142	144	146	147	149	150	152	152	153	153	154	154	154	154	153	152	150	148	147	146	147	147	148	149	148	146	145	146	146	145	145	145	145	145	145	144	143	142	141	140	138	137	136	136	136	136	136	136	135	135	133	131	130	129	129	128	128	127	126	125	124	122	121	119	117	115	114	112	111	110	109	109	110	111	113	113	112	110	108	108	110	113	114	116	117	119	121	121	122	124	126	127	128	130	131	133	135	137	138	139	139	140	142	143	142	142	142	142	143	143	143	142	142	141	140	139	138	137	135	133	132	131	129	128	127	125	124	122	121	119	117	115	113	111	109	107	105	103	101	100	98	96	94	92	90	88	85	83	80	78	76	75	75	74	73	71	70	69	68	66	64	62	59	57	53	50	47	45	43	40	38	36	33	32	32	31	30	29	28	27	26	27	27	27	26	25	24	24	23	22	20	19	18	18	18	18	19	19	20	22	23	24	24	25	28	30	30	28	27	27	28	29	31	32	33	33	33	34	35	35	35	35	34	35	36	37	38	39	40	41	43	46	49	52	54	55	56	56	56	56	56	57	58	58	58	59	58	57	55	54	52	51	51	52	52	52	52	52	52	52	52	52	52	53	54	55	56	57	58	58	58	55	52	48	40	28	18	13	12	9	6	4	1	0	0	0	0	0	0	0	0	0	0	0	0	0	0	0	0	0	0	0	0	0	0	0	0	0	0	0	0	0	0	0	0	0	0	0	0	0	0	0	0	0	0	0	0	0	0	0	0	0	0	0	0	0	0	0	0	0	0	0
28	31	32	32	31	30	28	26	25	24	23	22	22	21	21	21	21	20	19	16	14	16	19	19	19	18	18	20	21	22	23	25	28	30	32	33	36	38	39	36	33	31	28	26	25	25	27	29	31	32	35	40	43	45	48	50	51	50	50	54	55	55	61	62	66	74	78	81	82	79	76	77	78	80	83	85	86	86	85	85	83	79	77	79	79	77	73	70	67	64	61	58	55	53	51	49	47	45	41	35	27	23	22	22	22	23	23	23	23	23	23	23	23	23	23	23	23	23	23	23	23	23	23	23	23	23	23	23	23	23	23	23	23	23	23	23	23	23	22	22	22	22	22	22	22	22	21	20	18	14	8	6	5	3	3	2	1	0	0	0	0	0	0	0	0	0	0	0	0	0	0	0	0	0	0	0	0	0	0	0	0	0	0	0	0	0	0	0	0	0	0	0	0	0	0	0	0	0	0	0	0	0	0	0	0	0	0	0	0	0	0	0	0	0	0	0	0	0	0	0	0	0	0	0	0	0	0	0	0	0	0	0	0	0	0	0	0	0	0	0	0	0	0	0	0	0	0	0	0	0	0	0	0	0	0	0	0	0	0	0	0	0	0	0	0	0	0	0	0	0	0	0	0	0	0	0	0	0	0	0	0	0	0	0	0	0	0	0	0	0	0	0	0	0	0	0	0	0	0	0	0	0	0	0	0	0	0	0	0	0	0	0	0	0	0	0	0	0	0	0	0	0	0	0	0	0	0	0	0	0	0	0	0	0	0	0	0	0	0	0	0	0	0	0	0	0	0	0	0	0	0	0	0	0	0	0	0	0	0	0	0	0	0	0	0	0	0	0	0	0	0	0	0	0	0	0	0	0	0	0	0	0	0	0	0	0	0	0	0	0	0	0	0	0	0	0	0	0	0	0	0	0	0	0	0	0	0	0	0	0	0	0	0	0	0	0	0	0	0	0	0	0	0	0	0	0	0	0	0	0	0	0	0	0	0	0	0	0	0	0	0	0	0	0	0	0	0	0	0	0	0	0	0	0	0	0	0	0	0	0	0	0	0	0	0	0	0	0	0	0	0	0	0	0	0	0	0	0	0	0	0	0	0	0	0	0	0	0	0	0	0	0	0	0	0	0	0	0	0	0	0	0	0	0	0	0	0	0	0	0	0	0	0	0	0	0	0	0	0	0	0	0	0	0	0	0	0	0	0	0	0	0	0	0	0	0	0	0	0	0	0	0	0	0	0	0	0	0	0	0	0	0	0	0	0	0	0	0	0	0	0	0	0	0	0	0	0	0	0	0	0	0	0	0	0	0	0	0	0	0	0	0	0	0	0	0	1	2	4	6	9	16	21	23	25	27	29	31	32	32	31	30	30	31	32	31	30	30	30	30	33	36	38	39	42	44	47	51	54	56	59	61	64	66	68	70	73	75	76	78	80	81	82	84	87	89	91	94	97	100	101	102	103	105	106	108	111	114	116	118	121	123	125	129	131	132	134	137	140	143	145	147	148	150	152	153	153	154	155	155	156	156	155	154	153	152	150	148	147	148	149	150	150	149	148	148	148	148	147	147	147	147	147	146	145	144	143	141	140	139	138	138	138	138	139	139	138	137	135	133	132	131	131	130	129	128	127	126	125	124	122	120	118	117	116	114	112	111	110	110	110	112	114	116	115	112	110	111	114	116	115	115	117	119	122	123	124	125	126	127	129	130	131	133	135	138	139	139	140	142	143	144	144	144	144	144	144	144	144	143	144	143	142	141	140	139	137	135	133	132	130	129	128	126	125	123	121	119	118	115	113	111	109	107	105	103	101	100	98	96	94	92	90	88	85	83	80	78	76	75	75	75	74	72	70	69	67	65	63	61	59	56	52	49	46	43	41	39	36	34	32	31	29	29	28	28	27	26	25	25	25	25	24	24	23	23	22	21	20	19	18	18	17	17	17	18	18	20	21	22	23	24	25	27	27	25	23	23	24	26	28	30	31	31	32	33	34	34	34	32	31	31	33	34	36	38	39	40	42	45	48	50	52	53	55	56	56	57	57	58	59	59	59	59	59	57	56	54	53	52	52	52	53	53	53	52	51	52	52	52	52	52	52	53	55	56	56	56	56	53	49	45	35	20	10	9	10	8	6	4	2	1	0	0	0	0	0	0	0	0	0	0	0	0	0	0	0	0	0	0	0	0	0	0	0	0	0	0	0	0	0	0	0	0	0	0	0	0	0	0	0	0	0	0	0	0	0	0	0	0	0	0	0	0	0	0	0	0	0	0
26	29	31	31	30	29	28	25	24	23	22	22	22	21	20	19	18	18	17	14	11	12	13	14	17	17	18	19	21	23	24	26	28	31	32	33	35	37	37	34	31	29	26	24	23	24	26	28	30	31	34	38	42	44	47	49	50	50	49	51	51	51	57	59	66	72	77	81	78	74	74	75	76	78	81	84	85	84	84	83	79	75	74	74	75	76	73	70	67	63	60	58	55	52	50	48	47	46	42	34	26	23	23	23	23	23	23	23	23	23	23	23	23	23	23	23	23	23	23	23	23	23	23	23	23	23	23	23	23	23	23	23	23	23	23	23	23	23	23	23	23	23	23	23	23	22	22	20	19	15	9	6	5	4	3	2	1	0	0	0	0	0	0	0	0	0	0	0	0	0	0	0	0	0	0	0	0	0	0	0	0	0	0	0	0	0	0	0	0	0	0	0	0	0	0	0	0	0	0	0	0	0	0	0	0	0	0	0	0	0	0	0	0	0	0	0	0	0	0	0	0	0	0	0	0	0	0	0	0	0	0	0	0	0	0	0	0	0	0	0	0	0	0	0	0	0	0	0	0	0	0	0	0	0	0	0	0	0	0	0	0	0	0	0	0	0	0	0	0	0	0	0	0	0	0	0	0	0	0	0	0	0	0	0	0	0	0	0	0	0	0	0	0	0	0	0	0	0	0	0	0	0	0	0	0	0	0	0	0	0	0	0	0	0	0	0	0	0	0	0	0	0	0	0	0	0	0	0	0	0	0	0	0	0	0	0	0	0	0	0	0	0	0	0	0	0	0	0	0	0	0	0	0	0	0	0	0	0	0	0	0	0	0	0	0	0	0	0	0	0	0	0	0	0	0	0	0	0	0	0	0	0	0	0	0	0	0	0	0	0	0	0	0	0	0	0	0	0	0	0	0	0	0	0	0	0	0	0	0	0	0	0	0	0	0	0	0	0	0	0	0	0	0	0	0	0	0	0	0	0	0	0	0	0	0	0	0	0	0	0	0	0	0	0	0	0	0	0	0	0	0	0	0	0	0	0	0	0	0	0	0	0	0	0	0	0	0	0	0	0	0	0	0	0	0	0	0	0	0	0	0	0	0	0	0	0	0	0	0	0	0	0	0	0	0	0	0	0	0	0	0	0	0	0	0	0	0	0	0	0	0	0	0	0	0	0	0	0	0	0	0	0	0	0	0	0	0	0	0	0	0	0	0	0	0	0	0	0	0	0	0	0	0	0	0	0	0	0	0	0	0	0	0	0	0	0	0	0	0	0	0	0	0	0	0	0	0	0	0	0	0	0	0	0	0	0	0	0	0	0	0	0	0	0	0	0	1	2	4	5	6	12	19	21	22	24	27	29	30	31	30	29	29	29	29	28	28	27	28	28	30	33	35	38	41	44	47	50	52	54	57	60	62	64	66	68	70	73	75	76	77	78	80	83	85	87	89	92	95	98	99	101	102	104	106	107	109	112	114	117	119	121	123	127	130	131	133	136	139	141	144	146	148	150	151	152	154	155	155	156	156	157	156	156	155	154	153	151	150	149	149	150	151	151	151	151	150	149	148	149	149	149	149	148	147	146	145	144	142	141	140	140	140	141	141	142	141	139	137	136	134	133	133	132	131	130	129	128	126	125	124	122	119	118	117	116	114	112	111	111	111	113	116	118	117	114	112	114	117	118	117	117	117	119	122	125	125	126	127	128	130	131	132	134	136	138	139	140	142	143	145	146	146	146	146	146	146	146	145	145	145	145	144	143	141	140	138	137	135	133	131	130	128	127	126	124	122	120	118	116	114	112	110	107	105	103	101	100	98	96	94	92	90	87	85	82	80	78	76	75	74	74	73	72	70	68	66	64	62	60	58	54	51	47	44	42	40	37	35	33	32	31	30	29	28	27	27	25	25	24	24	24	23	23	23	22	21	20	19	19	19	18	17	17	17	17	17	17	19	20	21	22	22	24	24	22	20	20	21	22	24	26	27	28	28	29	32	32	31	29	27	27	28	29	31	36	38	39	41	43	45	47	49	50	52	54	55	57	57	58	59	60	61	61	59	57	56	55	53	53	52	53	53	54	53	52	51	50	51	51	52	52	52	53	53	54	54	54	53	50	45	39	30	14	11	9	8	7	5	4	2	1	0	0	0	0	0	0	0	0	0	0	0	0	0	0	0	0	0	0	0	0	0	0	0	0	0	0	0	0	0	0	0	0	0	0	0	0	0	0	0	0	0	0	0	0	0	0	0	0	0	0	0	0	0	0	0	0	0	0
25	27	28	29	30	29	27	25	23	22	21	21	20	19	19	18	18	17	15	12	9	9	9	9	12	15	17	19	22	24	25	26	28	30	32	32	34	35	34	32	29	27	26	24	23	24	26	27	29	31	34	37	40	43	45	47	48	49	48	49	49	50	53	56	64	69	72	74	72	72	73	74	76	77	81	84	85	85	85	80	76	74	74	77	81	78	73	68	65	63	60	57	54	51	49	48	47	45	40	33	25	23	23	23	23	23	23	23	23	23	23	23	23	23	23	23	23	23	23	23	23	23	23	23	23	23	23	23	23	23	23	23	23	23	23	23	23	23	23	23	23	23	23	23	23	23	21	20	18	15	10	7	5	4	3	2	1	0	0	0	0	0	0	0	0	0	0	0	0	0	0	0	0	0	0	0	0	0	0	0	0	0	0	0	0	0	0	0	0	0	0	0	0	0	0	0	0	0	0	0	0	0	0	0	0	0	0	0	0	0	0	0	0	0	0	0	0	0	0	0	0	0	0	0	0	0	0	0	0	0	0	0	0	0	0	0	0	0	0	0	0	0	0	0	0	0	0	0	0	0	0	0	0	0	0	0	0	0	0	0	0	0	0	0	0	0	0	0	0	0	0	0	0	0	0	0	0	0	0	0	0	0	0	0	0	0	0	0	0	0	0	0	0	0	0	0	0	0	0	0	0	0	0	0	0	0	0	0	0	0	0	0	0	0	0	0	0	0	0	0	0	0	0	0	0	0	0	0	0	0	0	0	0	0	0	0	0	0	0	0	0	0	0	0	0	0	0	0	0	0	0	0	0	0	0	0	0	0	0	0	0	0	0	0	0	0	0	0	0	0	0	0	0	0	0	0	0	0	0	0	0	0	0	0	0	0	0	0	0	0	0	0	0	0	0	0	0	0	0	0	0	0	0	0	0	0	0	0	0	0	0	0	0	0	0	0	0	0	0	0	0	0	0	0	0	0	0	0	0	0	0	0	0	0	0	0	0	0	0	0	0	0	0	0	0	0	0	0	0	0	0	0	0	0	0	0	0	0	0	0	0	0	0	0	0	0	0	0	0	0	0	0	0	0	0	0	0	0	0	0	0	0	0	0	0	0	0	0	0	0	0	0	0	0	0	0	0	0	0	0	0	0	0	0	0	0	0	0	0	0	0	0	0	0	0	0	0	0	0	0	0	0	0	0	0	0	0	0	0	0	0	0	0	0	0	0	0	0	0	0	0	0	0	0	0	0	0	0	0	0	0	0	0	0	0	0	0	0	0	0	0	0	0	0	0	0	0	0	0	0	0	0	0	0	0	0	0	0	0	0	0	0	0	0	0	0	0	1	3	4	4	6	14	19	21	22	25	28	30	30	30	30	28	27	25	25	25	25	25	26	27	31	33	36	39	42	45	48	51	52	54	57	60	62	64	65	68	70	72	73	74	76	78	81	83	85	87	90	94	96	98	99	101	103	105	107	109	110	113	116	118	119	121	124	128	130	131	135	138	140	143	146	148	148	149	151	154	155	156	156	157	157	157	157	157	156	156	155	153	152	150	150	151	152	153	152	151	150	150	150	151	151	151	151	150	149	148	146	145	144	143	142	142	142	143	144	143	142	140	138	137	136	135	134	133	132	131	130	128	127	126	124	121	120	119	117	115	114	113	113	113	116	119	119	118	117	116	117	119	120	119	119	118	119	122	125	126	127	128	129	130	132	133	135	137	138	140	141	143	145	147	148	148	149	149	148	148	147	147	147	147	147	145	144	143	141	140	138	136	134	132	131	129	128	126	125	123	122	120	117	115	113	110	108	105	103	101	99	97	95	93	91	89	87	84	82	80	78	77	75	74	72	71	70	69	67	65	63	61	59	56	53	50	46	43	41	40	38	36	35	34	33	32	31	30	29	27	26	25	24	23	23	22	22	22	21	21	20	19	19	19	18	17	17	16	16	15	16	16	18	19	19	19	19	19	18	17	17	17	18	18	20	21	22	24	25	28	29	26	24	23	23	22	23	25	31	36	38	40	41	42	43	44	45	47	50	52	55	56	56	57	59	61	60	58	57	56	54	53	53	53	53	53	54	53	52	50	49	49	50	51	52	52	52	52	52	52	50	48	45	40	35	25	9	9	9	9	7	5	4	2	1	0	0	0	0	0	0	0	0	0	0	0	0	0	0	0	0	0	0	0	0	0	0	0	0	0	0	0	0	0	0	0	0	0	0	0	0	0	0	0	0	0	0	0	0	0	0	0	0	0	0	0	0	0	0	0	0	0	0
24	25	26	27	28	28	26	24	22	21	21	19	18	17	16	16	17	16	14	12	9	8	8	9	12	16	17	20	22	24	25	26	28	30	31	31	32	33	33	31	28	26	25	24	23	24	25	27	29	31	33	35	38	41	44	46	46	46	47	47	48	50	52	55	58	62	64	68	70	70	72	74	75	78	84	87	87	85	86	79	76	75	76	79	81	76	71	67	64	62	59	56	53	51	49	47	46	43	38	33	25	23	22	22	23	23	23	23	23	23	23	23	23	23	23	23	23	23	23	23	23	23	23	23	23	23	23	23	23	23	23	23	23	23	23	23	23	23	23	23	23	23	23	23	23	22	20	18	16	14	11	8	5	4	3	2	1	0	0	0	0	0	0	0	0	0	0	0	0	0	0	0	0	0	0	0	0	0	0	0	0	0	0	0	0	0	0	0	0	0	0	0	0	0	0	0	0	0	0	0	0	0	0	0	0	0	0	0	0	0	0	0	0	0	0	0	0	0	0	0	0	0	0	0	0	0	0	0	0	0	0	0	0	0	0	0	0	0	0	0	0	0	0	0	0	0	0	0	0	0	0	0	0	0	0	0	0	0	0	0	0	0	0	0	0	0	0	0	0	0	0	0	0	0	0	0	0	0	0	0	0	0	0	0	0	0	0	0	0	0	0	0	0	0	0	0	0	0	0	0	0	0	0	0	0	0	0	0	0	0	0	0	0	0	0	0	0	0	0	0	0	0	0	0	0	0	0	0	0	0	0	0	0	0	0	0	0	0	0	0	0	0	0	0	0	0	0	0	0	0	0	0	0	0	0	0	0	0	0	0	0	0	0	0	0	0	0	0	0	0	0	0	0	0	0	0	0	0	0	0	0	0	0	0	0	0	0	0	0	0	0	0	0	0	0	0	0	0	0	0	0	0	0	0	0	0	0	0	0	0	0	0	0	0	0	0	0	0	0	0	0	0	0	0	0	0	0	0	0	0	0	0	0	0	0	0	0	0	0	0	0	0	0	0	0	0	0	0	0	0	0	0	0	0	0	0	0	0	0	0	0	0	0	0	0	0	0	0	0	0	0	0	0	0	0	0	0	0	0	0	0	0	0	0	0	0	0	0	0	0	0	0	0	0	0	0	0	0	0	0	0	0	0	0	0	0	0	0	0	0	0	0	0	0	0	0	0	0	0	0	0	0	0	0	0	0	0	0	0	0	0	0	0	0	0	0	0	0	0	0	0	0	0	0	0	0	0	0	0	0	0	0	0	0	0	0	0	0	0	0	0	0	0	0	0	0	0	0	0	0	0	0	0	0	0	0	0	0	0	0	0	0	0	0	0	0	0	1	1	2	2	4	10	16	19	21	24	26	28	29	29	29	26	25	24	24	24	24	24	24	27	30	33	35	38	40	43	46	49	51	53	55	58	60	62	63	65	67	69	69	71	73	76	78	81	83	85	89	91	94	96	98	100	102	104	106	108	110	111	114	117	119	121	124	126	128	130	133	137	139	142	145	147	147	148	150	152	154	156	156	157	157	158	158	158	158	157	156	156	154	153	151	151	152	153	153	153	152	152	152	152	153	153	153	152	151	150	149	148	146	145	145	145	145	145	145	145	144	142	141	139	138	138	137	135	135	133	132	131	130	128	125	124	122	120	118	116	115	115	115	116	119	121	121	121	120	120	121	122	122	121	120	120	120	122	124	127	128	129	130	131	131	133	136	138	139	141	143	145	147	148	149	150	150	151	151	150	149	149	149	149	148	147	145	144	142	141	139	137	135	133	131	130	129	127	126	124	123	121	119	116	114	111	109	106	104	102	99	97	95	93	91	88	86	84	82	81	79	77	75	74	72	70	68	67	65	64	62	60	58	55	52	49	45	43	42	41	40	40	39	38	37	35	34	32	31	30	28	26	25	24	23	22	22	21	21	20	19	18	18	18	18	17	16	15	14	14	14	15	16	17	16	15	14	14	13	13	14	14	13	13	14	16	17	18	19	22	24	21	18	17	17	17	19	21	27	34	36	37	37	38	39	41	42	42	45	48	51	53	53	54	55	56	56	56	55	55	53	53	53	53	53	53	53	53	52	50	48	47	48	49	50	50	49	49	48	47	46	44	42	37	29	19	8	10	10	9	7	6	4	3	1	0	0	0	0	0	0	0	0	0	0	0	0	0	0	0	0	0	0	0	0	0	0	0	0	0	0	0	0	0	0	0	0	0	0	0	0	0	0	0	0	0	0	0	0	0	0	0	0	0	0	0	0	0	0	0	0	0	0
24	25	25	26	27	26	25	22	20	20	21	17	14	13	12	12	13	12	10	11	9	7	7	9	13	16	17	19	21	23	24	27	29	30	30	30	30	31	31	31	28	26	25	24	24	23	24	26	28	30	32	34	36	40	43	44	43	44	46	46	47	49	51	55	58	61	62	66	70	70	71	73	75	80	88	88	85	82	81	77	76	77	79	80	78	72	68	66	63	61	59	55	52	50	48	47	45	41	37	31	24	23	23	23	23	23	23	23	23	23	23	23	23	23	23	23	23	23	23	23	23	23	23	23	23	23	23	23	23	23	23	23	23	23	23	23	23	23	23	23	23	23	23	23	23	22	19	16	15	13	11	8	5	4	3	2	1	0	0	0	0	0	0	0	0	0	0	0	0	0	0	0	0	0	0	0	0	0	0	0	0	0	0	0	0	0	0	0	0	0	0	0	0	0	0	0	0	0	0	0	0	0	0	0	0	0	0	0	0	0	0	0	0	0	0	0	0	0	0	0	0	0	0	0	0	0	0	0	0	0	0	0	0	0	0	0	0	0	0	0	0	0	0	0	0	0	0	0	0	0	0	0	0	0	0	0	0	0	0	0	0	0	0	0	0	0	0	0	0	0	0	0	0	0	0	0	0	0	0	0	0	0	0	0	0	0	0	0	0	0	0	0	0	0	0	0	0	0	0	0	0	0	0	0	0	0	0	0	0	0	0	0	0	0	0	0	0	0	0	0	0	0	0	0	0	0	0	0	0	0	0	0	0	0	0	0	0	0	0	0	0	0	0	0	0	0	0	0	0	0	0	0	0	0	0	0	0	0	0	0	0	0	0	0	0	0	0	0	0	0	0	0	0	0	0	0	0	0	0	0	0	0	0	0	0	0	0	0	0	0	0	0	0	0	0	0	0	0	0	0	0	0	0	0	0	0	0	0	0	0	0	0	0	0	0	0	0	0	0	0	0	0	0	0	0	0	0	0	0	0	0	0	0	0	0	0	0	0	0	0	0	0	0	0	0	0	0	0	0	0	0	0	0	0	0	0	0	0	0	0	0	0	0	0	0	0	0	0	0	0	0	0	0	0	0	0	0	0	0	0	0	0	0	0	0	0	0	0	0	0	0	0	0	0	0	0	0	0	0	0	0	0	0	0	0	0	0	0	0	0	0	0	0	0	0	0	0	0	0	0	0	0	0	0	0	0	0	0	0	0	0	0	0	0	0	0	0	0	0	0	0	0	0	0	0	0	0	0	0	0	0	0	0	0	0	0	0	0	0	0	0	0	0	0	0	0	0	0	0	0	0	0	0	0	0	0	0	0	0	0	0	0	0	0	0	0	1	1	1	1	1	3	8	14	17	20	21	23	24	24	26	27	26	25	24	25	25	24	23	24	27	30	33	35	37	39	41	45	48	50	52	54	56	58	60	62	63	64	65	66	68	70	73	76	79	81	84	86	89	91	94	97	99	101	103	105	107	109	110	112	114	118	122	124	125	126	128	131	135	138	141	145	147	147	147	148	150	152	154	155	156	157	158	158	158	159	158	157	157	156	155	154	153	153	153	153	154	155	154	154	155	155	155	155	154	153	152	151	150	149	148	148	148	148	147	147	146	146	145	145	143	140	139	138	137	137	135	134	134	133	130	128	125	124	122	120	118	116	116	116	117	120	122	122	122	122	122	123	124	124	124	123	122	122	123	125	127	129	131	131	132	132	134	136	138	139	142	145	147	148	149	150	151	152	152	152	152	151	151	151	151	150	149	147	145	144	142	140	138	136	134	132	130	129	128	126	125	123	122	119	117	115	112	110	108	105	103	100	97	94	92	90	88	86	85	84	82	80	78	76	74	72	70	67	65	64	62	61	59	57	54	52	48	45	43	43	43	43	43	42	41	39	37	36	34	33	31	30	28	26	25	23	22	21	21	20	19	18	17	16	16	16	16	15	14	13	13	13	14	14	14	14	12	10	9	9	10	11	11	11	10	11	11	11	12	13	16	18	16	13	12	11	12	15	18	24	32	34	33	33	33	35	37	37	38	41	45	47	48	49	50	51	52	52	53	53	53	52	51	52	52	53	53	53	53	52	50	48	46	46	46	46	46	45	43	43	42	41	40	39	34	23	9	9	13	11	9	8	7	5	4	2	1	0	0	0	0	0	0	0	0	0	0	0	0	0	0	0	0	0	0	0	0	0	0	0	0	0	0	0	0	0	0	0	0	0	0	0	0	0	0	0	0	0	0	0	0	0	0	0	0	0	0	0	0	0	0	0	0	0
23	24	25	26	25	24	23	21	20	19	18	14	11	10	9	8	8	7	6	7	7	7	7	9	13	16	16	18	21	23	24	26	29	31	31	31	31	31	31	31	30	26	24	24	23	23	23	25	27	28	30	32	34	37	39	40	40	42	47	49	48	49	52	58	60	62	63	66	70	71	72	72	74	80	85	82	79	78	77	77	77	76	76	76	74	69	65	63	62	60	57	53	50	48	47	46	44	40	36	29	23	23	23	23	23	23	23	23	23	23	23	23	23	23	23	23	23	23	23	23	23	23	23	23	23	23	23	23	23	23	23	23	23	23	23	23	23	23	23	23	23	23	23	23	23	22	17	15	14	12	10	8	5	3	2	2	1	0	0	0	0	0	0	0	0	0	0	0	0	0	0	0	0	0	0	0	0	0	0	0	0	0	0	0	0	0	0	0	0	0	0	0	0	0	0	0	0	0	0	0	0	0	0	0	0	0	0	0	0	0	0	0	0	0	0	0	0	0	0	0	0	0	0	0	0	0	0	0	0	0	0	0	0	0	0	0	0	0	0	0	0	0	0	0	0	0	0	0	0	0	0	0	0	0	0	0	0	0	0	0	0	0	0	0	0	0	0	0	0	0	0	0	0	0	0	0	0	0	0	0	0	0	0	0	0	0	0	0	0	0	0	0	0	0	0	0	0	0	0	0	0	0	0	0	0	0	0	0	0	0	0	0	0	0	0	0	0	0	0	0	0	0	0	0	0	0	0	0	0	0	0	0	0	0	0	0	0	0	0	0	0	0	0	0	0	0	0	0	0	0	0	0	0	0	0	0	0	0	0	0	0	0	0	0	0	0	0	0	0	0	0	0	0	0	0	0	0	0	0	0	0	0	0	0	0	0	0	0	0	0	0	0	0	0	0	0	0	0	0	0	0	0	0	0	0	0	0	0	0	0	0	0	0	0	0	0	0	0	0	0	0	0	0	0	0	0	0	0	0	0	0	0	0	0	0	0	0	0	0	0	0	0	0	0	0	0	0	0	0	0	0	0	0	0	0	0	0	0	0	0	0	0	0	0	0	0	0	0	0	0	0	0	0	0	0	0	0	0	0	0	0	0	0	0	0	0	0	0	0	0	0	0	0	0	0	0	0	0	0	0	0	0	0	0	0	0	0	0	0	0	0	0	0	0	0	0	0	0	0	0	0	0	0	0	0	0	0	0	0	0	0	0	0	0	0	0	0	0	0	0	0	0	0	0	0	0	0	0	0	0	0	0	0	0	0	0	0	0	0	0	0	0	0	0	0	0	0	0	0	0	0	0	0	0	0	0	0	0	0	0	0	0	0	0	0	0	1	1	1	1	1	3	8	12	15	18	19	20	20	21	24	27	27	25	24	23	24	23	23	25	27	30	32	34	37	39	41	44	47	49	51	52	54	56	58	60	61	62	63	64	66	68	71	74	78	80	83	85	87	90	92	95	98	99	101	103	105	107	109	110	112	117	122	124	124	125	127	129	133	135	139	142	146	146	146	147	148	150	152	153	155	156	157	157	158	158	158	158	158	158	158	157	157	156	155	154	154	155	155	156	157	158	158	157	157	156	155	154	152	151	150	150	150	150	150	149	149	148	148	148	146	143	142	140	140	139	137	135	135	134	132	130	127	125	124	124	121	119	118	118	119	121	122	123	123	123	123	123	124	126	126	126	126	126	127	127	128	129	131	132	133	135	136	137	138	140	143	146	147	149	151	153	154	154	154	154	154	153	153	153	153	152	151	149	147	145	143	141	139	137	135	133	131	130	128	127	126	124	122	120	118	116	113	111	109	106	103	100	97	95	93	91	89	88	87	85	83	81	79	77	74	72	70	67	65	63	62	60	58	56	54	52	48	45	45	46	46	46	45	44	42	41	39	38	36	35	33	31	30	28	26	25	24	22	21	20	19	18	17	15	14	14	14	14	13	12	12	12	12	13	13	12	10	8	7	7	7	8	8	8	8	8	8	7	8	9	12	13	11	9	8	7	8	12	16	21	27	30	29	29	29	30	30	28	32	37	40	41	44	46	47	48	48	49	49	50	50	50	50	51	52	52	52	52	52	51	50	47	45	44	44	44	43	41	39	38	38	38	37	35	27	13	6	12	15	11	9	8	7	6	5	3	1	0	0	0	0	0	0	0	0	0	0	0	0	0	0	0	0	0	0	0	0	0	0	0	0	0	0	0	0	0	0	0	0	0	0	0	0	0	0	0	0	0	0	0	0	0	0	0	0	0	0	0	0	0	0	0	0	0
23	23	24	24	23	22	21	20	19	16	13	10	9	8	8	7	7	6	6	6	6	6	7	9	12	15	17	19	22	24	25	27	29	31	32	32	32	31	31	31	30	26	24	24	23	22	23	24	26	27	28	30	31	33	34	35	37	40	45	47	46	49	55	58	59	61	62	65	68	70	71	73	74	77	78	76	76	76	76	76	75	74	72	71	69	65	62	60	59	57	54	50	48	47	46	44	42	38	34	28	23	23	23	23	23	23	23	23	23	23	23	23	23	23	23	23	23	23	23	23	23	23	23	23	23	23	23	23	23	23	23	23	23	23	23	23	23	23	23	23	23	23	23	23	22	21	15	13	13	11	9	7	5	3	3	2	1	0	0	0	0	0	0	0	0	0	0	0	0	0	0	0	0	0	0	0	0	0	0	0	0	0	0	0	0	0	0	0	0	0	0	0	0	0	0	0	0	0	0	0	0	0	0	0	0	0	0	0	0	0	0	0	0	0	0	0	0	0	0	0	0	0	0	0	0	0	0	0	0	0	0	0	0	0	0	0	0	0	0	0	0	0	0	0	0	0	0	0	0	0	0	0	0	0	0	0	0	0	0	0	0	0	0	0	0	0	0	0	0	0	0	0	0	0	0	0	0	0	0	0	0	0	0	0	0	0	0	0	0	0	0	0	0	0	0	0	0	0	0	0	0	0	0	0	0	0	0	0	0	0	0	0	0	0	0	0	0	0	0	0	0	0	0	0	0	0	0	0	0	0	0	0	0	0	0	0	0	0	0	0	0	0	0	0	0	0	0	0	0	0	0	0	0	0	0	0	0	0	0	0	0	0	0	0	0	0	0	0	0	0	0	0	0	0	0	0	0	0	0	0	0	0	0	0	0	0	0	0	0	0	0	0	0	0	0	0	0	0	0	0	0	0	0	0	0	0	0	0	0	0	0	0	0	0	0	0	0	0	0	0	0	0	0	0	0	0	0	0	0	0	0	0	0	0	0	0	0	0	0	0	0	0	0	0	0	0	0	0	0	0	0	0	0	0	0	0	0	0	0	0	0	0	0	0	0	0	0	0	0	0	0	0	0	0	0	0	0	0	0	0	0	0	0	0	0	0	0	0	0	0	0	0	0	0	0	0	0	0	0	0	0	0	0	0	0	0	0	0	0	0	0	0	0	0	0	0	0	0	0	0	0	0	0	0	0	0	0	0	0	0	0	0	0	0	0	0	0	0	0	0	0	0	0	0	0	0	0	0	0	0	0	0	0	0	0	0	0	0	0	0	0	0	0	0	0	0	0	0	0	0	0	0	0	0	0	0	0	0	0	0	0	0	0	0	1	1	1	1	1	1	1	3	6	10	13	16	18	19	19	21	24	26	26	25	23	21	21	22	23	24	26	28	31	33	35	37	39	42	45	47	49	50	52	53	55	57	59	61	62	63	64	66	70	73	76	79	82	84	86	88	90	93	96	97	99	100	103	106	109	111	112	116	121	123	123	125	127	129	131	133	135	139	142	145	145	146	147	148	150	152	154	155	155	156	157	158	158	159	159	159	160	160	160	160	159	158	156	156	156	157	158	159	160	160	160	159	158	157	155	154	153	153	152	152	152	152	151	150	150	150	148	146	145	143	142	141	139	137	135	134	133	131	129	126	125	124	123	121	121	121	121	122	124	126	126	126	126	125	125	127	128	128	128	129	130	130	130	131	132	133	134	137	138	137	138	141	144	146	147	150	153	154	155	155	155	156	155	155	155	155	155	154	152	151	149	147	145	143	140	138	136	134	132	130	129	128	126	125	123	121	119	117	115	112	110	107	103	100	98	96	94	92	91	90	88	86	84	81	79	76	74	72	69	67	65	63	61	60	58	56	54	52	49	47	48	49	49	48	47	46	44	42	41	40	38	36	35	34	32	30	28	27	25	24	22	21	19	18	17	16	14	14	14	13	13	12	11	11	11	11	11	10	8	6	5	5	5	4	5	5	5	6	6	5	5	5	8	10	8	7	5	4	5	8	13	17	22	25	24	23	24	27	27	28	31	35	37	39	40	43	44	45	45	45	46	47	47	48	48	50	51	52	52	52	51	50	49	47	44	43	41	41	40	38	35	34	34	35	33	29	19	8	11	15	14	11	9	8	7	6	5	3	1	0	0	0	0	0	0	0	0	0	0	0	0	0	0	0	0	0	0	0	0	0	0	0	0	0	0	0	0	0	0	0	0	0	0	0	0	0	0	0	0	0	0	0	0	0	0	0	0	0	0	0	0	0	0	0	0	0
21	21	21	21	22	22	20	17	13	10	8	8	7	7	7	7	7	6	6	6	6	6	6	7	10	14	18	21	23	25	26	28	29	31	32	32	32	31	30	29	27	24	24	24	24	23	23	24	25	26	27	28	29	30	31	33	35	37	40	41	42	52	60	59	59	60	61	63	66	68	71	73	74	74	74	74	74	74	74	73	72	70	68	67	64	61	58	57	56	54	52	49	47	46	45	43	41	37	33	26	23	23	23	23	23	23	23	23	23	23	23	23	23	23	23	23	23	23	23	23	23	23	23	23	23	23	23	23	23	23	23	23	23	23	23	23	23	23	23	23	23	23	23	23	22	20	14	12	12	10	8	6	5	3	3	2	1	0	0	0	0	0	0	0	0	0	0	0	0	0	0	0	0	0	0	0	0	0	0	0	0	0	0	0	0	0	0	0	0	0	0	0	0	0	0	0	0	0	0	0	0	0	0	0	0	0	0	0	0	0	0	0	0	0	0	0	0	0	0	0	0	0	0	0	0	0	0	0	0	0	0	0	0	0	0	0	0	0	0	0	0	0	0	0	0	0	0	0	0	0	0	0	0	0	0	0	0	0	0	0	0	0	0	0	0	0	0	0	0	0	0	0	0	0	0	0	0	0	0	0	0	0	0	0	0	0	0	0	0	0	0	0	0	0	0	0	0	0	0	0	0	0	0	0	0	0	0	0	0	0	0	0	0	0	0	0	0	0	0	0	0	0	0	0	0	0	0	0	0	0	0	0	0	0	0	0	0	0	0	0	0	0	0	0	0	0	0	0	0	0	0	0	0	0	0	0	0	0	0	0	0	0	0	0	0	0	0	0	0	0	0	0	0	0	0	0	0	0	0	0	0	0	0	0	0	0	0	0	0	0	0	0	0	0	0	0	0	0	0	0	0	0	0	0	0	0	0	0	0	0	0	0	0	0	0	0	0	0	0	0	0	0	0	0	0	0	0	0	0	0	0	0	0	0	0	0	0	0	0	0	0	0	0	0	0	0	0	0	0	0	0	0	0	0	0	0	0	0	0	0	0	0	0	0	0	0	0	0	0	0	0	0	0	0	0	0	0	0	0	0	0	0	0	0	0	0	0	0	0	0	0	0	0	0	0	0	0	0	0	0	0	0	0	0	0	0	0	0	0	0	0	0	0	0	0	0	0	0	0	0	0	0	0	0	0	0	0	0	0	0	0	0	0	0	0	0	0	0	0	0	0	0	0	0	0	0	0	0	0	0	0	0	0	0	0	0	0	0	0	0	0	0	0	0	0	0	0	0	0	0	0	0	0	0	0	0	0	0	0	0	0	0	0	1	2	2	2	2	2	2	2	3	5	9	12	14	16	17	18	21	22	23	24	24	22	20	19	20	22	23	25	27	29	31	34	36	38	40	43	45	47	48	49	50	52	54	56	58	59	60	62	65	69	72	75	78	81	83	85	87	88	91	94	96	97	98	101	105	109	112	113	115	118	120	121	124	126	129	131	132	134	136	139	142	144	144	145	146	148	151	153	153	154	155	156	157	158	159	160	161	161	161	161	162	162	161	160	159	158	157	157	158	160	161	161	161	160	160	159	157	156	156	156	155	155	155	154	153	152	151	150	148	147	145	144	143	141	139	137	136	134	133	131	128	126	124	123	122	123	123	123	124	126	128	129	129	129	128	127	128	128	129	129	131	132	132	133	133	134	135	136	137	138	138	139	142	144	146	147	150	152	154	155	155	156	157	157	157	157	157	156	155	153	152	150	149	147	144	142	140	137	135	133	131	130	128	127	125	124	122	120	118	116	114	111	108	104	101	99	98	97	95	93	91	89	86	84	81	78	76	74	71	69	67	65	63	61	60	58	56	54	52	49	48	49	51	50	50	49	47	46	44	43	41	40	39	37	37	35	33	31	29	27	25	24	23	21	19	18	17	16	15	15	13	13	12	11	11	10	10	9	7	6	5	4	3	3	3	3	3	3	4	4	4	4	4	5	6	6	5	4	3	3	5	11	15	18	20	19	17	19	23	24	26	30	32	34	37	37	40	41	42	41	41	43	44	45	45	46	48	50	51	51	51	50	49	48	46	44	41	40	39	37	34	31	29	29	29	28	21	8	6	16	17	14	10	8	7	6	5	5	3	1	0	0	0	0	0	0	0	0	0	0	0	0	0	0	0	0	0	0	0	0	0	0	0	0	0	0	0	0	0	0	0	0	0	0	0	0	0	0	0	0	0	0	0	0	0	0	0	0	0	0	0	0	0	0	0	0	0
19	18	17	17	18	18	18	14	10	8	7	7	7	7	6	6	6	6	6	6	6	6	6	7	9	12	17	21	24	25	27	28	29	31	31	32	32	31	29	27	25	25	25	25	24	23	23	24	25	25	25	25	26	27	29	31	33	36	38	40	41	47	60	59	58	58	60	62	64	67	70	71	72	73	73	72	71	71	70	70	69	67	65	63	61	59	56	54	52	51	50	48	47	46	44	43	41	37	33	26	23	23	23	23	23	23	23	23	23	23	23	23	23	23	23	23	23	23	23	23	23	23	23	23	23	23	23	23	23	23	23	23	23	23	23	23	23	23	23	23	23	23	23	23	22	19	13	12	11	9	7	6	5	3	2	2	1	0	0	0	0	0	0	0	0	0	0	0	0	0	0	0	0	0	0	0	0	0	0	0	0	0	0	0	0	0	0	0	0	0	0	0	0	0	0	0	0	0	0	0	0	0	0	0	0	0	0	0	0	0	0	0	0	0	0	0	0	0	0	0	0	0	0	0	0	0	0	0	0	0	0	0	0	0	0	0	0	0	0	0	0	0	0	0	0	0	0	0	0	0	0	0	0	0	0	0	0	0	0	0	0	0	0	0	0	0	0	0	0	0	0	0	0	0	0	0	0	0	0	0	0	0	0	0	0	0	0	0	0	0	0	0	0	0	0	0	0	0	0	0	0	0	0	0	0	0	0	0	0	0	0	0	0	0	0	0	0	0	0	0	0	0	0	0	0	0	0	0	0	0	0	0	0	0	0	0	0	0	0	0	0	0	0	0	0	0	0	0	0	0	0	0	0	0	0	0	0	0	0	0	0	0	0	0	0	0	0	0	0	0	0	0	0	0	0	0	0	0	0	0	0	0	0	0	0	0	0	0	0	0	0	0	0	0	0	0	0	0	0	0	0	0	0	0	0	0	0	0	0	0	0	0	0	0	0	0	0	0	0	0	0	0	0	0	0	0	0	0	0	0	0	0	0	0	0	0	0	0	0	0	0	0	0	0	0	0	0	0	0	0	0	0	0	0	0	0	0	0	0	0	0	0	0	0	0	0	0	0	0	0	0	0	0	0	0	0	0	0	0	0	0	0	0	0	0	0	0	0	0	0	0	0	0	0	0	0	0	0	0	0	0	0	0	0	0	0	0	0	0	0	0	0	0	0	0	0	0	0	0	0	0	0	0	0	0	0	0	0	0	0	0	0	0	0	0	0	0	0	0	0	0	0	0	0	0	0	0	0	0	0	0	0	0	0	0	0	0	0	0	0	0	0	0	0	0	0	0	0	0	0	0	0	0	0	0	0	0	0	0	0	0	0	1	2	3	3	3	4	4	4	3	4	5	9	11	13	14	14	16	18	19	19	21	23	22	20	18	18	20	22	24	26	28	30	33	35	37	39	41	43	45	46	47	48	49	51	53	53	55	57	60	63	66	69	72	76	80	82	84	85	87	89	92	94	95	96	99	104	108	111	113	113	115	117	119	122	125	128	130	131	133	135	138	140	141	142	143	145	146	149	151	152	153	154	155	157	158	160	161	162	162	162	162	162	163	163	162	163	162	161	160	160	160	160	161	161	161	161	162	161	159	159	159	158	158	157	157	156	154	153	151	150	149	147	146	144	143	141	140	139	136	134	132	130	128	126	124	124	124	124	124	126	128	130	131	132	132	132	131	130	129	130	131	132	133	134	135	135	136	136	136	137	138	139	141	143	145	146	148	150	152	153	155	156	157	158	158	159	158	158	158	156	154	153	152	150	148	146	143	141	138	136	134	132	130	129	127	126	125	123	121	120	118	115	113	110	106	103	101	100	99	97	95	92	90	87	84	81	78	76	74	72	69	67	65	63	61	60	58	56	54	52	50	49	51	52	52	51	50	49	47	46	45	44	42	41	40	39	38	36	34	32	29	27	26	24	23	21	19	19	18	17	16	14	12	12	11	10	10	8	7	5	4	3	3	2	2	2	2	2	2	2	3	3	3	3	3	3	4	4	3	3	2	3	7	12	15	16	15	14	14	16	18	20	24	26	28	30	33	37	38	39	38	37	39	41	42	42	43	46	48	49	49	49	48	48	47	45	43	40	38	37	35	31	27	25	24	23	20	10	4	8	18	19	14	10	9	7	5	4	3	2	1	0	0	0	0	0	0	0	0	0	0	0	0	0	0	0	0	0	0	0	0	0	0	0	0	0	0	0	0	0	0	0	0	0	0	0	0	0	0	0	0	0	0	0	0	0	0	0	0	0	0	0	0	0	0	0	0	0
