127	120	116	112	115	118	116	112	106	104	104	103	103	101	101	102	105	109	112	116	116	115	118	122	124	128	131	131	133	136	139	142	144	145	147	148	150	152	154	155	156	158	159	159	160	162	162	162	162	162	162	164	165	163	160	159	158	157	157	158	160	160	160	161	162	162	161	161	161	161	162	162	162	162	161	159	156	155	156	156	155	154	154	153	152	153	155	157	156	156	156	156	155	154	154	154	155	156	156	155	156	157	158	158	157	153	151	149	145	143	143	142	141	140	139	139	140	143	144	143	142	142	143	145	148	148	146	145	147	148	146	145	143	142	141	140	139	139	139	139	140	141	142	142	142	142	140	137	137	138	137	138	140	142	143	144	147	153	155	157	159	161	164	170	173	173	172	172	172	173	173	172	172	174	175	173	173	174	175	176	178	181	184	186	187	188	191	193	195	197	199	203	207	207	209	211	214	217	221	224	226	228	232	234	237	240	242	243	246	248	251	255	259	261	265	267	269	271	274	277	281	282	283	286	290	294	297	301	304	308	313	318	323	329	335	339	343	346	349	352	356	359	363	365	368	370	371	371	371	370	369	368	367	366	365	365	365	365	365	366	367	368	368	370	372	374	376	379	381	383	384	386	386	387	387	388	389	390	391	391	392	392	392	392	391	389	387	385	382	380	377	374	371	368	365	362	359	356	353	350	347	343	340	337	334	331	328	326	323	321	318	314	311	309	306	303	301	299	297	294	290	284	280	276	273	270	266	264	261	258	255	253	251	249	247	245	246	247	250	252	249	247	244	242	238	235	235	236	236	233	229	224	221	218	217	219	228	229	226	228	232	231	230	229	227	225	222	219	216	213	209	202	199	199	199	198	196	193	190	186	181	181	182	182	181	181	180	178	176	175	175	177	175	174	173	171	168	168	170	174	174	172	170	170	170	169	166	162	160	158	158	156	155	153	152	150	150	150	148	146	144	143	143	143	144	145	144	142	141	139	137	135	134	134	133	132	130	129	127	124	122	121	121	120	120	120	119	120	120	120	120	119	117	114	113	112	111	110	109	108	108	108	107	108	109	107	105	104	102	100	99	99	99	99	98	96	96	95	94	93	93	93	92	91	90	89	88	87	85	83	80	77	73	70	66	61	55	51	49	48	47	47	47	47	47	47	47	47	47	47	47	47	47	47	47	47	47	47	47	47	47	47	48	48	48	49	50	51	52	55	59	61	62	62	61	62	64	65	65	65	65	65	66	66	67	68	70	71	72	73	74	75	75	75	74	74	74	76	77	78	78	79	79	78	78	79	80	81	82	84	84	84	84	84	83	83	84	85	85	86	87	88	90	92	94	96	96	97	98	99	101	102	103	105	107	109	111	113	114	116	119	121	123	124	126	128	131	135	139	141	142	145	148	151	155	158	161	162	165	169	172	175	179	185	192	197	202	203	204	209	211	211	213	217	220	219	220	222	223	223	225	227	229	230	230	231	231	232	231	230	231	234	234	235	235	235	235	236	237	238	240	241	244	247	250	253	256	259	263	267	269	271	273	275	279	283	291	297	300	302	306	311	315	318	321	324	325	326	325	324	324	323	323	323	323	323	323	322	322	322	322	323	324	326	327	328	329	330	332	333	333	333	334	336	338	340	341	342	343	345	347	349	352	354	357	359	360	361	363	364	365	366	367	368	369	370	372	374	376	378	380	382	383	384	385	386	388	389	389	389	389	389	390	391	391	392	392	391	388	385	382	380	378	380	385	388	391	394	397	399	400	402	404	404	405	405	404	403	401
130	124	116	112	117	117	115	111	106	104	103	102	101	101	100	102	105	109	113	116	118	117	118	120	123	127	130	131	133	136	139	141	143	145	147	149	150	151	153	154	156	157	157	158	159	161	161	162	162	161	160	161	161	159	157	156	155	155	153	154	157	158	158	160	160	160	159	160	161	160	160	161	161	159	157	157	154	152	155	156	154	153	153	151	151	152	154	156	156	156	156	155	153	152	152	152	154	156	155	155	155	156	156	155	153	152	152	149	144	142	142	141	140	140	139	138	138	141	141	140	138	138	141	143	143	142	141	142	144	144	143	143	142	142	141	139	138	138	139	138	139	141	141	140	140	140	137	135	136	137	137	137	139	142	143	143	146	151	154	156	158	160	162	168	171	171	171	171	169	169	169	169	169	171	171	170	171	173	174	176	180	183	185	187	188	189	192	195	197	198	200	204	207	208	209	212	215	219	222	225	227	229	233	235	238	240	241	243	245	248	251	255	258	258	261	268	271	272	274	278	280	282	283	286	290	294	297	300	303	307	313	318	323	329	335	339	343	347	351	354	357	360	363	366	368	370	371	372	372	371	370	369	368	368	367	367	367	367	367	368	369	370	371	372	374	376	378	380	382	384	386	388	388	389	390	390	391	392	392	393	393	393	392	391	390	388	386	384	381	379	376	373	370	367	364	361	358	355	352	349	346	343	340	337	335	332	329	326	324	321	318	314	311	309	306	303	302	301	299	296	291	285	279	275	273	270	267	264	261	258	256	253	251	250	248	246	247	248	251	253	251	249	244	241	238	237	237	237	235	230	227	225	224	223	219	220	228	232	229	230	233	233	231	227	226	224	222	219	216	213	211	206	202	201	201	201	199	195	192	189	186	186	185	183	182	182	180	178	177	177	177	176	174	173	175	175	171	168	169	172	173	173	170	171	172	170	167	163	160	159	159	158	156	154	152	151	150	151	151	150	148	147	147	146	146	146	145	144	143	141	139	137	136	135	134	133	132	131	129	127	124	122	122	121	121	121	121	121	121	121	121	120	118	115	114	113	112	111	110	109	110	109	109	110	111	110	107	104	102	101	100	100	101	102	101	99	97	96	95	95	93	92	92	92	92	91	90	90	88	84	81	77	73	70	67	63	58	54	50	49	48	47	47	47	47	47	47	47	47	47	47	47	47	47	47	47	47	47	48	48	48	48	48	48	48	49	50	51	53	56	59	61	64	62	60	61	64	65	65	65	65	66	67	68	68	69	71	72	72	72	74	75	76	75	75	74	75	77	78	78	78	78	78	78	78	79	81	82	84	85	85	85	85	85	84	83	83	84	85	86	87	88	89	91	94	95	96	97	98	99	101	101	103	104	107	109	110	111	113	116	118	120	122	124	126	128	131	135	139	141	142	144	147	150	155	159	162	163	166	169	172	176	180	185	188	193	199	199	199	205	207	207	209	212	214	213	214	217	219	219	218	220	224	225	226	226	226	226	225	225	226	229	231	229	229	233	235	235	235	236	237	239	241	245	248	252	255	257	261	264	267	269	271	273	277	282	288	295	299	301	304	309	314	317	321	324	327	328	328	328	328	328	328	328	328	327	327	326	326	326	327	327	327	328	330	332	333	334	336	336	337	337	338	340	341	343	344	345	347	349	351	353	355	358	360	363	364	365	367	368	370	371	372	373	373	374	376	378	380	382	384	386	387	388	389	390	392	393	393	394	394	394	394	394	395	395	395	394	392	388	386	384	382	385	389	393	395	398	401	403	405	407	408	409	410	410	409	408	406
128	125	115	112	117	116	114	111	106	103	102	101	100	99	100	103	106	110	113	116	118	118	119	122	125	127	129	131	133	136	139	141	143	144	146	148	149	151	152	154	155	156	156	156	158	160	161	161	162	160	159	159	158	156	155	155	155	154	152	151	153	155	157	158	159	158	157	158	158	157	158	159	158	156	156	156	154	152	153	153	150	149	149	149	150	152	153	153	154	154	154	153	152	152	151	150	151	152	153	153	152	152	152	151	151	151	152	150	146	144	142	141	140	139	137	137	137	137	137	135	134	134	135	136	137	139	139	140	140	140	141	141	141	140	139	138	137	136	136	137	138	139	139	138	138	137	135	134	134	135	137	138	138	141	143	144	146	149	152	155	156	158	160	165	167	169	169	169	167	166	167	167	168	168	167	167	170	172	174	176	181	184	185	187	189	190	192	195	197	200	202	204	207	208	210	213	217	220	223	226	228	230	233	235	237	240	241	243	245	248	250	254	256	257	259	265	270	271	273	276	278	280	282	285	289	292	296	299	302	307	312	317	322	329	335	339	343	347	351	355	358	360	364	366	369	371	372	372	372	372	371	371	370	370	369	369	369	368	369	370	371	372	373	374	376	378	379	381	383	386	388	390	391	392	392	393	393	394	394	394	394	393	392	390	388	387	384	382	380	378	375	373	370	367	364	361	358	355	352	349	346	344	341	338	335	333	330	327	324	321	317	313	311	309	307	303	301	301	300	297	293	285	279	275	273	270	267	264	260	258	255	253	253	253	252	250	250	249	250	252	252	249	244	241	240	240	238	235	233	230	228	228	228	229	222	222	228	233	232	231	234	235	232	228	226	225	222	219	216	213	211	209	206	204	204	203	200	197	194	193	191	189	186	184	184	183	182	180	178	178	177	175	173	174	176	176	175	171	169	169	171	174	174	175	174	172	168	165	162	161	160	159	157	155	153	152	151	152	153	153	152	151	150	149	148	148	147	146	145	143	141	139	138	137	136	134	133	132	131	129	126	124	124	123	123	123	123	122	122	122	121	121	119	117	116	115	114	112	111	110	111	110	111	113	114	112	108	106	104	103	103	104	104	104	102	101	99	96	95	95	93	91	91	93	93	92	91	91	90	87	83	78	74	71	70	67	63	57	52	51	49	48	48	47	47	47	47	47	47	47	47	47	47	47	47	47	47	47	48	49	49	49	49	49	49	49	50	51	53	56	59	61	62	60	59	61	63	64	65	65	66	67	68	68	69	70	72	72	72	72	73	75	76	76	76	76	77	78	79	78	78	78	78	79	79	80	81	83	84	85	85	85	85	85	85	84	83	83	84	86	87	88	89	90	92	94	96	97	98	99	100	102	103	105	107	108	109	110	113	115	118	120	121	124	127	129	130	134	138	140	141	143	146	150	154	158	161	164	166	170	172	175	179	183	186	190	193	195	195	199	202	204	206	207	208	209	210	214	218	217	216	216	218	220	220	220	220	220	220	219	220	222	222	221	221	229	233	232	232	233	234	236	239	243	247	251	254	256	259	262	265	267	270	272	275	281	286	291	297	301	303	307	312	315	319	323	326	329	330	332	332	332	332	332	332	331	331	331	330	331	331	331	331	332	334	336	337	339	340	341	341	341	343	344	345	346	347	348	350	353	355	358	359	361	363	366	368	370	371	373	374	375	376	377	377	378	380	381	384	386	388	389	391	391	392	394	395	397	398	398	398	398	398	398	399	399	399	398	395	392	389	388	388	390	394	397	399	401	404	407	409	411	413	414	414	414	414	412	411
124	119	112	112	116	116	113	112	106	102	100	99	97	97	100	103	106	110	113	116	118	118	119	123	126	127	129	132	134	136	138	141	142	143	144	147	148	150	151	152	154	155	156	156	157	158	159	160	160	159	157	157	156	155	155	154	154	153	152	150	152	154	155	156	156	156	155	155	155	155	155	155	154	155	157	157	153	151	151	148	146	145	145	147	149	150	151	151	151	151	151	151	152	154	151	149	148	149	151	151	150	150	150	150	150	150	151	150	147	145	144	142	141	139	137	135	135	135	134	133	132	132	133	133	134	137	138	139	139	139	139	139	139	139	137	136	135	134	134	135	137	138	137	137	135	134	134	134	133	135	138	138	138	140	143	145	146	149	151	153	155	156	159	164	167	167	168	168	166	167	167	167	167	165	164	166	169	172	173	176	182	185	185	186	188	190	192	194	198	202	204	204	206	209	211	214	218	221	224	226	228	230	232	234	236	238	241	243	245	247	250	253	255	257	259	263	266	268	271	274	276	279	281	284	287	290	294	298	302	306	310	316	320	326	332	338	343	347	350	353	357	360	363	366	369	371	372	373	373	373	373	373	372	372	371	371	371	371	371	372	373	374	375	377	378	380	381	383	384	387	390	392	393	394	395	395	395	396	396	395	395	393	391	389	387	385	383	381	379	377	375	372	370	367	364	361	358	356	353	350	347	344	342	339	337	334	331	329	325	320	313	310	309	307	304	301	298	298	298	296	291	285	279	274	271	268	265	262	259	257	255	254	255	256	256	253	252	250	250	251	251	248	243	241	240	239	236	234	233	232	230	230	233	234	226	225	230	235	232	231	235	236	233	230	228	226	223	221	217	214	212	211	209	207	206	204	202	199	197	195	193	191	188	187	186	186	185	183	180	178	177	175	174	176	178	178	177	175	171	170	170	172	176	177	176	173	170	167	165	163	161	159	158	156	154	153	153	154	155	154	154	153	152	151	151	150	149	148	146	145	143	141	140	138	137	135	134	133	132	130	128	127	126	125	125	125	124	124	123	123	123	122	121	119	118	117	115	114	112	111	112	112	113	115	116	114	111	108	107	107	106	107	107	106	103	101	100	98	97	96	94	91	91	91	91	92	92	91	91	90	86	81	77	74	73	71	68	62	57	54	52	50	48	47	47	47	47	47	47	47	47	47	47	47	47	47	47	47	48	49	50	50	50	50	50	50	50	52	54	56	59	60	61	60	60	62	63	64	65	66	67	67	68	69	69	71	72	72	72	72	73	75	76	77	78	78	77	78	79	80	79	79	80	80	80	80	82	83	85	85	85	85	85	86	86	85	84	83	84	86	88	88	89	90	92	94	95	97	97	98	100	102	103	105	106	107	108	110	113	115	117	119	121	124	127	129	130	132	135	137	140	143	146	150	153	156	160	163	166	170	172	175	178	182	185	188	191	192	193	195	198	200	202	204	206	207	209	211	213	214	213	213	214	215	216	217	216	216	216	216	216	217	217	217	218	223	228	229	229	230	232	234	238	242	245	249	252	255	257	260	263	266	268	271	274	278	282	286	293	299	303	306	309	313	317	321	324	328	331	333	335	336	336	336	336	336	336	336	336	336	336	336	336	337	339	341	343	344	345	346	346	346	347	348	349	351	351	352	354	356	359	362	363	365	368	371	373	374	376	377	378	379	380	381	381	382	383	385	387	389	391	393	394	395	396	398	399	401	402	402	402	402	403	403	403	403	403	401	399	396	393	391	391	393	396	399	402	404	407	410	412	415	417	418	418	419	418	417	415
121	115	111	114	117	115	113	110	105	99	98	97	95	95	100	104	106	109	112	115	118	118	118	121	125	126	129	133	135	137	139	141	141	142	143	145	147	148	149	150	152	154	154	155	156	157	158	158	159	157	156	156	155	155	154	154	152	152	151	150	152	153	154	154	154	153	153	153	154	154	153	152	152	154	157	155	151	149	147	145	144	144	145	147	148	148	149	149	149	149	149	150	154	156	151	147	146	146	148	149	150	151	150	150	150	150	150	149	148	146	144	142	140	138	136	134	133	134	133	132	131	131	131	132	134	135	136	138	139	138	138	138	138	138	136	135	135	136	135	135	135	135	135	134	133	132	133	134	133	135	138	138	138	141	144	146	147	149	151	153	154	155	158	163	165	166	167	167	167	168	168	167	166	163	162	164	167	170	171	175	181	184	184	185	187	189	191	192	196	200	202	203	206	209	212	215	219	223	224	226	228	230	232	234	236	238	241	243	245	247	250	252	255	257	259	262	265	267	270	273	275	278	281	283	286	289	292	296	301	304	309	313	317	321	327	334	342	346	349	351	355	359	362	365	368	371	373	374	374	374	374	374	374	373	373	373	373	373	373	374	375	376	377	379	380	382	384	385	386	388	391	393	395	396	396	397	397	397	397	396	395	393	391	389	388	386	384	381	379	377	375	372	370	368	365	362	359	357	354	351	348	345	343	340	338	335	333	330	326	318	311	309	306	304	301	298	296	293	293	290	285	279	275	271	267	265	263	262	261	259	258	257	257	258	259	258	256	254	253	252	250	246	244	242	240	238	236	235	234	235	236	237	240	238	228	226	232	237	234	232	236	236	235	232	230	227	225	222	219	216	214	212	210	209	208	206	203	200	198	196	195	193	191	191	190	188	187	185	182	179	178	178	179	180	182	182	183	182	177	173	171	171	175	177	176	174	171	169	167	165	162	161	160	158	156	155	156	157	158	157	155	154	154	153	153	153	152	150	148	147	145	143	141	139	138	136	136	135	133	131	129	128	127	127	127	126	126	126	125	124	124	124	123	121	120	119	117	116	114	112	112	113	114	116	116	115	112	111	111	110	109	109	109	107	104	102	101	100	99	98	96	94	93	91	89	90	92	91	91	90	88	84	80	76	74	72	70	67	63	59	55	52	50	48	47	47	47	47	47	47	47	47	47	47	47	47	47	47	48	49	50	51	51	51	51	51	52	53	54	57	59	61	62	62	62	63	63	64	64	65	67	68	69	69	70	71	72	73	73	73	74	75	76	77	78	78	77	78	79	80	80	80	81	81	80	81	83	84	85	85	85	85	86	86	87	87	86	85	85	86	88	89	90	91	92	93	95	96	97	98	100	102	103	104	106	107	108	110	113	115	117	119	121	123	125	127	129	131	133	136	138	142	146	149	152	156	159	162	165	169	172	175	178	181	184	187	189	190	192	193	195	196	198	200	202	205	206	207	208	209	209	209	210	211	213	214	213	213	213	212	213	213	214	216	217	219	221	224	226	228	230	233	236	240	244	247	250	253	255	258	261	264	267	269	272	276	279	283	290	297	303	305	307	311	315	318	322	326	330	333	336	338	340	340	340	340	340	341	342	341	341	341	342	342	344	346	348	349	350	351	351	352	352	353	354	356	356	357	357	359	362	365	367	370	373	375	377	378	380	381	382	383	384	385	385	386	387	388	390	393	395	397	398	399	400	402	403	405	405	406	406	406	406	406	407	407	406	405	402	400	398	395	394	396	398	402	404	407	409	412	415	418	420	422	422	423	422	421	419
118	112	111	115	116	113	109	106	102	97	96	95	93	94	99	103	106	109	112	115	118	119	117	117	123	126	129	132	135	137	139	139	140	141	142	144	146	147	148	149	150	152	153	153	154	156	156	157	157	155	154	154	154	154	153	152	151	151	151	151	152	153	152	152	152	152	152	152	153	154	152	150	150	152	154	152	149	147	145	144	143	144	146	147	146	147	148	149	150	149	148	150	153	153	149	145	145	144	146	148	150	151	150	149	149	150	150	149	147	146	144	142	139	137	135	133	133	132	132	130	130	130	130	131	133	134	136	138	138	137	137	137	137	136	135	133	135	138	137	134	133	133	132	131	130	130	133	134	134	135	137	138	140	142	145	147	148	150	151	153	155	156	158	159	162	164	165	166	167	168	167	165	164	162	161	162	165	168	170	173	178	180	181	183	186	188	190	191	194	197	200	203	207	210	212	216	220	223	223	225	227	229	231	234	236	238	241	243	245	248	251	253	255	257	259	263	265	267	269	272	275	277	279	282	286	288	292	296	300	303	307	311	315	319	323	330	338	344	346	348	352	357	361	364	367	370	372	374	375	376	376	376	375	375	375	375	375	375	376	376	377	378	379	381	383	385	387	387	387	389	392	394	396	397	397	397	398	398	398	397	396	394	392	390	389	387	385	382	380	378	376	373	372	370	367	364	361	358	355	352	350	347	345	342	340	337	334	331	327	319	311	309	306	304	301	300	297	294	290	287	283	279	277	273	270	268	267	266	264	262	261	260	258	259	263	264	263	261	259	257	252	248	246	243	241	239	239	237	236	238	241	242	242	239	229	228	237	240	238	234	237	237	236	233	231	228	226	224	220	218	216	213	211	209	208	207	204	201	199	197	195	194	194	193	192	190	188	186	182	179	180	181	183	184	185	186	188	187	183	178	173	171	173	176	177	174	172	170	169	166	164	163	162	160	158	157	159	161	161	160	158	156	156	156	155	155	154	152	150	148	146	144	142	141	139	138	137	136	134	131	130	129	129	129	128	128	128	128	127	126	126	125	124	123	121	120	119	118	117	115	114	115	116	116	116	115	114	114	114	113	111	110	109	108	106	104	102	101	100	98	97	96	95	93	91	90	91	91	90	89	88	86	82	78	75	73	71	69	67	63	60	56	53	49	48	47	47	47	47	47	47	47	47	47	47	47	47	47	47	49	50	51	52	52	52	53	53	54	55	58	61	62	63	63	63	63	64	64	64	65	66	68	69	70	70	71	71	72	73	74	75	76	78	78	78	78	77	78	79	80	81	81	81	81	81	82	83	85	85	85	86	86	86	87	87	88	88	87	86	87	88	90	91	91	92	93	95	96	97	98	100	102	103	104	105	107	108	110	112	114	116	118	121	122	124	126	129	131	133	135	138	141	144	148	152	155	158	161	164	168	172	176	179	181	183	185	187	188	189	191	193	194	195	196	199	200	201	202	203	204	205	206	207	208	209	210	210	209	209	209	209	210	212	214	215	216	218	221	223	227	230	233	236	239	243	245	248	251	254	256	260	263	265	267	270	274	277	281	286	293	300	303	305	309	313	315	319	324	328	332	336	340	342	343	344	344	344	345	346	347	347	347	347	348	349	351	353	354	356	357	357	358	358	359	359	360	361	362	362	363	365	369	372	374	377	380	381	382	384	385	385	386	388	388	389	390	391	392	394	396	398	400	402	403	404	406	407	408	409	409	409	409	410	410	410	411	410	408	406	404	403	400	399	400	402	404	407	409	412	415	418	421	423	425	426	426	426	425	423
114	111	112	114	113	110	106	103	98	95	94	93	92	93	97	102	106	110	111	114	117	117	115	114	121	127	128	131	134	135	137	137	138	139	141	143	145	146	147	148	149	151	151	152	153	154	155	155	155	154	153	153	152	152	151	150	150	151	151	151	152	152	152	151	151	151	150	151	151	151	150	148	147	149	150	150	148	145	143	142	143	143	145	145	146	147	148	149	149	148	148	150	151	150	146	144	144	145	146	148	149	150	150	150	150	150	150	149	147	146	144	142	138	136	135	133	132	131	130	129	129	130	131	132	133	135	138	139	138	137	136	135	135	135	134	134	134	136	134	133	132	131	130	129	129	129	130	131	132	135	138	140	141	143	145	147	148	150	151	153	156	158	158	158	160	162	163	164	165	166	165	163	161	160	160	161	163	166	168	171	174	176	179	182	185	187	189	191	194	197	199	203	210	213	213	215	219	221	222	223	225	228	231	234	236	239	242	244	246	249	252	254	255	257	259	263	266	267	269	271	273	276	278	281	285	288	291	295	299	302	306	310	313	317	322	327	335	341	343	346	349	354	358	361	365	368	370	373	375	376	377	377	377	377	377	377	377	378	378	379	380	381	382	383	385	387	388	389	389	390	392	394	396	397	397	397	398	398	398	398	397	395	394	392	390	389	387	384	382	380	378	376	374	372	369	366	363	360	358	355	353	350	347	344	342	338	335	332	327	321	313	309	307	305	304	302	300	297	293	289	284	282	280	278	275	273	271	269	266	263	262	261	260	262	266	267	266	265	263	260	256	252	249	245	242	241	240	238	238	242	244	245	244	236	231	232	241	242	240	236	238	239	237	234	232	230	228	225	222	219	217	215	212	210	209	208	206	203	200	198	196	195	195	194	193	190	188	186	181	180	184	186	187	187	188	189	191	191	186	182	176	172	172	175	177	176	174	173	170	167	165	165	164	161	159	161	163	164	164	163	161	160	159	158	157	156	155	153	151	149	147	145	143	142	140	139	137	136	134	132	131	131	130	130	130	130	131	130	129	128	128	127	126	125	123	121	120	119	119	118	117	118	118	117	117	116	116	115	115	114	112	111	110	108	106	105	103	102	100	99	98	97	96	95	92	89	90	90	89	88	87	86	83	79	76	74	72	70	69	67	63	60	56	51	48	47	47	47	47	47	47	47	47	47	47	47	47	46	47	48	50	52	52	52	53	54	55	56	57	60	62	63	63	63	63	63	65	66	65	65	66	68	69	70	70	70	71	72	73	75	79	81	82	82	80	78	78	78	80	81	81	82	82	83	83	83	83	85	86	86	86	86	86	87	88	89	89	89	89	89	90	90	91	91	91	93	95	97	97	98	100	101	102	103	105	106	107	108	110	113	115	118	121	122	124	126	129	131	133	135	137	140	143	147	151	155	158	161	164	168	171	175	177	180	182	182	183	185	186	188	190	192	193	194	196	197	197	198	199	200	202	203	203	204	205	205	206	206	206	206	207	207	209	212	213	215	217	219	222	226	231	234	237	239	241	243	246	249	252	254	258	261	263	266	268	271	274	278	283	288	294	297	300	305	310	314	318	322	327	331	336	339	342	344	345	347	348	349	350	351	352	352	352	354	356	358	359	360	361	362	363	363	364	364	364	364	365	366	367	368	369	372	376	379	381	383	385	386	387	388	389	390	391	392	393	393	394	396	397	399	401	403	405	406	407	409	410	411	411	412	412	412	413	413	414	414	414	412	410	408	406	405	404	405	406	408	411	413	416	418	421	423	426	428	430	430	430	429	428
112	111	113	113	111	108	105	100	96	93	91	90	91	93	95	100	105	109	110	112	113	113	112	111	117	124	126	129	132	132	133	134	136	138	140	142	143	144	145	147	148	149	151	151	152	153	153	153	153	153	152	151	150	149	149	149	150	151	151	150	151	152	152	151	150	149	149	149	150	149	147	145	144	145	147	149	148	144	141	142	142	143	143	144	146	148	149	150	150	148	148	149	149	147	144	143	144	145	146	148	149	149	151	153	152	150	150	149	147	146	144	141	138	137	135	133	132	131	130	129	129	129	131	133	134	135	137	138	137	136	135	134	134	133	133	134	134	133	130	129	130	129	128	127	127	127	128	128	131	136	139	141	142	144	145	147	148	149	150	152	156	158	157	156	158	160	161	162	163	163	162	159	158	158	160	162	163	164	167	170	172	175	178	181	184	187	190	193	196	198	202	207	213	214	212	214	218	220	221	221	223	227	231	235	238	241	244	245	246	249	252	254	256	258	259	263	267	267	268	270	272	275	277	280	283	287	290	293	297	300	304	308	311	316	319	323	331	338	341	343	346	350	355	359	362	365	368	371	373	376	377	378	379	379	379	380	380	381	381	382	383	384	385	386	387	389	390	390	390	390	392	394	395	396	397	397	398	398	399	398	398	397	395	394	392	391	388	386	384	382	380	378	377	375	372	369	366	363	361	358	355	352	349	346	343	340	337	333	330	325	317	311	310	309	307	305	302	300	296	292	287	284	282	280	277	274	272	270	266	264	263	263	266	268	269	268	268	267	266	264	260	256	253	246	243	242	240	238	240	246	247	247	244	236	233	237	245	245	243	238	239	240	238	235	233	231	229	226	224	221	219	216	213	211	209	209	207	204	202	199	197	196	195	195	192	190	186	181	178	183	188	189	190	190	191	192	192	192	189	185	179	173	172	173	175	177	177	176	174	170	168	168	167	163	161	165	166	166	166	165	163	162	160	159	158	157	155	153	152	150	147	145	143	142	141	139	138	136	135	134	133	132	131	131	132	133	133	132	131	130	130	129	128	127	125	123	121	120	120	120	119	119	120	119	118	117	117	117	115	115	114	112	110	109	108	106	104	103	102	100	99	97	96	95	93	89	89	90	89	88	87	85	82	80	77	76	73	71	70	69	66	62	59	54	50	48	47	47	47	47	47	47	47	47	47	47	47	46	46	48	50	52	53	53	53	55	56	57	57	60	62	63	63	63	62	62	65	67	66	66	66	67	68	69	69	70	71	73	74	78	82	84	85	85	83	80	78	79	81	82	82	82	83	85	85	84	84	86	87	87	87	87	88	88	89	90	91	91	91	90	91	91	91	91	91	92	95	97	98	98	100	101	102	103	104	105	106	107	109	112	114	117	119	121	123	126	128	130	132	134	137	140	143	146	150	154	157	160	164	168	169	171	173	176	179	179	180	181	182	184	187	189	190	192	193	193	193	194	196	197	198	199	199	200	201	202	202	203	203	204	204	205	207	210	211	213	216	218	221	225	231	234	237	239	240	241	244	247	250	253	256	258	261	264	266	268	271	275	279	284	289	293	296	301	307	313	318	322	326	331	336	338	341	343	345	347	349	351	353	355	356	357	358	359	361	364	365	366	367	368	368	368	368	368	369	369	370	371	373	373	373	376	379	382	385	387	388	389	390	391	392	393	393	394	395	396	397	399	400	402	404	406	407	408	410	411	412	413	414	414	415	415	416	416	417	417	417	416	415	413	411	410	410	410	411	412	415	417	419	421	423	426	429	431	433	434	434	433	433
111	112	112	111	109	107	104	99	94	91	89	87	90	93	95	98	103	108	109	110	111	113	113	112	116	123	124	127	130	131	131	131	133	135	138	140	141	142	144	145	146	148	150	151	151	151	152	151	152	152	151	149	148	147	147	149	150	151	150	150	151	152	152	150	149	148	148	149	151	149	145	144	143	143	144	145	144	142	141	141	142	142	142	143	145	147	147	149	149	148	147	147	147	146	144	144	145	145	145	147	148	150	151	153	152	149	148	148	147	146	144	141	138	137	134	132	131	130	129	129	128	128	129	131	133	135	136	136	135	135	135	133	132	131	132	133	132	129	127	126	126	126	125	124	122	124	127	129	132	136	139	141	142	144	146	147	148	149	150	152	154	156	155	154	155	158	160	160	159	158	156	155	155	157	160	162	162	164	167	170	173	175	177	180	184	186	190	194	197	201	205	209	213	213	212	214	218	222	223	222	222	227	233	236	238	241	245	246	246	248	250	253	256	258	259	263	266	267	267	269	271	274	276	279	282	286	290	292	295	298	302	306	310	314	318	321	328	334	338	340	342	346	351	356	359	362	366	369	372	375	377	379	380	381	382	382	383	383	384	385	386	387	388	389	389	390	391	391	391	391	392	393	394	395	396	397	398	398	399	399	399	398	397	396	394	392	390	388	386	384	383	382	380	378	375	372	369	366	363	360	357	353	350	347	345	342	338	335	332	329	323	318	315	313	311	308	304	301	299	295	290	286	284	281	278	275	272	270	267	265	267	270	272	271	270	270	269	268	267	266	262	258	252	247	244	243	243	244	247	250	250	249	244	237	237	243	247	247	246	240	239	240	238	236	234	231	229	226	224	222	220	217	214	212	211	210	208	205	203	200	198	197	196	194	191	186	182	179	181	187	190	191	192	193	193	194	194	193	191	188	182	175	173	172	173	175	177	178	178	176	171	170	170	167	166	169	168	168	167	167	165	163	162	160	159	157	155	153	152	150	148	146	144	142	141	140	139	138	136	135	135	134	133	134	134	135	135	134	133	132	132	131	130	129	127	125	123	122	121	120	120	121	121	120	119	118	118	117	116	115	115	113	112	111	110	108	106	104	103	101	100	99	97	95	93	90	89	90	89	88	87	84	82	80	78	77	74	71	70	69	66	63	61	56	52	49	47	47	47	47	47	47	47	47	47	47	47	46	47	48	50	52	53	53	54	55	57	57	58	59	61	62	62	62	61	61	64	66	66	66	67	68	68	68	68	70	72	74	75	78	82	84	85	85	85	82	80	80	82	83	83	83	84	86	86	85	85	87	88	88	88	89	90	90	91	91	92	93	93	92	92	92	92	92	91	91	93	95	97	99	101	102	103	103	103	104	105	106	108	111	113	115	117	120	122	124	126	129	131	134	137	140	142	145	148	151	155	158	163	166	167	167	168	172	176	177	177	178	178	180	183	185	186	188	189	190	190	192	193	194	194	195	196	197	198	200	200	200	200	201	201	202	205	208	210	212	214	217	219	223	230	233	236	239	239	239	242	245	248	251	254	257	260	263	265	266	269	273	276	280	286	291	296	300	305	311	317	322	325	330	335	337	338	340	342	346	349	351	354	356	358	359	361	363	365	368	370	372	373	374	374	373	373	373	374	375	376	377	378	377	377	379	382	385	388	389	390	391	392	393	394	395	396	397	398	399	400	401	402	404	406	408	409	411	412	413	414	415	415	416	416	417	418	419	419	420	420	420	419	418	417	416	415	415	415	417	419	421	422	424	426	428	431	434	435	436	437	437	437
111	112	110	108	107	106	103	97	92	89	87	86	90	93	95	98	101	106	108	110	115	117	116	115	119	123	124	127	130	131	130	127	129	132	135	138	140	141	142	143	145	147	150	151	151	151	150	150	150	151	150	148	146	145	147	149	150	150	148	148	150	151	150	149	148	148	148	150	152	149	144	143	142	143	143	143	142	142	141	140	141	142	142	143	145	145	144	144	146	146	145	146	146	145	144	144	146	145	143	145	148	150	149	148	147	146	145	146	145	144	142	140	136	134	131	129	129	128	129	129	128	127	127	129	132	134	134	134	134	134	134	132	131	130	130	130	129	128	126	125	123	123	123	122	120	123	128	130	132	135	138	140	142	144	146	147	148	149	150	151	152	153	153	152	154	156	157	157	154	152	153	154	155	156	159	161	163	166	170	173	175	176	178	181	184	186	190	194	198	202	206	209	211	210	211	213	218	222	224	225	224	227	233	236	237	240	245	246	245	247	249	251	254	257	259	261	264	265	266	268	271	273	275	277	280	285	290	292	294	297	300	304	308	312	317	323	326	329	334	337	339	343	348	352	355	359	363	367	370	373	376	379	381	383	384	385	385	386	387	388	389	390	391	391	392	392	392	392	392	392	392	393	394	395	396	397	398	399	400	400	400	400	399	398	396	394	392	390	388	387	386	384	382	380	377	374	371	368	364	361	358	354	351	348	346	343	340	338	335	332	329	326	322	318	315	312	307	303	301	298	293	289	285	282	279	277	274	271	270	271	273	275	275	273	271	272	271	270	268	266	264	257	251	247	246	246	249	252	253	252	252	252	246	240	244	250	250	248	247	242	239	239	238	236	234	232	229	226	224	222	220	218	215	213	212	210	208	206	203	201	200	198	197	194	188	184	183	183	187	191	193	194	195	196	196	196	195	194	192	190	186	179	174	173	173	174	176	177	179	178	174	173	172	169	170	171	169	168	168	167	166	164	163	161	160	159	156	154	152	150	148	146	145	143	142	141	140	139	138	137	136	136	136	136	137	137	137	136	135	135	134	133	132	131	129	126	125	124	122	121	121	122	122	121	120	119	119	118	117	116	115	114	113	112	111	109	107	106	104	103	101	100	97	96	94	91	90	90	89	88	87	85	82	80	79	77	75	72	70	69	66	64	62	58	53	50	48	47	47	47	47	47	47	47	47	47	47	47	48	48	49	52	53	54	55	56	57	58	58	59	60	60	60	61	60	60	61	63	64	66	67	68	68	68	68	70	72	73	75	77	79	81	82	82	81	80	80	81	82	83	83	83	84	86	86	85	86	87	89	89	89	90	91	91	92	92	93	94	94	93	93	94	93	93	92	92	93	94	95	98	103	105	105	104	103	103	104	106	108	110	112	114	116	118	121	123	125	128	130	133	136	139	142	144	146	149	152	155	160	164	165	166	167	169	173	176	176	176	176	177	179	181	183	185	186	187	188	189	190	191	191	193	194	194	195	197	197	197	197	197	199	201	204	206	209	210	212	215	217	221	228	232	235	238	239	239	240	243	247	250	252	255	258	260	262	265	269	272	275	279	284	290	295	299	304	311	316	320	323	327	331	334	335	336	339	343	346	350	353	355	358	360	363	365	368	371	374	376	378	379	379	379	379	379	380	380	381	381	382	381	382	383	386	388	390	391	392	393	394	395	396	397	398	399	400	401	401	403	404	406	408	409	411	412	413	414	415	416	416	417	417	418	420	421	422	423	423	423	423	423	422	421	420	419	420	421	423	425	426	428	429	431	434	436	438	439	440	441	441
111	110	108	106	104	103	99	94	88	86	85	86	91	94	96	96	99	104	107	112	118	119	117	118	122	125	125	126	129	131	130	126	126	130	133	136	138	139	140	142	144	147	150	151	151	150	149	148	148	149	148	147	145	144	145	147	148	147	145	144	144	146	147	148	149	149	149	150	151	147	143	143	143	143	142	142	142	142	139	138	139	140	141	143	143	142	140	139	141	142	143	144	145	145	144	145	145	141	140	143	147	147	145	144	143	144	144	144	143	142	140	137	134	131	129	127	127	127	128	128	128	128	127	128	130	132	133	133	132	132	131	131	130	129	129	129	130	128	126	124	122	121	121	120	121	126	129	130	133	136	138	139	142	144	146	147	148	149	149	149	149	150	151	152	155	155	154	151	149	151	153	154	155	155	158	160	164	168	172	175	178	180	181	184	187	189	192	194	198	203	205	208	209	209	210	213	216	220	223	225	225	227	232	234	236	239	244	245	244	246	248	250	252	255	257	259	261	263	264	267	270	273	275	276	279	284	289	292	293	296	299	303	305	307	313	320	324	326	331	335	338	342	347	351	354	357	361	365	369	372	375	377	380	383	385	386	387	388	389	390	392	393	393	394	394	393	393	392	392	392	392	393	394	395	396	397	398	400	401	401	402	401	400	399	398	396	394	392	391	390	388	386	384	382	379	376	372	369	366	362	359	356	353	350	347	345	342	340	338	335	333	330	326	322	318	315	310	305	302	299	295	292	288	284	282	280	277	274	274	275	276	278	278	276	275	275	274	271	269	267	265	257	251	250	251	251	255	255	253	252	252	253	252	249	251	252	252	250	247	243	239	239	239	237	234	231	229	226	224	222	221	218	216	214	212	210	208	206	204	203	201	200	198	195	187	185	188	191	192	193	195	197	198	198	198	197	196	195	194	192	189	184	176	174	174	174	174	175	177	178	174	174	175	173	172	172	171	171	170	169	168	166	164	162	161	159	157	155	153	150	148	147	146	145	144	144	142	141	139	138	138	137	137	138	138	138	138	138	137	137	136	135	134	133	131	129	127	126	124	123	123	123	123	122	122	121	120	119	118	117	116	114	113	111	110	109	108	107	106	104	102	100	99	97	94	91	90	90	89	88	86	85	83	80	78	76	74	71	70	68	66	64	62	58	54	51	48	47	47	47	48	48	48	47	47	47	47	47	48	48	49	51	54	56	57	57	58	58	59	59	59	59	59	60	60	59	60	62	64	65	67	68	68	68	69	71	72	73	74	76	77	78	78	78	78	79	80	81	82	82	83	83	84	85	86	86	86	87	88	89	90	90	91	92	92	92	93	94	95	95	95	94	94	94	94	94	94	95	95	98	104	106	105	104	104	104	105	106	108	109	111	113	115	117	120	123	124	127	129	131	134	138	141	143	144	147	151	153	156	159	160	162	164	166	169	172	173	173	173	174	175	178	180	182	183	184	185	186	186	186	188	190	191	192	193	193	194	194	194	195	197	200	202	204	206	208	210	213	215	219	225	231	234	237	239	239	239	241	245	248	250	252	255	258	260	263	268	272	275	278	282	288	293	298	304	310	315	318	321	323	327	330	332	332	334	338	341	346	351	354	356	359	363	366	369	372	375	377	380	382	383	384	384	384	385	385	385	386	386	386	386	387	390	391	392	393	394	395	396	397	398	399	399	400	401	402	403	404	405	407	409	411	412	413	414	415	416	416	417	417	418	419	421	422	424	425	426	427	427	427	426	425	424	424	425	426	428	429	430	431	432	434	437	439	441	442	444	445	445
111	109	107	104	101	98	95	91	86	84	85	87	92	96	97	97	99	102	105	110	116	117	117	120	122	124	124	124	126	129	130	127	127	129	133	137	138	138	139	141	143	148	150	150	150	148	146	146	146	147	147	146	144	143	143	144	144	142	138	136	136	137	140	145	148	149	148	149	148	144	141	140	141	142	141	141	141	138	135	136	136	137	138	140	139	138	137	137	139	142	142	143	144	144	144	143	141	138	138	141	143	144	143	143	144	145	144	143	142	141	140	137	134	131	129	128	126	126	126	127	127	126	127	128	129	131	132	132	131	131	130	129	128	128	128	130	130	127	124	123	122	121	119	116	121	128	130	130	134	136	138	139	142	144	146	147	148	149	149	148	148	149	149	151	155	154	150	145	145	151	153	154	155	156	157	160	165	169	173	175	178	183	185	187	191	194	195	196	200	203	204	207	209	209	211	214	216	218	221	223	225	228	231	232	235	237	240	242	243	244	247	249	251	254	256	258	260	261	262	265	269	273	275	276	278	282	287	290	291	294	298	301	303	305	310	317	321	324	329	334	337	340	346	351	354	356	360	364	368	371	373	376	379	382	385	386	388	389	390	392	393	394	395	395	395	394	393	393	393	393	393	393	394	395	396	397	399	400	401	402	403	402	402	400	399	398	396	395	394	392	391	389	386	384	381	377	373	370	367	364	360	358	355	352	350	347	345	342	340	338	335	333	329	325	320	316	312	307	303	301	298	295	291	287	285	283	279	277	277	278	280	282	281	279	278	277	275	273	270	268	263	257	254	253	253	253	256	256	252	250	251	255	256	255	254	253	253	251	247	244	240	239	238	236	234	231	228	225	223	222	221	220	218	216	213	211	209	207	205	203	203	201	198	192	186	188	192	194	194	195	197	198	200	200	200	198	197	196	194	193	190	188	180	175	175	174	175	175	176	178	177	178	177	173	172	172	173	173	173	172	169	167	165	163	162	160	158	156	154	151	149	149	148	147	146	145	143	142	140	139	139	138	138	138	139	139	140	140	139	139	138	138	137	135	133	131	130	128	127	126	125	125	124	124	123	122	121	120	119	117	116	114	112	111	110	109	109	108	107	104	102	101	99	97	95	92	91	90	89	87	85	84	82	80	77	75	73	70	68	67	65	63	61	59	55	51	48	47	47	48	48	48	48	47	48	48	47	47	47	48	49	51	55	57	58	58	58	59	60	61	61	59	58	59	59	59	60	62	63	64	66	68	69	69	70	72	72	72	74	76	77	77	77	78	79	79	80	81	81	82	83	84	85	85	86	86	87	87	88	89	89	89	90	92	92	92	94	95	95	95	96	95	95	95	95	95	96	96	96	99	103	105	104	103	103	104	106	107	108	109	111	113	114	116	119	122	124	126	128	129	132	136	140	142	143	145	149	152	154	156	157	159	161	163	165	167	168	169	170	170	172	175	177	178	180	181	182	182	182	183	186	188	189	190	191	191	191	192	192	193	195	197	200	202	203	205	207	211	214	217	223	230	234	236	238	239	239	241	244	246	248	250	253	256	258	262	267	271	274	278	281	286	292	296	303	309	314	316	319	320	322	325	326	328	330	332	335	342	348	352	355	358	361	364	368	371	374	377	380	382	384	386	387	388	388	388	389	389	390	390	390	391	392	393	394	395	395	396	397	398	399	400	401	401	402	403	403	404	406	408	410	412	413	415	415	416	416	416	416	416	417	418	420	422	424	426	428	429	430	431	430	430	429	429	429	431	432	433	433	434	435	437	440	442	444	446	447	449	450
108	107	105	102	99	96	93	90	87	86	87	89	93	97	99	98	100	102	104	108	111	113	116	120	121	121	122	123	124	126	127	127	127	129	133	137	137	136	137	140	143	148	149	148	147	146	145	146	147	148	148	148	146	144	142	140	139	135	131	130	130	131	134	140	147	149	148	148	146	142	139	138	139	139	138	139	138	133	132	135	135	134	135	137	137	137	137	138	141	144	143	142	142	143	142	140	137	136	138	139	141	143	142	143	145	145	144	142	141	140	139	137	135	133	131	129	126	124	124	125	125	125	126	127	129	130	130	130	130	130	129	128	127	128	129	129	128	124	123	122	122	122	119	116	122	129	130	130	133	136	137	139	142	144	145	146	147	149	148	147	147	148	147	148	149	148	145	143	145	150	153	155	156	157	158	161	165	170	173	177	182	186	188	190	194	197	198	199	201	204	205	206	208	209	212	215	217	219	221	222	225	231	233	233	234	237	239	240	242	243	245	247	250	253	256	258	259	261	263	264	268	273	275	276	278	280	284	288	290	292	296	300	302	305	310	315	320	323	328	333	336	339	343	348	351	354	358	362	366	369	372	374	377	380	383	385	387	389	391	392	394	395	395	396	396	395	394	393	393	393	393	394	395	396	397	398	400	401	402	403	403	403	403	402	400	399	398	397	396	394	393	391	388	385	382	379	375	372	369	365	363	360	358	355	353	351	348	345	343	340	338	336	332	327	321	317	313	309	305	303	301	298	295	291	288	286	282	283	283	285	287	287	285	282	281	279	276	273	268	265	260	260	259	255	255	256	259	258	256	255	256	257	257	255	253	252	252	250	246	244	241	239	238	236	234	231	228	226	223	222	221	220	219	217	215	213	211	208	205	204	202	197	192	189	188	189	193	196	196	196	199	201	202	202	202	200	198	197	195	194	192	191	188	183	181	178	176	176	176	178	180	181	179	173	171	171	171	171	172	172	170	167	166	164	162	160	158	156	154	152	150	150	149	148	147	145	144	143	143	142	141	140	139	140	140	141	141	141	141	140	140	140	139	138	136	134	132	130	128	127	126	126	125	125	124	123	122	121	119	117	115	113	112	110	109	109	109	108	106	104	102	100	98	96	94	93	92	90	87	85	84	83	82	79	77	75	73	71	69	67	65	63	61	59	55	51	48	47	47	48	48	48	48	48	48	48	48	47	47	47	49	52	57	58	58	58	59	60	61	63	64	62	59	59	60	60	60	61	62	64	66	67	68	69	70	71	71	72	74	75	76	77	77	79	79	79	80	80	81	82	83	84	85	86	86	87	87	87	88	89	89	89	90	92	93	93	94	95	95	96	96	96	96	97	97	97	96	97	97	98	101	103	103	102	103	104	106	107	108	109	111	112	114	115	118	121	123	125	127	129	132	135	138	140	140	143	148	150	153	155	156	158	159	160	161	163	164	165	166	168	169	171	173	174	176	177	178	179	180	181	183	184	185	187	189	189	189	190	190	191	193	195	197	200	201	203	205	209	212	215	220	227	233	235	236	239	240	241	243	244	246	248	251	255	258	261	266	270	273	277	281	286	291	296	301	307	312	314	317	319	319	320	322	323	326	328	332	338	343	348	354	357	360	363	367	370	372	375	378	381	383	386	388	390	390	391	391	392	392	392	393	393	394	394	395	395	396	397	398	399	400	401	401	402	402	403	403	404	406	408	410	412	413	414	414	414	414	414	414	415	415	417	419	421	423	426	428	431	432	434	434	434	434	434	434	435	436	437	437	438	440	441	443	445	447	448	450	452	454
107	105	102	98	96	94	91	89	87	87	88	90	94	98	99	99	99	101	104	107	109	111	115	118	117	118	121	121	121	122	122	123	125	127	132	134	134	135	137	140	143	146	146	145	145	145	145	146	147	148	148	148	146	143	140	138	136	132	130	130	130	130	131	135	144	149	148	146	144	143	141	139	137	135	134	134	132	130	131	134	133	133	134	136	138	138	138	139	144	146	144	142	142	141	140	138	137	137	138	138	139	141	140	142	144	143	142	141	140	140	139	137	136	134	132	131	129	124	123	122	123	123	125	127	128	128	128	129	129	129	128	126	126	127	129	129	126	124	122	121	121	121	120	118	121	128	129	129	131	134	136	139	142	143	143	144	146	147	147	145	146	147	146	145	144	142	141	142	145	148	152	155	157	158	159	161	167	171	176	183	187	190	190	191	195	198	200	201	203	204	205	206	207	208	213	217	219	222	222	222	226	233	234	233	235	237	240	241	242	243	244	246	249	254	256	257	259	263	265	265	267	271	274	275	277	279	283	287	289	291	295	298	301	304	309	313	317	321	326	332	335	338	341	343	347	351	355	359	363	367	370	373	375	378	381	382	385	387	390	391	392	393	394	394	395	394	393	393	393	393	393	394	395	396	397	399	400	401	402	403	404	404	403	403	402	400	399	398	397	396	394	392	389	386	383	380	376	373	371	369	366	363	361	358	356	354	351	348	345	342	340	338	334	328	322	317	314	310	306	304	302	300	296	293	291	289	288	293	293	293	291	289	287	285	283	279	275	271	267	263	263	266	266	261	259	260	262	261	260	262	263	261	259	255	253	251	249	247	245	244	242	239	238	236	234	231	228	226	224	222	221	221	219	218	216	214	212	210	207	205	199	193	190	189	189	189	191	197	198	194	201	204	204	204	203	202	200	199	197	195	195	194	192	191	190	187	181	178	177	177	179	182	182	178	172	170	170	169	169	170	169	168	167	165	163	160	158	156	154	152	151	150	149	148	147	146	145	145	144	143	142	141	141	141	141	142	142	142	142	141	141	141	141	139	138	135	133	131	129	129	128	127	126	126	125	124	122	120	119	117	115	113	111	110	108	108	107	106	104	103	101	98	95	94	93	93	92	89	86	84	83	82	81	79	77	75	74	72	69	66	64	63	62	60	56	53	49	47	47	47	48	48	48	48	48	48	48	47	47	48	48	52	57	59	59	58	59	61	63	64	65	64	62	63	62	62	61	61	62	64	66	67	68	69	70	71	71	73	74	75	76	76	77	79	80	80	80	81	81	82	82	84	85	86	86	86	86	87	88	89	90	90	91	93	93	94	95	95	95	95	96	97	98	98	98	97	97	97	98	98	100	101	102	102	103	104	106	107	108	109	111	112	113	114	117	120	122	124	126	129	132	134	136	138	139	142	147	149	150	151	154	156	157	157	158	160	161	162	163	165	167	169	170	171	172	173	174	176	177	178	179	180	182	185	187	188	188	188	189	190	191	192	195	198	199	201	204	207	211	214	218	223	229	231	233	235	238	240	241	242	244	246	249	254	257	261	265	269	272	277	282	288	292	296	301	305	309	312	314	316	318	318	319	320	322	323	328	334	338	343	351	356	359	363	366	368	370	372	375	378	381	384	387	389	390	391	392	392	393	393	393	393	393	393	394	395	396	397	398	399	400	401	401	401	402	402	402	403	405	406	409	411	411	412	412	411	411	411	412	412	412	414	416	419	422	425	428	431	434	436	438	438	438	438	439	439	440	441	442	443	444	445	447	449	450	452	454	455	457
106	104	100	96	94	91	88	86	86	88	89	92	95	99	100	101	99	99	102	105	107	109	112	114	113	114	120	120	120	120	122	123	125	127	130	132	133	135	137	139	142	143	143	143	144	145	145	145	145	146	147	147	144	140	137	134	131	130	130	130	130	130	130	132	140	146	146	145	144	145	143	139	135	132	131	130	129	130	131	131	131	133	134	136	137	138	139	140	144	145	143	142	142	140	138	138	138	137	137	137	137	137	137	139	140	140	140	139	139	141	140	137	135	134	132	132	132	125	121	120	121	122	123	125	126	126	127	128	128	128	126	124	124	126	128	128	126	124	122	120	119	120	118	117	119	124	126	128	130	133	134	138	142	142	142	143	145	146	144	142	144	147	146	145	142	139	139	142	145	147	151	155	158	159	160	163	168	173	179	186	189	191	191	192	195	198	201	204	205	205	204	204	205	207	211	216	219	222	223	224	225	230	232	233	235	238	241	241	241	243	244	245	249	254	255	255	258	263	265	265	266	269	272	273	275	278	282	286	289	291	294	297	299	303	307	311	314	318	324	330	333	336	338	340	343	348	351	354	358	363	366	369	372	376	379	381	382	385	387	389	390	390	391	392	393	393	393	393	393	393	393	394	395	396	397	399	400	402	403	404	404	404	404	403	403	401	400	399	398	397	395	393	390	387	384	381	378	376	374	372	370	367	364	361	358	355	353	350	347	345	342	340	337	330	323	318	315	311	307	305	303	301	298	296	292	291	292	296	296	296	293	290	289	287	282	277	274	271	272	271	270	271	270	268	267	266	266	264	264	265	266	264	262	257	254	252	249	246	245	244	242	240	238	236	233	230	227	226	224	223	222	221	220	218	216	214	213	211	209	207	199	194	191	190	190	191	195	200	200	197	205	207	207	206	205	204	203	201	199	197	197	196	195	194	193	192	186	182	179	178	179	183	184	183	178	172	170	169	168	168	168	169	167	166	164	160	158	157	155	153	151	150	149	148	147	147	146	145	145	143	142	141	141	142	143	143	144	144	143	142	142	142	142	141	139	137	134	133	132	131	130	130	129	128	126	124	122	121	120	119	116	113	110	109	107	106	105	103	102	101	100	97	94	93	92	92	91	88	85	84	82	82	81	79	77	76	76	74	69	66	64	63	63	61	58	56	51	48	47	47	47	48	48	48	48	48	48	48	47	48	49	51	57	60	61	60	60	62	64	65	65	64	65	66	66	64	63	62	64	65	67	68	68	69	69	70	71	73	74	76	76	76	77	79	80	80	80	81	81	81	82	83	85	86	86	86	86	86	88	89	89	90	91	92	93	94	95	96	95	95	96	97	98	98	98	99	98	98	98	98	99	100	101	103	104	106	107	107	109	110	111	112	113	114	116	119	121	124	126	128	130	133	134	136	138	141	145	147	147	148	150	152	154	154	155	157	159	160	161	163	165	166	167	169	170	170	172	173	175	176	176	178	180	183	185	186	186	186	187	188	189	190	193	196	197	199	202	206	209	212	216	219	223	226	228	230	233	235	236	237	241	244	247	252	257	261	265	269	273	278	283	289	293	296	301	304	307	309	310	312	315	316	317	318	319	320	325	330	335	340	348	354	358	362	365	365	367	370	373	376	379	382	385	387	389	390	390	389	390	391	391	391	390	390	391	392	394	395	397	398	399	399	398	398	399	400	400	401	403	404	406	408	408	408	407	406	405	406	407	407	408	410	414	417	420	423	427	430	435	439	441	442	443	444	444	445	445	446	446	447	448	449	451	452	454	456	458	459	460
103	102	100	96	93	88	84	85	86	89	91	95	98	102	104	103	100	98	99	102	104	106	110	113	112	114	119	120	120	122	124	126	125	126	129	131	133	135	136	138	141	142	142	142	143	144	144	143	143	144	145	146	144	140	134	131	129	129	129	130	130	130	130	131	138	144	145	146	146	146	143	139	136	132	129	128	128	128	128	128	131	134	135	136	137	138	139	140	141	142	141	141	140	138	136	137	137	135	135	136	136	136	136	136	136	137	138	138	138	141	140	137	135	133	132	132	131	125	121	119	119	120	123	124	124	125	126	126	126	126	124	123	123	124	126	126	125	124	121	118	117	117	116	115	116	117	121	126	129	132	133	135	138	139	140	141	143	143	142	140	142	145	144	142	140	139	139	142	144	146	151	156	158	160	162	165	169	174	180	185	188	190	191	193	196	197	201	204	206	206	205	204	205	206	209	213	216	219	222	224	226	229	231	233	234	236	237	238	240	242	243	245	248	252	253	253	256	261	263	263	263	267	270	272	274	278	282	285	288	291	293	296	299	302	306	309	312	317	322	327	331	335	336	337	340	344	347	349	353	358	361	364	367	372	376	377	379	382	384	385	386	387	388	390	391	392	392	392	392	392	393	394	395	395	397	399	400	402	403	404	405	405	405	404	403	402	401	400	398	397	395	393	391	388	385	383	380	379	377	376	373	370	367	363	360	357	354	351	349	347	345	344	342	335	325	319	316	313	310	308	306	303	301	298	295	293	295	297	298	298	295	292	290	287	280	276	274	272	274	277	276	274	272	271	271	270	269	267	267	267	267	266	263	257	253	252	249	247	247	245	243	240	238	236	233	230	226	225	225	224	223	221	220	218	216	214	213	211	206	203	199	196	194	193	196	198	202	204	205	207	209	210	210	209	208	207	205	203	201	199	198	198	197	196	196	196	191	186	183	179	180	185	186	185	180	175	173	172	171	168	167	168	167	165	163	160	158	157	155	154	152	150	149	148	148	148	147	146	145	143	143	143	143	143	144	144	145	145	144	144	143	143	142	141	140	138	136	135	135	134	132	132	131	129	126	124	123	121	120	119	116	112	110	108	106	104	103	101	100	99	99	98	95	92	90	90	89	87	85	83	82	81	81	80	77	76	76	72	68	67	65	63	62	61	60	59	55	49	47	47	48	48	48	49	49	49	48	48	48	48	49	50	56	61	62	60	60	63	64	65	64	64	65	67	67	66	65	64	65	67	67	68	68	68	68	70	71	73	74	75	76	76	76	78	80	80	80	81	81	81	82	83	84	85	86	86	86	87	87	88	89	90	92	92	92	93	95	96	96	96	97	97	98	98	99	100	99	98	97	97	98	99	100	102	105	106	107	108	109	110	111	112	113	115	116	118	121	124	126	126	128	131	133	134	137	140	143	144	144	145	147	149	151	152	153	155	156	158	160	162	163	164	166	167	168	169	170	172	173	174	175	176	178	180	181	182	183	185	185	186	187	189	192	194	195	197	201	204	207	209	213	217	220	222	224	226	228	231	233	236	240	244	247	251	256	260	265	270	274	278	284	289	292	296	300	303	305	306	306	307	309	312	314	316	317	319	322	327	332	337	344	350	355	359	362	363	364	367	370	373	377	379	382	384	386	387	386	385	386	387	387	386	385	385	387	388	390	392	394	396	396	395	394	393	395	396	397	398	400	401	402	402	402	401	399	398	398	398	399	401	404	408	412	415	419	422	426	430	436	441	444	446	448	449	450	450	451	452	452	453	453	454	455	456	458	460	462	463	464
101	100	99	96	90	85	82	83	86	90	92	96	100	104	104	104	102	100	100	102	104	107	110	112	111	113	118	120	121	122	124	124	124	125	127	130	134	137	136	137	139	141	141	141	142	143	143	142	142	144	145	145	145	138	131	129	129	128	129	129	129	130	130	132	139	143	145	147	148	146	142	139	137	132	129	129	128	127	127	126	130	134	136	136	137	138	139	139	139	139	139	139	138	136	134	135	134	133	134	135	136	136	136	136	136	138	138	136	136	137	137	136	135	133	132	131	129	125	122	120	118	119	121	122	123	124	125	125	125	124	124	123	123	123	124	124	123	122	118	115	115	115	115	115	116	116	119	123	126	129	131	132	134	136	138	139	140	140	140	139	139	139	138	137	138	139	141	142	144	147	151	156	159	161	164	166	170	175	180	185	187	190	191	193	195	197	200	203	205	207	207	206	207	208	209	212	215	218	221	223	227	230	231	233	234	234	235	236	238	240	242	244	246	249	250	251	253	256	259	260	261	265	269	272	274	279	282	283	286	288	291	294	297	302	306	309	311	315	320	324	328	332	333	333	336	339	342	345	349	353	357	359	362	366	370	373	376	378	380	381	382	383	385	387	389	391	392	392	392	392	393	394	395	395	397	399	400	402	404	405	406	406	405	405	404	403	402	400	399	397	396	394	392	389	387	385	383	382	380	378	375	372	368	365	362	359	356	353	351	349	348	347	346	341	332	321	318	316	313	311	310	307	304	302	299	299	300	300	300	299	298	294	290	286	280	276	275	274	276	278	277	275	274	274	273	272	271	270	269	268	267	265	262	255	252	252	250	248	248	246	243	241	238	236	234	230	226	226	226	225	224	222	220	218	216	214	213	211	205	201	198	196	197	201	205	207	209	210	211	212	213	213	213	212	211	210	207	205	202	201	200	200	199	199	198	198	194	189	187	182	180	185	187	185	181	177	175	174	173	169	167	168	167	165	162	159	158	157	156	155	153	150	149	149	149	148	148	148	146	144	144	145	145	145	146	146	146	146	146	145	144	143	142	141	141	139	138	137	138	137	134	133	131	129	127	125	123	121	119	118	115	112	110	109	106	104	102	101	99	98	98	97	94	91	90	89	88	87	86	84	82	81	82	81	78	75	73	69	67	67	65	62	62	63	63	61	58	50	48	47	48	48	49	49	49	49	49	49	48	48	49	51	55	59	59	59	60	63	64	65	65	64	64	66	66	66	66	66	67	67	68	68	68	68	68	70	72	73	73	74	75	75	76	77	78	79	79	80	81	81	82	83	84	85	85	86	86	87	87	88	89	91	92	92	92	93	95	96	97	97	97	98	98	99	100	101	100	99	98	98	98	99	100	101	103	106	107	107	108	110	111	112	113	115	116	118	121	124	125	126	127	129	132	134	135	137	139	140	141	142	144	146	148	149	151	152	154	155	158	160	161	163	164	166	167	167	168	169	171	172	173	173	174	176	177	179	181	184	184	185	185	187	190	193	194	196	199	202	205	207	209	213	215	217	221	223	224	229	233	236	241	244	246	250	255	259	264	269	274	278	283	288	292	295	298	300	302	302	302	302	303	305	309	312	314	316	319	323	328	333	338	344	349	353	356	358	360	362	365	368	371	374	377	380	382	384	383	383	383	383	383	382	381	382	382	384	385	387	389	389	388	387	387	387	388	391	392	393	394	395	395	395	395	394	394	394	393	393	395	399	402	407	411	414	418	422	426	431	437	442	445	449	451	453	454	456	457	458	458	459	459	459	460	461	462	463	465	467	468
100	99	97	93	88	84	82	84	87	90	92	95	100	103	104	104	103	102	102	104	106	109	112	112	110	111	115	118	120	122	124	123	123	125	127	130	134	137	137	137	139	139	140	140	142	143	142	141	142	143	144	145	143	134	128	127	127	127	127	128	128	128	130	137	142	143	144	147	147	146	141	138	136	131	128	129	128	127	126	126	128	134	136	136	137	138	138	136	135	136	137	137	136	134	133	133	133	133	134	135	135	136	136	136	137	138	137	135	134	135	135	135	136	134	131	131	129	125	123	121	118	118	120	121	123	124	125	124	124	124	123	123	123	122	122	121	120	118	116	114	113	113	114	115	116	117	120	122	125	128	130	133	134	136	137	137	136	136	137	136	136	136	136	136	137	140	142	144	146	149	153	157	160	163	166	169	172	175	179	183	187	189	191	193	195	196	199	202	205	208	209	209	209	210	211	212	215	219	221	223	227	231	232	232	232	232	234	237	239	240	242	243	245	247	248	249	250	253	257	259	260	263	268	272	274	278	281	282	283	286	288	291	295	300	305	308	310	314	319	322	324	327	328	330	333	336	340	344	347	351	353	355	358	362	365	369	372	373	375	376	378	379	381	384	386	389	390	391	391	391	392	393	394	395	397	399	400	402	404	406	406	406	406	405	404	404	403	402	401	399	398	396	394	392	390	388	387	385	382	379	376	372	369	366	363	360	357	355	353	352	351	350	349	346	339	327	321	319	316	314	313	310	307	306	306	305	304	302	300	299	298	293	288	284	281	279	278	278	280	281	279	278	277	276	276	275	274	273	271	268	266	263	262	258	256	254	251	249	248	247	244	241	239	238	235	231	228	227	227	227	225	223	221	219	217	214	213	211	205	201	199	197	199	206	209	211	213	214	215	216	216	216	216	215	213	211	209	206	204	203	203	202	202	201	200	199	196	192	189	183	181	185	187	185	179	176	174	173	173	170	166	168	168	165	162	159	158	156	155	154	153	150	149	149	150	149	149	149	148	147	147	148	147	147	147	147	147	147	147	146	144	143	142	141	141	141	140	140	140	139	136	134	133	130	128	126	124	122	120	117	114	112	111	110	107	104	103	102	100	98	97	96	93	91	90	89	88	88	87	85	83	82	82	81	79	75	71	68	67	67	65	63	64	64	64	62	60	53	48	47	48	48	49	49	49	49	49	49	49	49	49	51	55	57	58	59	60	63	64	65	65	64	64	65	66	66	67	68	68	68	68	68	68	68	68	71	73	74	73	73	74	75	76	77	77	77	78	79	80	81	81	82	83	84	85	86	86	87	88	88	89	90	91	92	92	93	94	96	97	97	97	98	98	99	100	101	101	101	101	101	101	101	101	101	102	104	106	107	108	109	111	112	113	115	116	118	120	123	125	125	125	127	130	132	133	135	137	138	139	140	142	144	146	147	148	150	152	153	156	158	159	161	163	164	164	165	166	167	168	170	170	171	172	173	175	178	181	183	184	184	184	185	187	190	192	194	197	200	203	204	205	207	209	212	216	219	223	228	232	235	238	241	245	249	253	258	263	269	273	276	281	286	291	294	296	297	298	299	299	299	298	300	304	307	309	312	315	319	323	327	332	337	341	345	348	351	353	355	357	359	362	366	370	373	377	379	380	380	380	379	378	378	378	378	379	379	380	382	382	382	381	380	380	380	381	383	384	384	385	386	387	388	389	389	389	389	389	390	393	397	402	407	411	414	417	421	426	431	437	442	447	452	455	457	459	461	463	463	463	464	464	464	465	466	466	467	468	470	471
100	97	94	90	86	83	83	84	88	90	93	96	99	103	104	104	105	104	105	107	109	113	114	111	109	111	115	119	121	123	124	124	125	127	129	130	133	135	136	137	138	138	139	140	141	142	142	141	141	142	142	141	137	132	128	126	126	126	126	126	127	127	130	141	145	144	143	145	147	145	141	138	137	133	127	127	127	126	125	125	126	132	134	135	136	136	135	134	133	134	134	134	134	133	132	132	134	134	134	134	133	133	134	134	135	136	135	133	133	133	134	134	134	132	130	130	130	126	124	124	121	119	119	121	123	124	124	123	123	123	123	123	123	122	121	119	117	116	115	114	112	112	113	115	117	119	121	123	125	127	130	133	135	135	134	132	132	133	133	133	133	135	136	137	139	143	144	146	148	151	154	158	161	165	170	172	174	177	179	182	185	188	190	193	196	197	199	202	205	208	210	210	211	211	212	213	216	219	223	224	226	229	231	231	229	229	235	239	240	240	241	242	243	244	246	247	248	253	258	260	259	261	267	272	273	275	277	278	280	283	286	289	293	297	302	305	308	312	315	318	320	322	324	327	330	334	340	343	346	348	350	353	355	358	361	364	367	369	370	372	374	376	378	381	384	387	389	389	390	391	392	393	394	395	397	399	401	403	404	406	407	407	406	406	405	405	404	403	403	401	400	398	396	394	392	390	389	386	383	380	376	373	370	367	364	361	359	357	355	355	354	353	351	347	343	333	325	322	319	316	314	312	310	309	309	308	306	303	299	297	295	292	288	285	284	282	282	285	286	285	283	282	281	280	278	277	275	274	272	269	266	263	261	260	258	256	253	250	249	247	245	242	240	239	237	234	231	229	228	228	226	224	221	219	217	214	212	210	205	202	200	200	202	209	211	214	215	216	217	218	218	219	218	217	215	212	210	208	206	205	205	204	203	202	200	199	196	194	189	183	181	186	188	185	179	176	173	173	173	169	166	168	168	165	162	159	156	154	153	152	152	150	149	149	149	149	149	149	149	149	149	150	149	148	148	149	148	148	147	146	145	143	143	142	143	143	143	142	141	140	137	136	134	132	130	127	125	122	120	117	115	113	112	111	108	106	105	103	102	99	96	95	92	91	91	90	88	88	87	86	84	82	82	81	79	75	71	69	68	68	67	66	67	66	65	64	62	55	49	47	48	48	49	49	49	49	49	49	49	49	50	52	55	57	58	60	61	62	63	64	64	64	64	65	66	67	68	69	69	68	68	69	69	68	69	71	73	74	74	73	74	75	76	77	77	77	77	78	79	80	80	81	82	84	85	85	86	87	88	88	88	89	90	92	92	93	94	95	96	97	98	99	99	99	100	100	101	101	102	103	103	102	102	102	103	104	105	106	107	109	112	113	114	115	117	118	120	122	123	123	124	125	128	130	131	132	134	136	138	139	140	142	144	145	146	148	150	152	154	155	157	159	160	161	162	162	163	165	167	167	168	169	171	173	174	177	179	181	182	182	182	183	185	188	190	192	194	198	200	200	200	202	206	210	214	217	221	227	231	233	236	239	243	249	253	257	262	268	272	275	279	284	289	291	293	294	294	295	295	295	295	296	299	301	304	306	310	313	317	322	327	330	333	337	340	343	345	347	349	351	353	357	360	364	369	372	374	375	375	374	373	373	373	374	375	375	376	376	376	377	377	377	377	377	376	376	376	375	375	377	379	381	382	382	382	383	385	388	391	395	401	406	410	413	417	421	426	431	437	442	448	453	458	460	462	465	467	468	468	468	468	469	469	470	471	472	473	473	473
99	95	91	88	84	81	81	84	87	91	94	97	99	102	102	104	107	108	110	112	113	115	112	109	110	114	119	122	124	125	126	126	126	128	129	131	133	135	136	137	138	138	138	139	141	141	141	141	141	141	140	138	135	131	127	126	125	125	125	125	125	126	131	142	144	143	142	144	146	145	142	140	139	136	129	126	126	125	124	124	124	127	129	133	134	133	132	132	133	134	133	132	132	131	131	133	134	134	133	132	131	131	131	131	131	131	131	130	131	132	132	133	132	130	128	130	130	127	124	125	123	120	119	120	122	123	122	122	122	122	122	122	122	121	120	117	115	115	116	114	112	112	114	116	117	120	122	124	125	126	129	131	133	133	131	129	130	132	131	130	132	136	137	139	141	144	146	148	150	153	156	159	162	167	173	174	176	180	182	183	184	187	189	193	196	198	199	202	205	208	210	210	211	212	213	215	217	220	223	225	225	225	227	226	224	226	235	240	239	238	239	239	240	243	245	247	249	254	258	260	259	261	266	271	273	273	273	275	277	280	284	287	292	295	298	301	304	308	311	313	315	318	320	324	327	332	338	341	342	344	347	350	353	355	358	361	363	365	367	369	371	373	376	378	381	384	386	388	388	389	391	392	393	395	397	399	401	403	405	406	407	407	407	407	407	406	406	405	405	404	402	400	398	396	394	392	389	387	384	380	377	374	371	369	366	363	361	359	358	357	356	355	352	349	344	337	330	325	322	319	316	314	313	312	311	309	306	303	299	296	295	293	291	288	287	287	288	288	288	288	287	285	284	282	280	279	277	275	272	269	266	263	261	259	258	256	254	252	250	248	246	243	241	240	238	235	233	230	228	227	225	222	220	218	216	214	212	209	205	203	202	203	206	211	214	216	217	218	219	220	220	220	220	219	217	214	211	210	209	208	207	206	204	202	200	198	196	193	186	182	183	188	189	187	183	180	177	175	173	169	165	167	167	164	161	158	156	153	152	151	151	150	149	149	149	149	149	149	150	151	151	151	150	150	150	150	149	148	148	147	145	144	144	144	144	145	145	144	142	141	138	137	136	134	132	129	126	123	120	118	116	115	113	112	110	107	105	104	102	99	96	94	92	90	89	87	87	86	86	86	85	83	82	81	79	75	72	70	69	69	69	69	69	68	66	65	63	55	50	48	48	48	49	49	49	49	49	49	49	49	50	52	55	57	59	62	63	63	63	64	64	64	65	65	66	67	69	70	69	68	69	70	70	70	70	72	73	74	74	74	75	75	76	76	77	76	77	77	79	80	80	80	82	84	85	85	85	88	89	89	88	89	90	91	92	93	94	95	96	97	98	99	100	100	100	100	101	101	102	103	103	103	104	104	104	104	104	105	106	109	112	114	114	115	117	119	120	122	123	122	123	124	126	128	129	130	133	135	137	138	139	140	142	143	145	148	150	151	153	154	155	156	157	158	159	161	162	165	166	166	167	169	171	171	172	175	177	178	179	180	180	182	184	186	188	190	193	195	197	198	198	201	204	209	213	216	220	225	229	232	235	239	243	249	253	257	261	266	271	273	277	282	286	288	288	289	290	290	291	291	292	292	293	295	298	301	304	308	312	317	322	325	327	329	333	337	340	343	345	347	349	351	353	356	360	363	366	367	367	367	367	368	368	370	371	372	372	372	373	373	373	373	373	372	371	369	368	368	369	370	371	373	375	376	378	380	383	386	390	395	400	404	408	412	417	421	426	432	437	443	448	454	459	463	466	468	470	472	472	473	473	473	474	474	475	475	475	474	473
98	94	91	87	83	80	81	83	87	91	94	96	98	100	101	106	110	111	113	114	115	114	110	109	113	117	122	124	126	127	128	127	127	128	131	134	137	139	139	139	138	138	138	139	141	141	141	140	140	139	138	138	135	129	126	125	124	124	124	124	124	125	134	143	144	142	141	143	145	145	143	141	140	138	132	126	125	124	123	123	122	121	123	128	130	130	131	132	134	135	133	132	131	130	131	133	133	132	131	131	130	130	129	128	128	128	128	128	129	130	131	132	130	129	128	129	129	126	124	125	124	121	118	118	120	120	120	120	121	121	121	121	120	119	119	117	115	115	115	112	110	112	114	116	118	120	121	123	124	125	125	126	128	129	127	126	128	130	129	130	133	137	140	141	143	144	146	148	151	154	157	160	163	168	174	174	177	181	183	183	184	186	188	191	195	197	198	201	204	206	207	209	211	214	216	217	220	221	223	226	225	223	223	223	223	227	233	237	238	237	238	238	240	243	246	247	249	252	255	259	261	263	265	268	272	273	272	274	277	279	282	286	291	294	295	297	299	302	306	309	310	313	317	322	325	328	334	337	338	340	343	347	350	353	355	357	359	361	364	367	369	371	373	376	379	381	384	385	386	388	389	391	392	394	396	399	401	403	405	406	407	408	408	408	408	408	408	408	407	406	405	403	400	398	396	393	390	387	384	381	378	375	373	370	367	365	363	361	360	359	358	356	352	349	344	338	332	328	324	321	319	316	314	314	313	311	308	303	300	298	297	295	294	291	291	294	294	292	291	291	289	288	286	284	282	280	279	276	273	269	267	264	261	258	257	257	255	253	251	249	246	243	240	240	239	236	233	231	228	225	222	219	217	216	215	214	213	209	206	205	204	207	212	215	217	219	219	220	221	222	222	221	221	220	217	215	213	211	211	209	208	207	205	201	198	195	192	188	184	183	188	191	189	188	185	183	179	176	174	168	164	166	166	162	159	157	156	154	152	152	152	151	150	150	150	151	151	151	152	154	154	153	152	151	151	151	150	149	148	147	146	145	145	145	146	147	147	145	143	141	139	138	137	136	134	130	127	124	121	119	118	116	114	112	110	108	106	105	102	99	95	93	90	88	86	85	85	84	85	87	85	83	82	82	79	76	74	72	72	72	72	73	72	70	68	67	64	57	53	50	48	48	48	49	49	49	49	49	49	49	50	52	54	57	60	62	63	63	64	64	64	65	65	65	66	67	68	69	69	69	70	71	71	71	71	72	73	73	74	74	75	75	75	75	76	77	77	78	79	80	80	80	82	83	84	84	86	89	90	89	88	89	90	91	92	92	94	94	95	96	97	99	101	101	101	101	101	101	102	103	103	104	105	105	105	105	105	105	105	108	111	112	113	115	118	119	120	121	122	122	123	124	126	127	128	129	130	133	135	136	137	139	141	142	144	147	149	150	151	152	153	154	155	156	157	159	161	164	164	165	166	169	170	170	171	173	175	176	177	178	179	181	183	185	187	189	190	191	194	196	197	201	204	207	212	215	218	223	227	230	234	238	244	249	253	257	260	264	268	270	273	279	283	283	283	283	285	286	287	288	289	288	288	290	292	295	299	303	308	312	318	322	324	325	328	333	337	340	342	344	346	348	348	350	352	354	356	357	358	359	361	362	364	365	366	368	368	368	369	369	369	368	368	367	364	362	362	363	364	365	365	367	370	373	375	378	381	385	390	394	399	403	407	413	418	422	427	433	439	444	450	455	461	465	468	470	472	474	475	476	476	476	476	476	475	475	475	473	472
98	94	91	87	82	80	80	82	85	89	93	95	97	99	100	108	112	112	113	115	116	114	110	109	114	119	123	124	126	128	129	129	129	131	134	138	140	141	140	140	139	138	137	139	140	141	141	140	139	139	138	137	132	127	125	124	123	123	123	123	123	124	134	145	145	143	140	141	144	144	142	141	140	139	136	130	125	123	123	122	121	120	120	123	127	129	131	132	133	133	132	131	130	129	130	132	130	129	130	130	128	128	127	126	126	126	126	127	127	129	130	130	130	129	129	128	127	126	124	125	124	121	117	117	118	119	118	118	120	120	120	120	118	118	118	115	113	113	112	110	110	111	113	115	117	119	120	122	123	123	123	122	123	124	123	124	126	127	128	131	134	138	142	143	144	145	146	149	153	156	159	162	163	168	173	174	176	180	182	182	183	186	188	190	193	196	198	200	203	204	205	207	210	214	217	218	219	220	222	225	225	223	225	228	228	231	232	235	237	238	238	238	240	242	245	247	249	250	252	258	263	264	264	266	270	272	272	274	277	279	281	283	287	290	292	294	296	299	303	305	306	308	314	320	324	326	329	333	336	337	340	344	348	351	353	354	355	358	361	364	366	368	370	373	376	379	381	383	385	386	388	389	391	393	395	398	400	402	404	405	407	408	409	409	410	410	410	410	410	409	407	405	402	400	397	394	391	388	385	382	379	377	374	372	369	367	365	364	362	361	359	356	352	348	343	338	334	331	327	324	321	318	316	316	315	314	309	304	301	301	299	297	296	295	297	299	298	296	295	293	292	290	288	286	284	282	281	279	274	270	268	266	263	260	258	258	256	254	253	250	247	242	237	239	240	237	233	230	227	223	220	217	216	215	216	217	216	211	211	212	211	212	216	218	220	221	222	222	223	224	223	223	222	220	218	216	214	213	212	210	209	207	202	198	194	190	186	184	184	186	191	191	189	187	185	183	180	177	174	168	164	166	165	161	158	157	156	155	154	153	153	152	151	152	152	152	152	153	155	156	156	154	153	153	153	152	151	150	149	148	147	146	145	146	146	148	148	147	145	143	140	139	138	136	134	132	128	125	122	121	120	117	114	112	110	108	107	105	101	97	94	92	89	87	85	85	86	86	87	87	84	82	82	82	80	78	76	75	74	74	75	76	74	72	69	69	66	62	56	51	49	48	49	49	49	49	49	49	49	49	50	51	54	56	60	62	62	63	65	66	65	65	65	65	66	66	67	69	69	70	70	71	72	71	71	71	72	73	74	74	75	76	75	75	76	77	78	78	79	80	80	80	82	83	83	84	86	88	89	88	88	89	90	91	92	92	94	95	95	96	97	99	101	102	102	102	101	101	102	103	104	105	106	107	106	106	107	106	106	107	108	111	112	114	116	116	117	119	121	122	123	124	126	127	128	128	129	131	134	136	136	138	139	141	142	144	146	147	149	151	152	153	154	155	156	158	160	162	164	164	165	167	168	168	169	171	173	174	175	176	178	180	182	183	185	186	187	188	191	194	197	201	204	207	211	214	217	221	224	227	231	235	242	248	252	255	256	259	263	265	268	273	276	277	278	279	281	282	283	284	285	284	284	285	288	291	295	299	304	309	314	320	324	325	326	330	334	337	339	341	342	343	344	344	345	346	347	348	350	352	354	356	357	358	360	361	362	362	362	363	362	362	361	360	357	356	356	358	359	360	361	363	366	370	374	377	381	384	389	395	399	403	408	415	420	425	430	436	441	446	451	456	461	465	468	470	472	473	475	476	476	475	475	474	474	473	472	471	469
98	95	91	87	82	79	80	81	83	86	90	95	97	98	100	109	112	112	113	116	119	116	110	109	113	120	124	124	126	128	129	130	132	135	138	140	140	140	141	140	139	137	137	138	139	139	139	138	138	138	139	137	130	126	125	124	123	122	122	122	122	123	132	143	145	143	139	141	143	143	143	142	141	139	138	135	128	124	123	122	121	120	120	121	124	127	129	129	130	129	129	129	129	128	129	129	128	129	130	129	127	127	126	124	124	124	126	127	127	127	128	129	129	129	128	126	126	126	125	125	124	121	117	117	118	118	117	118	119	120	120	119	117	116	116	115	112	110	109	109	110	110	111	113	116	118	120	121	121	121	121	121	122	122	123	125	127	128	130	132	135	139	143	143	144	146	149	151	154	157	160	161	163	167	171	171	175	179	181	182	185	187	190	192	194	197	199	201	202	203	204	206	209	213	215	216	217	218	221	224	225	224	228	234	232	232	233	235	237	238	237	238	240	242	245	246	248	250	253	260	264	264	264	266	268	270	272	274	277	279	280	281	283	286	289	293	295	296	300	302	303	306	311	318	323	325	327	331	333	335	336	341	345	349	351	351	353	356	359	361	363	366	368	371	374	376	379	381	382	384	385	387	389	391	394	396	398	400	402	404	406	408	409	410	411	412	412	412	412	411	409	406	404	401	398	395	392	388	386	383	380	378	375	373	371	369	368	366	364	362	360	356	352	347	343	339	336	333	329	326	323	320	319	318	316	313	309	306	304	303	301	299	300	302	302	301	300	298	297	295	294	291	289	287	285	283	282	280	276	271	269	267	264	259	257	258	257	255	254	252	249	243	236	238	239	236	231	228	225	223	220	219	217	217	219	221	220	218	217	216	215	215	218	220	222	223	224	224	225	225	224	223	222	220	218	216	214	213	212	211	209	206	200	195	192	187	185	185	186	190	192	192	189	186	184	182	180	179	175	169	165	167	165	162	159	157	157	156	156	155	155	154	154	154	154	154	154	155	157	158	157	156	155	154	153	153	153	152	150	149	148	148	147	147	147	147	147	147	146	144	142	140	138	136	134	132	129	126	124	123	120	118	115	112	110	108	106	104	101	97	95	92	90	87	85	86	88	89	89	87	85	84	83	82	81	80	78	77	76	76	76	77	77	74	71	69	67	64	58	53	51	50	49	49	49	49	49	49	49	49	50	51	53	57	61	62	61	63	65	66	66	66	65	65	65	66	67	68	69	70	70	70	71	71	71	71	72	73	74	74	76	77	77	77	77	78	78	78	79	80	80	81	83	83	84	85	86	88	88	88	89	89	91	92	92	93	94	96	96	96	97	99	100	102	102	102	102	102	103	104	105	105	106	107	107	107	108	109	109	109	110	111	112	114	114	113	114	116	119	120	122	123	125	127	128	129	130	132	134	136	137	137	139	140	141	142	143	145	147	149	151	152	153	154	155	157	159	161	162	163	164	166	167	167	169	170	171	172	173	175	177	179	181	182	183	184	186	187	190	194	197	201	204	207	211	214	216	219	223	226	228	232	238	244	248	250	251	253	258	261	264	268	269	270	273	277	278	279	280	281	281	281	281	282	284	287	290	295	301	306	311	316	320	323	324	327	331	335	337	339	340	339	339	338	338	339	340	342	344	347	349	349	348	348	350	352	354	354	355	355	355	355	354	353	351	350	352	353	354	356	358	362	365	368	373	378	381	384	390	396	402	407	412	418	423	428	433	438	443	447	452	456	460	465	468	470	471	472	473	473	473	472	472	471	471	470	469	468	466
98	94	90	86	81	79	79	81	82	84	87	93	97	97	99	106	110	111	112	114	118	115	111	109	112	118	123	124	126	129	131	132	134	136	137	138	139	141	141	140	139	138	137	138	138	137	137	137	136	137	138	136	129	125	124	123	122	121	121	121	122	122	126	135	142	141	141	142	143	143	143	144	141	139	139	139	134	127	124	122	121	120	120	120	122	125	126	126	126	126	127	128	127	127	127	128	127	128	130	129	127	126	123	120	121	121	123	125	125	126	127	128	128	127	126	124	125	126	126	126	124	121	117	116	118	117	117	118	119	120	120	119	117	115	115	114	112	110	108	108	109	110	110	112	114	116	118	120	120	118	118	120	121	122	125	128	128	129	132	134	136	140	143	144	146	150	152	152	154	156	159	161	163	168	170	172	175	180	182	184	187	190	192	194	196	197	198	200	202	203	204	206	208	210	212	214	216	218	220	224	226	226	230	234	231	232	234	236	237	237	237	239	244	246	245	246	248	250	254	261	263	263	264	266	268	270	271	274	276	277	278	280	281	283	287	291	293	293	295	298	300	303	308	314	318	321	325	327	329	331	333	337	342	346	349	349	351	354	356	358	360	363	366	369	371	373	375	378	380	382	383	385	388	390	392	394	396	398	400	402	405	407	409	410	411	412	412	412	412	412	410	408	405	402	399	395	393	389	386	384	381	378	376	374	373	371	370	368	366	364	360	356	352	348	345	341	338	335	331	328	325	323	321	319	316	312	309	308	308	307	304	302	302	306	305	303	300	300	299	297	295	293	291	289	286	284	282	280	276	272	270	268	263	257	255	258	258	256	255	253	250	244	237	235	234	232	229	226	224	222	221	220	219	220	223	223	222	221	220	219	218	218	220	223	224	225	225	226	226	226	225	224	223	220	218	217	215	214	213	211	209	204	199	194	190	186	185	188	192	194	193	192	189	186	184	181	179	179	175	169	167	167	165	162	160	159	158	158	158	158	158	158	158	158	157	156	156	157	158	159	158	157	156	155	154	154	154	153	152	150	149	149	148	148	148	148	147	147	146	145	143	141	138	135	133	132	130	128	126	123	119	117	115	112	110	109	107	105	102	99	96	94	91	88	86	86	87	89	89	88	87	86	85	83	82	81	79	77	76	76	76	76	76	76	73	70	68	66	61	56	53	52	50	50	49	49	49	49	50	49	50	51	53	60	64	63	62	63	64	66	67	66	65	65	65	66	67	68	69	69	69	70	71	71	72	72	72	73	74	75	76	78	79	80	80	79	78	78	79	80	82	83	83	84	84	85	87	88	88	89	89	90	92	93	93	93	94	96	97	97	98	99	100	101	102	102	102	104	105	104	104	105	106	107	108	108	109	110	111	112	113	113	115	116	115	114	113	113	116	118	120	122	124	127	129	130	131	133	135	136	136	136	138	139	140	141	142	143	146	148	150	151	152	153	155	156	158	159	160	161	163	165	166	166	168	169	170	171	172	173	175	177	179	180	181	183	185	187	191	194	197	200	203	207	210	213	215	218	222	225	227	230	235	239	242	245	246	249	253	257	261	265	265	264	266	272	275	276	277	278	278	279	279	280	282	284	287	291	298	303	307	311	313	316	320	324	328	332	334	336	337	335	334	332	332	333	335	337	339	342	343	342	340	339	341	344	347	348	349	349	349	349	348	347	346	346	349	351	351	355	357	361	364	368	373	378	382	385	391	398	405	411	415	421	426	431	436	441	445	449	453	457	461	465	467	469	470	471	470	469	468	467	467	467	466	466	465	464	462
98	94	90	86	81	78	78	79	81	83	85	92	96	97	97	98	102	104	107	112	114	114	112	109	109	115	122	124	126	129	133	135	135	137	136	136	138	141	142	140	139	139	138	138	138	137	137	136	136	136	137	133	127	125	124	122	121	121	120	121	121	122	123	127	137	140	141	143	143	142	143	144	142	139	140	139	137	131	125	121	120	120	120	120	120	122	123	123	123	123	124	126	126	126	126	126	126	126	127	126	125	123	120	118	119	120	122	123	123	125	127	128	127	126	124	123	122	124	126	126	124	122	118	116	118	118	118	118	119	119	119	119	116	114	113	112	111	110	108	108	109	109	110	111	112	113	115	117	118	117	118	119	120	122	125	128	128	129	132	134	136	140	145	147	148	151	152	152	153	155	158	160	163	168	170	174	177	181	183	184	188	192	193	195	196	197	197	198	202	204	204	206	208	209	211	213	216	218	220	224	226	226	229	232	231	232	235	236	236	237	239	242	249	251	248	247	249	251	254	259	261	262	264	266	268	269	270	272	274	275	277	278	280	282	284	288	291	291	293	296	297	300	306	310	312	315	320	324	325	327	331	335	339	342	345	347	348	350	353	354	356	359	362	365	368	369	372	375	377	379	381	384	386	388	389	391	394	397	399	401	403	406	408	410	411	411	411	412	412	412	410	408	405	402	399	396	393	390	387	384	382	379	377	376	375	373	372	370	368	365	361	357	354	350	347	344	340	337	333	330	327	325	323	320	316	314	312	311	311	310	308	305	305	307	307	305	303	302	302	300	297	295	293	291	287	282	278	276	274	273	271	267	262	259	259	260	259	258	256	253	250	243	237	235	233	231	229	226	224	223	222	221	221	223	225	225	224	223	222	221	221	221	223	224	225	226	226	226	227	227	225	224	222	220	218	216	214	214	213	212	207	202	198	193	188	186	188	192	195	196	194	192	189	186	184	180	178	176	172	167	166	164	162	161	161	161	161	161	161	159	160	161	161	160	159	158	159	160	160	160	159	158	157	156	155	155	155	154	153	151	150	150	150	150	149	149	148	147	147	146	145	143	140	136	133	132	131	129	126	123	119	116	115	112	111	111	109	106	103	101	98	95	92	90	88	86	86	87	89	88	88	87	86	85	84	82	81	79	78	77	76	75	74	75	74	71	69	67	66	62	58	56	56	55	53	50	49	50	50	50	50	50	53	62	65	63	61	62	63	66	67	66	65	65	66	66	67	68	68	69	69	69	70	71	72	72	73	74	74	75	76	78	80	81	81	80	79	78	79	80	82	84	84	84	85	86	87	88	89	89	90	91	93	94	93	93	94	95	97	97	98	98	99	100	102	103	103	105	105	104	104	106	107	108	109	109	110	110	111	112	114	115	116	117	117	116	116	116	116	117	119	121	124	127	129	130	131	133	133	134	134	135	137	138	140	140	141	142	144	147	148	149	151	152	154	156	157	158	159	160	161	163	164	165	167	168	169	170	171	172	173	175	177	178	180	183	184	187	190	193	196	199	202	206	209	211	214	217	220	223	226	228	232	235	239	242	244	247	250	254	259	262	263	263	264	269	271	273	273	274	274	275	276	278	281	283	284	286	291	297	302	307	310	312	315	319	323	326	329	331	331	330	329	328	329	330	332	334	335	336	337	337	335	334	335	339	342	342	343	344	344	343	342	342	342	343	345	348	350	354	357	361	365	369	374	379	384	388	394	401	408	413	418	423	428	432	437	442	446	450	454	458	462	465	466	467	468	468	466	464	463	462	461	460	460	461	460	459	458
98	94	91	87	82	78	75	76	79	81	83	89	94	95	93	92	96	100	102	106	111	114	113	111	109	112	121	124	126	129	132	134	135	136	136	136	139	142	141	139	138	139	139	138	138	138	138	137	136	136	133	128	125	124	123	122	121	121	120	120	120	121	123	128	138	140	142	142	142	141	142	143	142	139	140	139	136	133	127	122	120	120	120	119	118	119	119	119	120	121	122	124	125	125	124	124	123	123	122	122	121	119	118	118	118	120	123	124	124	125	127	127	126	125	123	122	121	122	123	124	123	122	119	118	119	120	119	119	119	118	118	117	114	112	110	108	109	109	109	108	109	110	111	112	113	113	115	115	116	117	118	119	121	122	125	128	129	130	133	136	139	142	147	149	148	149	151	151	153	155	157	160	163	167	170	174	177	181	182	184	187	191	193	194	195	195	196	199	203	205	205	206	207	209	211	213	216	218	220	223	225	225	228	231	231	232	233	235	235	239	244	246	250	251	248	248	250	252	254	257	259	262	264	266	267	269	270	271	272	274	276	277	279	281	282	285	288	290	293	295	296	297	302	307	309	311	315	319	322	324	327	332	335	338	341	344	345	347	350	352	353	356	359	361	363	365	369	373	375	377	380	382	384	385	387	389	393	396	398	400	402	405	407	408	409	409	410	410	410	410	409	407	405	402	399	396	393	390	387	385	383	381	380	378	377	376	374	372	369	365	362	359	356	354	350	346	343	339	336	333	330	327	325	322	318	317	315	314	314	312	310	309	308	308	307	308	307	305	304	302	299	297	295	293	288	278	274	272	272	275	272	268	264	263	261	260	260	258	256	253	250	243	237	235	234	233	230	227	226	225	225	225	226	227	228	228	227	225	224	223	223	223	224	226	227	227	227	227	228	227	225	223	221	219	216	213	211	211	212	211	204	200	195	190	188	189	193	195	195	195	194	192	188	185	183	180	178	176	171	167	164	161	160	161	162	162	162	163	161	160	160	161	162	162	161	160	161	162	161	161	160	159	157	156	156	156	156	155	154	153	152	151	151	151	151	150	149	148	148	148	146	145	142	139	136	133	132	130	127	124	121	118	116	114	113	112	110	107	106	104	101	97	94	92	91	88	86	86	88	88	88	88	87	86	85	84	84	83	82	82	81	77	75	73	73	71	70	69	68	67	64	63	62	61	59	55	51	50	50	50	50	50	54	62	64	63	60	61	63	65	65	65	65	66	66	67	67	68	69	69	69	69	70	71	72	72	73	74	74	75	77	78	79	80	80	80	80	80	81	81	82	83	84	84	85	87	88	89	89	90	90	91	93	94	93	93	94	95	97	98	98	99	99	100	101	103	104	105	105	105	105	107	108	108	109	110	110	110	111	112	114	116	117	117	118	118	120	120	118	118	119	120	123	126	128	128	129	130	131	132	133	134	136	138	139	140	140	141	143	145	147	148	150	151	152	154	156	157	158	160	161	162	163	164	166	167	169	169	170	171	172	173	175	178	180	182	184	186	189	193	196	199	201	205	208	210	213	216	219	222	224	227	230	233	236	239	242	245	249	252	254	257	258	261	263	266	268	269	270	269	269	270	272	275	279	282	283	284	286	291	297	304	308	309	311	313	315	319	321	322	322	323	324	325	326	327	329	331	331	331	331	331	331	331	332	334	336	337	338	338	337	336	336	337	339	341	343	346	349	354	358	362	366	370	376	380	386	391	396	402	409	415	419	424	429	432	437	442	446	451	455	459	461	463	463	463	464	463	461	459	458	458	456	455	455	456	455	454	453
97	94	91	88	83	77	73	74	77	80	80	83	89	89	89	89	92	96	98	100	106	112	114	113	110	110	117	122	125	127	130	133	134	134	135	137	140	141	139	137	137	139	138	137	136	137	137	137	136	133	129	125	125	124	123	122	122	121	120	119	120	120	122	128	139	142	143	142	141	140	141	141	138	137	137	137	136	134	129	123	121	120	119	118	117	117	118	118	118	118	120	123	125	123	121	121	121	121	120	120	119	118	119	119	119	120	124	125	125	125	125	127	128	127	124	121	119	119	121	122	122	122	120	119	119	120	120	119	119	118	117	115	111	109	107	106	107	108	108	109	111	112	114	114	115	116	117	117	118	119	120	121	122	123	126	129	130	132	136	140	143	144	147	148	148	148	149	151	153	155	157	160	163	166	169	173	176	179	182	184	187	190	192	193	194	194	196	200	202	204	204	205	207	209	212	213	215	217	220	222	224	225	228	230	231	232	234	236	238	243	248	248	249	250	249	249	251	253	254	256	258	261	264	265	267	269	271	272	272	273	275	276	278	279	281	283	285	289	293	295	295	295	298	304	308	310	312	315	319	322	324	328	332	334	338	341	342	344	347	350	351	353	356	358	360	363	366	371	373	374	377	380	382	383	385	388	391	395	397	399	401	403	405	406	407	407	408	408	408	408	407	406	404	402	399	396	394	391	388	386	385	383	382	381	380	378	376	373	370	367	364	361	359	357	353	350	347	342	338	334	331	329	327	324	321	319	318	318	317	316	314	313	312	310	307	309	309	307	305	303	301	299	297	294	289	279	275	272	273	276	275	272	268	263	260	260	260	258	255	254	250	244	239	237	237	236	234	230	228	227	227	229	230	231	231	231	230	228	226	225	224	225	226	227	228	228	228	228	226	224	222	218	214	211	208	206	205	205	206	204	200	196	191	189	191	194	196	196	195	194	192	191	187	184	182	180	178	175	171	167	164	161	160	161	163	162	161	161	160	159	159	160	161	162	162	162	163	163	163	162	161	159	158	157	157	157	156	156	155	154	154	154	153	152	152	151	150	150	150	149	148	146	144	141	138	135	132	130	128	126	124	122	119	118	116	114	112	109	108	106	103	100	97	95	94	91	89	87	86	87	87	88	88	88	87	86	86	86	86	87	86	83	79	74	72	72	72	72	70	68	67	67	65	63	62	61	57	52	50	50	50	50	55	61	63	61	59	60	63	65	65	65	65	67	67	67	67	68	69	69	69	69	69	70	72	72	73	74	75	75	77	78	79	80	80	81	81	82	82	82	83	84	84	85	86	87	88	88	89	90	90	91	92	93	93	93	94	96	97	98	99	99	99	100	101	103	104	105	106	106	107	108	109	109	109	110	110	110	111	112	114	116	117	117	118	119	121	122	121	121	120	120	121	123	125	126	127	128	129	130	131	132	134	136	137	139	140	141	143	145	146	148	149	151	152	153	154	156	157	159	160	160	162	163	164	166	167	168	168	170	171	173	174	177	180	182	183	185	188	192	195	198	200	203	207	209	211	214	218	221	223	225	228	231	234	237	240	244	247	249	250	251	254	258	261	263	265	266	266	265	264	265	268	272	277	280	282	283	285	288	293	299	303	305	306	307	310	313	314	315	315	316	318	320	321	322	324	327	329	329	327	326	326	326	327	328	330	332	332	331	330	330	331	333	336	339	341	345	349	353	358	362	366	372	377	381	387	394	398	404	410	415	419	424	427	430	435	440	445	449	453	458	460	460	459	458	457	456	454	454	455	455	454	453	452	452	450	448	446
96	93	91	89	86	78	72	72	75	78	78	79	82	85	86	87	89	92	96	98	103	109	113	113	111	110	115	121	124	126	129	131	132	133	136	138	140	139	138	137	138	140	139	136	134	134	135	135	134	131	127	125	124	124	123	121	121	120	119	119	119	120	121	128	139	142	143	142	140	139	139	138	136	134	134	135	135	134	128	124	124	121	119	118	116	117	118	117	115	116	117	120	123	121	118	118	120	120	120	119	119	120	121	120	120	120	121	123	123	123	124	126	128	128	124	121	117	115	118	121	122	121	120	119	119	119	119	119	118	116	115	113	110	108	107	106	107	107	108	110	112	114	115	116	117	118	119	119	120	121	122	122	123	124	127	130	131	133	137	141	143	144	146	147	147	147	149	152	154	155	157	160	163	166	169	173	176	179	182	184	187	190	192	194	194	195	197	199	201	201	202	204	207	209	212	213	214	216	219	222	223	226	228	230	232	233	236	239	241	246	248	249	250	251	250	249	251	255	256	256	258	260	263	265	266	269	271	272	271	272	274	275	275	277	280	282	284	287	291	292	293	295	297	301	306	308	310	313	316	319	321	324	327	331	335	338	339	342	345	348	350	351	353	356	359	361	364	367	370	371	374	377	379	381	384	387	389	392	395	398	399	401	402	403	404	405	405	406	406	406	406	405	403	401	399	397	394	392	390	388	387	386	385	384	382	380	378	375	372	369	367	365	362	360	357	354	350	345	339	335	333	331	328	326	323	321	320	321	321	320	319	317	316	313	309	311	311	309	306	304	303	301	298	295	290	280	277	275	274	277	277	275	270	264	260	259	259	256	254	253	252	246	242	241	241	240	237	233	230	229	228	230	232	233	233	233	232	230	228	227	226	226	227	228	229	228	227	226	222	219	215	211	206	204	202	201	201	201	200	198	197	191	190	191	195	197	196	194	193	191	190	188	186	183	181	180	177	173	171	168	164	162	161	162	163	161	159	159	158	157	157	157	159	161	162	162	164	164	164	164	161	159	157	157	158	158	157	157	157	156	156	156	155	154	152	151	151	151	151	150	149	147	145	142	139	136	134	132	130	128	126	124	122	120	119	116	113	111	109	108	106	103	99	98	96	94	92	89	87	86	86	86	87	88	88	88	88	88	88	89	88	87	85	80	76	75	76	74	71	68	68	68	67	65	63	62	61	55	51	51	50	50	54	59	60	61	60	61	63	64	64	64	65	66	67	68	67	68	69	69	69	69	69	70	72	73	73	74	75	76	76	77	78	79	80	81	82	83	83	83	84	84	84	85	87	88	87	88	89	90	90	91	92	93	93	93	94	96	98	99	99	99	99	100	101	102	104	105	106	107	108	109	109	110	110	109	109	110	111	112	114	115	117	118	118	120	121	122	123	123	122	122	122	122	124	126	127	128	129	130	130	130	132	133	135	137	140	141	143	144	146	147	149	151	152	153	153	154	156	157	159	159	161	162	163	165	166	166	167	169	170	172	174	176	179	181	182	184	187	190	193	196	198	201	205	207	209	212	216	219	222	224	226	229	232	235	238	242	244	246	247	248	251	255	258	259	261	262	263	262	261	262	264	269	274	277	279	281	284	287	291	296	300	302	303	305	307	310	312	313	313	314	315	315	316	317	320	323	325	326	324	322	321	321	321	322	324	325	325	324	325	326	328	331	334	338	341	344	348	352	357	362	367	372	377	381	388	396	400	404	409	413	417	422	425	428	432	437	441	445	446	449	453	454	454	453	452	451	449	450	451	451	450	450	448	446	444	441	438
95	93	91	90	87	81	76	73	73	73	72	73	78	83	84	87	88	90	93	97	102	106	110	113	113	110	113	120	123	125	127	129	131	133	136	138	139	138	137	137	139	140	138	135	134	134	135	134	131	127	125	124	124	125	124	122	120	119	118	118	119	119	121	126	137	140	141	141	138	138	138	137	135	134	133	133	133	131	127	125	127	125	120	119	116	115	114	113	111	112	113	114	117	117	116	117	118	120	120	120	120	121	122	121	121	120	120	120	121	122	123	124	124	124	123	122	115	114	118	121	122	121	119	119	119	117	116	116	115	115	114	113	111	108	107	107	107	108	109	111	114	115	116	117	118	119	120	120	121	122	123	124	125	125	126	129	130	134	138	139	139	142	145	146	146	147	150	152	154	154	156	160	163	166	170	173	176	179	182	184	187	190	192	194	195	196	197	199	200	200	201	203	206	208	210	212	214	216	219	222	223	226	228	231	233	234	236	238	241	244	245	247	248	248	248	248	251	254	255	256	257	258	261	263	264	267	269	270	270	271	272	273	274	276	278	280	283	285	287	288	291	294	296	298	301	304	307	309	312	314	317	320	322	325	330	333	334	336	340	345	348	350	351	353	356	359	362	365	367	370	372	374	376	380	384	385	387	390	393	396	397	398	400	401	402	403	404	404	404	404	404	403	402	401	399	397	395	393	392	391	390	389	388	386	384	382	380	377	374	372	370	369	366	363	361	357	352	346	341	338	335	333	331	328	326	324	323	324	324	322	321	320	319	316	313	312	312	310	308	306	304	303	300	297	292	283	283	282	279	279	278	276	272	266	263	261	259	257	256	255	253	250	247	245	244	242	240	235	232	231	230	232	235	236	236	235	234	231	229	228	227	228	229	229	229	227	226	224	221	217	213	208	204	202	200	198	198	198	195	193	192	191	193	195	197	197	194	191	190	188	187	186	184	181	180	179	175	170	169	167	164	162	162	163	163	162	160	160	159	157	156	155	156	158	160	161	163	164	165	163	160	158	157	156	157	158	158	159	159	158	157	158	157	155	153	152	152	152	152	151	150	148	145	143	141	138	136	134	131	129	126	124	123	121	119	117	114	112	110	109	107	105	102	100	99	97	95	92	89	87	86	86	87	87	87	88	89	89	90	90	90	88	87	84	82	80	79	76	72	69	68	68	68	67	65	63	61	57	53	51	51	51	52	54	58	60	61	62	63	63	63	64	64	66	67	68	68	68	69	69	69	69	70	71	72	73	73	75	75	76	76	77	78	80	81	82	83	83	83	83	84	85	85	86	87	87	87	88	89	90	90	91	92	93	94	94	95	96	98	99	99	99	99	100	100	102	103	105	106	107	108	109	110	110	110	110	109	110	111	112	114	115	116	117	119	120	121	122	123	124	124	125	125	125	126	127	129	130	131	132	131	131	131	132	134	135	137	139	141	144	146	147	149	150	151	152	152	153	154	156	157	158	160	161	162	163	164	165	167	168	170	171	173	175	177	179	180	182	185	188	191	194	196	199	203	205	207	210	213	216	219	221	224	226	230	233	235	238	239	241	243	245	248	252	254	256	257	258	259	259	259	261	263	267	271	275	277	278	281	285	290	295	298	300	302	303	305	307	310	313	313	313	313	313	313	315	318	320	320	321	321	319	318	317	317	318	319	319	318	318	320	323	326	330	333	336	340	343	347	351	356	362	367	371	376	382	390	397	400	403	407	410	414	418	422	425	429	433	437	438	437	438	444	446	448	449	449	448	447	447	446	446	444	443	440	438	435	432	430
93	93	92	91	87	83	79	75	73	71	69	68	72	80	84	87	88	89	91	96	102	105	108	111	112	111	111	114	120	123	125	128	130	132	135	137	138	138	136	136	137	138	137	135	135	135	134	131	127	125	124	124	124	124	124	121	119	118	118	118	119	120	122	128	135	137	137	137	136	138	138	137	135	135	134	132	130	127	125	124	124	122	120	116	113	111	110	109	109	109	109	109	110	112	116	116	118	121	122	121	121	122	122	121	121	121	120	119	119	121	122	122	120	119	121	121	114	114	119	121	121	119	116	117	116	113	113	112	112	113	113	111	109	106	105	107	108	109	111	113	115	117	118	118	119	119	120	120	121	123	124	125	126	126	126	128	131	134	136	136	136	138	141	143	145	147	150	152	154	154	156	159	162	167	172	173	175	178	181	183	186	189	191	193	194	195	196	198	199	200	201	203	205	207	209	211	214	217	219	221	223	225	227	229	231	232	234	237	240	241	241	242	243	244	245	247	248	250	252	254	255	256	258	260	262	265	267	267	268	268	270	272	273	275	276	278	281	283	284	286	288	293	296	296	297	300	303	306	307	309	313	317	319	320	323	326	328	330	333	338	343	347	350	351	353	356	359	362	365	368	370	372	375	379	383	384	386	389	391	393	394	396	398	399	400	401	402	402	403	403	403	402	402	400	399	398	396	395	394	393	393	392	391	389	387	384	381	379	377	375	374	372	370	366	362	357	352	347	344	341	338	336	334	331	329	327	327	328	327	323	321	321	320	318	315	313	312	311	310	307	305	304	302	299	295	290	289	289	286	283	280	278	274	269	266	263	260	258	258	257	255	253	250	247	246	245	242	239	236	236	235	237	238	239	238	237	235	233	231	230	229	230	231	231	229	227	226	224	220	216	212	206	202	199	197	195	194	194	192	192	192	195	198	199	197	194	191	189	187	186	184	183	182	180	179	178	174	170	168	166	163	162	162	162	162	162	162	162	161	159	156	155	155	155	156	159	160	161	161	160	159	158	156	156	156	158	159	160	160	159	159	159	158	156	154	154	154	155	154	152	151	149	146	144	142	140	138	135	132	130	127	125	124	122	120	118	116	114	112	110	108	106	104	102	101	99	96	93	90	88	89	89	89	89	88	88	88	88	89	91	92	90	88	87	85	83	80	78	75	72	69	67	68	67	65	63	62	61	57	53	51	51	51	53	57	60	62	63	63	63	63	64	65	66	68	69	70	69	69	68	69	70	70	71	72	73	74	75	76	76	76	76	78	80	82	82	83	83	83	83	84	85	85	85	85	85	86	88	90	90	91	91	92	93	94	95	96	97	98	98	98	98	99	100	101	102	103	105	105	106	108	109	110	110	111	111	111	111	112	113	114	115	116	117	119	120	121	122	123	124	125	126	126	127	127	129	130	131	133	134	133	133	133	134	135	135	135	137	139	142	144	146	147	148	149	150	152	153	154	155	157	158	159	160	160	162	163	165	166	167	169	170	172	174	176	177	179	181	184	187	190	192	195	198	201	203	205	207	210	212	215	218	221	223	227	230	232	234	236	237	239	242	245	247	250	251	253	254	254	255	257	260	262	265	269	273	275	276	279	285	290	293	297	299	300	302	304	304	306	309	310	311	311	311	311	314	317	317	317	318	318	316	315	315	315	315	315	315	314	315	317	320	324	328	331	334	338	343	346	351	356	362	367	371	376	384	393	398	399	400	403	406	410	414	417	421	425	428	431	433	433	434	439	440	442	443	444	444	443	442	441	439	437	434	431	428	425	424	423
92	92	91	90	87	84	80	77	74	72	70	67	69	77	83	86	87	88	90	95	102	104	106	108	111	112	111	110	114	121	123	126	129	132	134	136	137	137	136	135	134	135	135	135	135	133	130	127	124	124	123	122	121	122	121	119	118	117	117	117	122	123	125	133	135	133	133	134	135	137	137	135	134	134	133	130	128	126	124	123	122	120	117	112	109	109	108	108	108	108	108	108	108	110	113	115	118	122	123	121	121	122	122	121	121	121	121	120	119	119	120	119	118	119	117	114	114	116	118	120	119	115	113	112	110	108	108	107	107	108	109	108	105	102	104	108	110	111	114	116	117	118	119	119	119	119	119	120	121	123	125	126	126	127	127	129	134	136	135	134	135	137	139	141	144	146	148	150	153	154	156	158	160	167	172	172	174	177	180	183	186	188	190	192	191	190	191	194	197	198	201	203	204	205	207	210	213	215	217	220	223	225	226	228	229	230	234	239	240	239	240	241	242	243	244	245	246	247	249	251	253	254	255	257	260	263	266	267	266	266	268	271	273	274	275	277	280	282	283	284	286	291	294	295	295	296	299	302	303	304	309	314	316	316	317	320	324	326	329	332	336	340	347	350	351	354	356	359	362	365	368	370	373	376	380	382	384	387	390	391	393	395	397	398	399	400	400	401	402	402	402	402	401	400	399	398	397	397	396	396	396	395	393	391	389	386	383	381	380	378	376	375	372	368	363	357	352	349	347	345	342	339	337	335	333	330	329	330	329	326	323	322	320	319	317	314	313	313	311	309	307	305	303	300	298	294	291	290	288	284	281	279	276	271	268	264	261	260	261	259	257	255	252	249	248	247	245	243	242	241	240	240	240	240	240	238	237	235	232	231	231	231	232	232	230	227	224	223	219	215	208	200	198	196	195	194	194	195	195	193	194	196	198	198	195	192	189	188	186	183	181	180	180	178	178	178	173	170	167	163	162	162	161	160	159	158	159	161	161	160	158	156	155	155	155	154	155	156	157	158	157	158	157	156	156	158	160	161	161	160	159	160	159	157	156	156	157	157	156	154	152	151	149	146	143	140	138	135	133	130	128	126	125	124	122	120	118	115	113	111	109	108	106	104	101	99	96	93	91	91	92	92	92	91	91	91	90	90	89	91	93	91	90	88	86	84	82	80	77	74	71	68	67	66	65	64	63	63	60	56	53	51	51	52	56	60	61	62	63	63	63	64	65	66	68	70	70	69	68	69	70	70	71	71	72	73	74	75	76	76	75	76	79	81	82	83	83	83	83	83	84	85	85	84	84	85	86	88	90	90	91	91	92	93	95	96	96	97	98	98	98	97	98	100	102	103	103	105	105	106	108	109	109	110	111	112	112	112	112	112	114	116	116	117	119	120	122	123	123	124	125	126	127	127	128	129	131	132	133	134	134	135	136	136	137	137	137	137	139	140	142	144	145	146	148	150	152	153	154	156	157	157	158	159	160	162	163	165	166	167	168	169	171	173	175	177	179	180	183	185	187	190	193	196	198	200	202	204	207	210	213	215	218	221	224	227	229	231	233	235	237	239	241	243	245	247	249	249	248	248	253	259	261	263	266	270	273	275	278	285	290	294	296	297	298	299	301	301	301	303	306	306	306	307	308	310	313	314	314	314	314	312	311	311	312	312	311	310	311	312	314	318	321	325	329	332	337	341	345	350	357	363	368	371	376	384	392	396	397	397	399	402	406	409	413	416	420	423	426	428	430	433	435	436	437	438	438	438	437	436	434	431	428	426	424	420	417	417	418
