351	349	346	342	341	341	341	340	339	338	338	339	339	340	339	339	339	340	340	341	342	341	341	341	341	342	343	344	343	342	342	342	341	339	337	334	332	330	330	329	328	327	326	325	324	324	325	324	324	324	327	330	330	329	329	329	330	333	335	332	331	331	328	325	322	320	319	318	317	315	311	310	310	311	312	310	306	304	304	305	306	307	307	307	308	309	311	312	313	312	312	313	313	313	314	315	317	319	319	317	316	317	318	319	321	322	322	321	322	323	324	325	327	329	329	329	332	335	337	339	341	343	343	343	346	348	346	345	348	351	353	356	359	361	364	368	371	373	375	377	380	382	385	389	392	394	395	395	395	394	394	393	392	391	391	390	389	387	384	382	379	375	373	370	367	364	361	358	355	352	350	347	345	343	340	339	337	335	333	331	329	328	327	325	325	324	322	320	319	317	315	314	313	310	309	307	306	305	303	301	300	298	296	294	292	290	287	285	284	283	281	280	278	276	274	273	276	280	282	282	283	284	284	284	284	285	286	287	288	289	289	290	290	289	288	288	288	287	288	288	287	287	287	288	288	287	286	286	286	284	283	282	281	280	279	277	274	272	268	264	259	256	253	250	245	241	238	235	231	227	223	219	217	215	213	211	211	212	213	212	210	209	207	204	201	198	195	192	190	188	186	184	181	180	182	185	187	189	190	192	193	194	193	192	191	192	198	203	206	207	208	208	207	208	210	212	211	212	213	214	216	217	218	219	220	221	224	229	230	229	230	231	233	235	236	237	239	241	243	244	245	246	248	249	251	253	255	258	261	264	265	265	267	269	271	274	276	279	281	284	287	290	292	294	296	300	303	306	309	312	314	318	322	326	330	334	338	342	347	350	354	358	363	368	371	374	378	382	387	392	397	402	405	409	412	416	420	424	427	431	436	441	446	450	454	459	464	470	474	478	483	487	489	491	494	497	500	503	506	509	512	515	518	521	523	527	530	533	536	539	543	546	550	554	557	560	564	568	571	574	577	581	585	588	591	595	598	601	604	607	611	614	617	621	624	627	630	633	636	640	643	646	649	652	656	659	662	665	668	670	673	676	679	681	684	687	689	690	692	694	696	697	698	699	699	700	701	703	704	705	707	708	709	710	711	713	714	716	718	720	721	722	722	723	723	724	726	728	729	732	734	738	741	744	748	750	753	756	758	761	764	767	770	774	778	782	785	788	789	790	791	791	792	794	796	798	800	802	803	806	808	811	815	818	820	821	821	821	820	818	817	816	817	818	819	821	823	825	827	829	830	832	833	834	835	835	836	837	838	839	840	842	844	846	849	851	852	853	854	855	856	856	857	857	856	855	854	854	853	853	852	852	853	853	854	855	855	856	857	857	857	857	857	855	853	851	849	846	845	844	843	843	843	843	843	843	843	842	841	840	839	838	837	837	835	834	832	830	828	826	824	822	820	818	816	813	811	809	807	806	804	802	801	800	799	797	796	794	793	793	793	793	792	791	789	787	785	782	780	778	776	773	772	770	769	768	766	764	760	756	753	749	745	743	740	738	735	733	731	729	727	726	724	722	720	717	715	713	712	710	708	707	705	703	702	700	698	698	698	699	699	700	701	700	700	700	700	701	702	703	705	708	710	712	714	714	713	713	713	713	712	712	711	709	707	705	703	701	699	696	693	690	686	681	678	674	670	666	662	660	657	654	650	647	643	641	641	640	639	638	637	637	639	643	648	652	656	660	664	667	669	670	670	670	669	669	670	671	672	672	670	668	666	664	663	662	662	660	659	656	654	653	653	653	653	652	650	649	647	645	644	644	645	645	644	643	642	642	642	641	640	639	638	637	636	636	637	638	640
350	347	343	341	340	340	340	340	339	338	337	337	337	337	336	336	337	337	337	339	339	338	338	338	339	340	341	341	341	340	340	340	339	338	336	334	331	329	328	327	326	325	324	323	322	322	322	322	322	323	325	328	328	327	326	326	328	331	332	330	329	329	328	326	323	321	319	318	316	315	312	310	308	308	309	307	304	302	302	303	304	305	306	306	306	308	310	311	311	311	311	312	312	312	312	314	316	318	318	316	316	316	317	319	320	321	321	320	321	322	323	324	325	327	328	329	331	333	335	336	340	342	342	342	345	347	345	343	347	350	353	356	360	362	364	367	370	373	375	377	379	382	385	388	390	392	393	393	393	393	392	391	391	390	390	389	388	386	383	381	378	375	372	369	366	363	360	357	354	351	349	346	344	342	340	338	336	334	331	329	328	328	326	325	324	323	321	319	318	317	315	314	313	311	309	307	306	305	303	301	300	298	296	294	292	291	288	286	285	283	281	279	277	274	273	272	274	278	281	281	282	283	283	283	284	285	286	287	287	288	288	289	288	288	288	288	288	287	288	288	288	287	287	287	288	287	286	286	285	284	283	282	281	280	278	276	273	271	268	264	260	257	254	250	246	242	239	236	232	228	224	218	216	215	211	208	207	209	208	208	209	207	203	199	196	194	191	188	187	185	182	179	179	180	183	186	187	189	190	192	193	193	192	190	190	193	199	203	206	207	207	207	206	207	209	210	210	210	212	214	215	215	217	218	219	221	224	228	229	229	229	230	232	233	234	236	237	239	241	243	243	245	246	248	250	252	254	256	260	263	264	265	267	270	271	273	276	279	282	285	288	291	292	295	298	301	303	306	309	312	316	319	322	326	330	334	338	342	346	350	354	358	363	367	371	374	378	381	386	391	396	400	404	407	411	415	419	422	425	429	435	441	446	450	454	458	463	470	474	477	482	485	487	490	493	496	500	503	506	509	512	515	517	520	523	527	530	533	537	540	543	547	551	555	558	562	566	570	573	576	580	583	586	589	593	597	600	603	606	609	612	616	619	622	625	628	632	635	638	641	645	648	651	654	657	660	663	666	669	672	674	677	680	682	685	688	690	692	694	696	698	699	700	701	702	703	704	705	706	708	709	710	711	712	714	715	717	720	722	724	725	725	726	726	727	728	729	730	732	734	736	740	744	748	750	753	756	758	761	763	766	769	772	776	780	784	787	790	793	794	794	794	795	797	799	801	803	805	807	809	812	814	817	820	822	824	824	824	823	821	819	818	818	820	821	823	825	828	829	831	833	835	836	837	838	839	839	839	840	840	842	843	845	847	850	852	854	855	856	857	858	858	858	858	857	857	856	855	855	854	854	853	854	854	855	856	857	858	858	858	858	857	856	854	852	850	848	846	845	844	843	843	842	842	842	842	842	842	842	841	840	840	839	838	837	835	833	831	829	827	825	823	821	819	817	814	812	810	808	806	804	803	801	800	799	798	797	796	795	795	795	794	793	792	790	787	785	782	780	778	776	774	773	772	770	769	768	766	763	759	755	751	747	744	742	740	738	736	734	732	730	728	726	724	721	719	717	715	713	712	710	708	706	705	703	701	700	699	699	699	699	700	701	702	703	704	704	705	706	707	709	711	713	714	714	713	712	712	713	714	715	715	714	712	711	709	707	705	703	700	696	693	689	685	681	677	673	669	665	662	659	657	654	651	648	646	644	642	641	639	638	637	639	643	648	653	657	661	665	668	671	673	673	673	673	673	674	675	675	674	673	671	668	667	666	666	665	663	661	658	657	656	656	657	656	655	653	651	649	648	648	648	648	648	646	646	645	645	645	643	642	641	640	639	639	638	639	640	641
349	345	341	339	339	339	339	339	339	337	336	336	334	333	332	333	334	335	335	335	335	335	336	337	338	340	340	338	338	338	338	338	337	337	336	334	330	327	325	324	323	323	322	321	320	320	321	321	320	321	324	327	328	327	325	324	326	328	329	328	327	327	326	325	323	321	319	318	317	315	313	311	308	307	306	304	301	300	301	302	302	304	305	305	306	307	309	310	309	309	310	311	310	309	310	312	315	316	316	315	315	316	317	319	319	318	318	319	320	320	321	323	324	326	328	330	332	333	333	333	337	340	339	340	343	344	343	343	347	351	353	357	360	361	363	365	369	372	374	376	378	381	384	386	389	390	391	391	391	391	390	389	389	389	389	388	387	385	383	380	377	374	372	368	365	362	360	357	354	351	349	346	343	341	339	338	336	333	330	328	328	327	325	323	323	321	320	318	318	317	315	314	312	311	309	307	306	305	303	301	300	298	296	294	293	290	288	286	285	282	280	278	275	273	272	272	274	277	279	281	282	282	281	281	282	284	285	286	286	287	287	287	287	287	287	287	287	287	288	288	288	286	286	286	287	287	286	285	284	283	282	282	281	280	277	275	272	270	267	264	260	257	254	251	247	244	240	236	232	230	226	221	216	214	211	208	204	202	202	204	206	205	201	197	195	192	189	186	183	180	179	178	179	181	184	185	186	188	190	192	193	192	190	189	190	193	198	203	206	206	205	206	206	206	208	209	209	210	212	213	214	215	216	217	219	220	223	225	227	227	228	229	231	232	234	236	237	239	241	242	243	244	246	247	249	251	253	255	258	261	263	265	267	269	271	273	275	278	281	285	288	291	293	296	299	301	303	306	310	313	316	320	323	326	330	334	338	342	346	350	354	359	363	367	370	374	377	381	385	390	395	399	402	406	410	414	418	421	423	428	434	441	446	450	453	457	462	469	473	476	480	483	486	489	493	496	500	503	506	510	512	515	517	518	521	526	530	533	537	541	544	548	552	555	560	564	568	571	575	579	582	585	588	591	595	598	602	605	608	611	614	617	620	623	626	630	633	636	639	642	646	649	652	655	658	661	664	667	670	673	675	678	681	683	686	688	691	693	695	697	699	701	702	703	704	705	706	707	709	711	712	713	714	715	717	718	720	723	725	727	728	729	729	729	730	731	732	733	734	736	738	741	746	749	752	755	758	761	763	766	768	771	774	778	782	786	789	793	796	797	797	798	798	800	802	804	807	809	811	814	816	817	819	822	825	826	827	827	826	823	821	820	820	821	823	825	827	830	832	834	836	838	839	840	841	841	842	842	842	842	843	845	846	848	851	853	854	856	857	859	860	860	859	859	858	858	857	857	856	856	855	854	855	855	856	857	858	858	858	857	857	857	855	854	851	850	848	846	845	844	843	842	842	842	841	841	842	842	842	842	841	841	841	840	838	836	834	832	830	828	826	824	822	820	817	815	813	811	808	807	805	803	802	801	800	799	798	797	796	796	796	795	793	791	789	787	784	782	779	778	776	775	774	772	770	769	767	766	763	759	756	752	749	746	744	742	740	739	737	735	733	730	728	725	723	720	718	717	715	714	711	709	707	705	704	703	701	700	699	699	699	699	701	702	705	706	707	708	708	709	711	713	713	713	712	711	710	710	711	712	714	715	714	713	712	711	709	708	705	702	699	695	691	687	684	679	675	671	668	665	662	660	658	655	652	649	647	645	643	641	639	638	640	645	650	654	658	662	666	670	673	675	676	677	677	677	677	678	678	677	676	674	672	670	670	669	667	665	662	661	660	660	660	660	659	658	656	654	652	651	651	652	651	651	649	648	648	648	647	646	644	643	642	641	641	640	641	642	643
347	343	339	338	338	338	338	338	337	336	335	334	332	331	330	330	330	332	333	332	332	333	334	337	338	338	337	335	336	337	338	337	336	336	335	333	330	327	325	322	321	321	321	319	318	318	319	318	318	320	324	326	327	327	325	323	324	325	326	326	325	324	324	323	321	320	318	317	315	313	311	309	307	306	304	302	300	299	300	301	302	303	304	304	305	306	307	307	308	308	309	308	307	306	307	309	311	313	313	313	313	314	317	318	317	316	317	318	322	324	324	324	326	327	329	331	333	334	334	333	334	335	336	338	340	341	342	344	349	352	355	357	359	360	362	364	367	371	373	375	377	380	383	385	387	388	389	389	389	389	388	388	387	387	388	387	386	384	381	379	376	373	370	367	364	361	359	356	354	351	348	345	343	341	339	338	335	332	329	327	326	325	323	322	321	320	319	318	317	316	315	313	312	311	309	308	306	305	303	301	300	298	296	295	293	290	287	286	284	282	280	278	275	273	272	271	272	275	277	279	280	280	280	280	281	283	284	285	285	286	287	287	287	287	286	285	286	287	287	288	287	286	285	286	287	286	285	284	284	283	282	282	280	278	276	274	271	269	266	263	260	257	254	251	248	244	240	237	233	230	227	223	218	215	212	208	203	200	199	201	202	201	199	196	193	190	186	183	179	177	178	179	180	182	184	185	186	188	190	192	192	191	189	188	190	193	198	203	205	205	204	204	205	205	206	207	208	210	211	212	213	214	216	217	218	220	222	224	226	227	228	229	231	233	235	236	238	240	241	242	243	244	246	247	249	251	254	255	257	259	261	264	267	270	271	273	275	278	281	285	288	291	293	296	299	301	304	307	311	314	317	321	324	327	330	334	338	342	346	351	355	359	363	367	370	373	377	381	384	389	394	397	402	406	409	412	416	419	422	427	433	440	445	449	453	456	461	468	472	475	478	481	485	489	492	496	499	503	506	509	511	514	516	518	522	525	529	533	537	541	545	549	552	556	561	565	569	573	576	580	584	587	590	593	597	600	603	607	610	612	615	618	621	624	627	631	634	637	640	643	646	649	653	656	659	662	665	668	671	674	676	679	682	684	687	689	692	695	697	699	701	703	704	705	706	707	709	710	712	713	715	716	717	718	720	721	723	726	728	730	732	732	732	733	734	735	736	736	737	738	739	742	746	749	753	757	760	763	766	769	771	774	777	780	783	787	792	796	798	800	801	801	802	803	805	807	810	813	816	818	820	821	823	825	828	829	829	829	828	825	822	821	821	823	824	826	829	831	834	837	839	841	842	843	843	844	844	844	844	844	844	846	847	849	851	853	855	856	858	859	860	860	860	859	858	858	858	857	857	856	856	855	856	856	857	858	858	858	857	857	856	855	854	853	851	849	848	846	845	844	843	842	842	841	841	841	841	841	842	842	842	842	842	840	839	837	834	832	830	829	827	825	822	820	818	815	813	811	809	807	805	804	802	801	801	800	799	798	797	797	796	795	793	790	788	785	783	781	779	777	776	775	773	772	770	768	766	764	763	761	757	754	751	749	748	746	744	742	740	738	735	732	729	727	724	722	720	718	717	715	712	710	708	706	705	703	702	700	699	698	697	698	699	701	704	706	707	708	709	710	711	711	711	711	709	708	707	707	709	710	712	712	712	711	711	710	709	708	707	704	700	697	693	689	685	681	677	674	671	668	666	664	662	659	656	653	650	647	644	642	640	640	642	647	651	655	659	663	667	672	675	677	679	681	681	681	681	681	681	680	678	677	675	674	673	672	669	667	664	663	663	663	663	663	661	660	658	656	655	654	654	654	654	653	652	651	651	651	650	648	647	646	645	644	643	643	643	645	646
344	342	339	337	337	337	337	337	335	334	333	332	331	331	330	329	328	330	330	330	330	331	333	335	337	337	335	334	335	336	337	336	335	335	334	332	329	328	326	323	320	319	319	319	317	317	316	316	316	319	323	325	325	326	324	322	323	324	325	324	323	322	321	321	321	321	318	316	314	311	308	306	305	303	301	300	299	299	300	301	302	302	303	303	305	305	306	306	307	307	306	304	304	304	305	306	307	308	310	311	312	313	314	315	314	315	318	321	325	328	328	327	327	328	329	330	333	335	335	334	334	334	337	339	341	342	343	347	351	355	356	358	359	360	361	363	366	369	371	374	376	378	381	384	386	387	387	388	388	387	387	386	386	385	386	386	384	382	380	378	375	372	369	366	363	360	358	355	353	351	348	345	343	341	339	338	335	332	329	326	324	322	320	320	320	319	318	317	316	315	314	312	310	310	309	308	306	304	302	301	299	297	296	295	294	290	287	285	283	282	280	277	274	272	271	271	271	273	275	278	279	279	279	279	280	282	284	285	285	285	286	286	287	286	285	285	286	286	287	287	287	286	286	285	286	286	285	284	284	283	282	281	279	277	275	273	271	268	265	262	259	255	252	250	247	243	240	237	233	231	228	224	220	216	213	209	204	200	198	197	197	197	195	194	190	186	184	183	178	175	178	180	181	182	184	185	187	189	191	191	191	189	188	188	190	193	198	202	204	204	203	203	203	204	206	208	209	210	211	212	213	214	215	216	218	220	222	224	225	227	228	229	231	233	235	236	237	239	241	242	243	244	246	248	250	251	254	256	257	259	261	264	266	270	272	273	275	277	280	284	287	290	294	296	298	301	304	308	312	315	319	322	326	329	332	335	339	343	347	352	355	359	363	368	371	374	378	382	385	388	393	397	402	406	409	411	414	418	421	425	432	438	443	448	452	456	460	466	470	474	477	481	484	488	492	495	498	502	505	508	510	513	516	519	522	526	529	534	538	541	545	549	553	557	562	566	570	574	578	581	585	588	592	595	598	602	605	608	611	613	616	619	622	625	628	631	634	637	640	643	646	650	653	657	660	663	666	669	672	675	677	680	683	685	688	691	693	696	699	701	703	705	707	708	709	710	711	713	714	716	718	719	720	721	722	724	726	728	731	733	734	735	736	736	737	738	739	740	740	741	742	744	746	749	753	758	762	765	768	771	774	777	779	782	786	790	795	799	801	803	804	805	805	806	808	810	813	816	820	822	824	826	827	830	831	832	832	832	830	828	825	823	823	824	825	827	830	833	836	838	841	843	844	845	845	846	846	846	846	846	846	847	848	850	852	854	855	857	858	859	860	860	859	859	858	858	857	857	857	856	856	856	856	857	857	858	857	857	856	856	855	854	853	852	850	849	848	846	845	844	843	843	842	841	841	840	840	841	841	841	842	842	841	840	838	837	835	833	831	829	827	825	823	820	818	816	813	811	809	807	805	804	802	801	801	800	799	798	797	796	795	794	792	789	787	784	782	780	778	776	775	774	772	771	769	768	766	764	764	764	761	756	754	752	752	750	747	744	742	740	737	734	731	728	726	724	721	719	717	715	713	710	708	706	705	703	701	700	698	697	696	697	698	699	701	704	705	707	708	709	709	709	709	708	706	705	703	704	706	708	709	710	710	709	708	708	707	707	706	704	700	697	694	690	686	683	679	676	674	672	670	668	665	662	659	656	653	649	645	642	641	641	644	648	653	657	660	664	669	673	677	680	682	684	685	685	685	684	684	683	681	679	678	677	676	674	671	669	667	666	666	667	666	665	663	662	660	659	657	656	656	656	656	655	655	655	655	654	653	651	649	648	647	647	646	646	646	647	649
343	341	339	337	337	337	337	337	335	332	331	331	330	329	329	329	327	327	327	327	328	328	330	333	335	335	335	334	334	336	336	335	334	333	332	330	329	327	326	322	318	317	317	317	317	316	316	315	315	317	321	323	324	323	321	321	322	323	323	322	321	320	319	319	321	322	319	315	312	310	308	305	303	300	298	298	299	300	300	300	300	301	302	302	303	304	305	306	307	307	304	302	302	304	305	306	306	307	308	310	311	312	313	314	315	318	323	324	326	328	328	327	328	328	329	331	333	335	336	336	336	338	340	341	343	344	346	348	352	355	357	358	359	360	361	363	365	367	369	372	374	376	379	382	384	385	386	386	386	386	385	385	383	382	383	383	381	380	378	376	373	370	367	365	362	359	355	353	352	350	348	345	343	341	339	337	334	331	327	324	322	320	318	318	318	318	317	316	315	314	312	310	309	309	308	307	305	303	302	300	299	297	295	295	293	290	286	285	283	281	279	276	274	272	271	270	270	271	273	275	277	277	278	278	279	281	283	285	285	285	284	284	285	285	285	285	286	287	287	286	286	286	285	285	285	285	284	284	283	283	281	279	277	275	274	272	270	267	265	262	258	254	251	249	246	242	239	236	233	230	227	224	221	217	213	210	205	201	198	195	193	192	191	190	187	183	183	182	178	176	178	181	182	182	183	185	187	189	191	191	189	188	187	188	190	193	197	201	203	202	201	200	202	204	206	208	209	210	211	212	212	213	214	216	218	220	222	223	225	226	228	229	230	232	234	235	236	238	239	241	242	244	247	249	250	251	254	256	258	260	262	264	266	270	273	273	274	276	279	283	286	289	292	294	296	300	304	308	312	316	320	323	326	329	333	336	340	344	348	352	356	359	364	368	372	375	379	383	386	388	392	396	401	406	409	410	413	416	419	423	430	437	442	447	452	456	459	464	468	472	477	481	484	487	491	494	497	500	504	506	509	512	515	518	522	526	530	534	539	542	546	550	554	558	563	567	571	575	579	582	586	589	593	596	599	603	606	608	611	614	616	619	622	625	628	631	634	637	641	644	647	650	654	657	660	664	667	670	673	676	679	681	684	687	690	692	695	698	700	702	705	707	709	710	712	713	714	715	717	719	720	722	723	724	725	726	728	731	733	736	737	738	739	740	741	742	743	744	744	745	746	747	749	751	754	758	762	766	770	774	777	780	783	785	788	792	797	801	804	807	808	808	809	809	811	813	816	819	823	826	828	830	832	834	835	835	835	834	833	830	827	825	825	825	826	828	831	833	836	839	841	843	845	845	846	847	847	847	847	847	847	848	849	851	853	855	856	857	858	859	859	859	859	858	858	857	857	856	856	856	856	856	857	857	858	858	857	856	855	855	854	853	852	851	850	848	847	846	845	844	843	843	842	842	841	840	840	840	840	840	840	840	840	839	837	836	834	832	831	829	827	825	823	820	818	816	813	811	809	807	805	803	802	801	800	799	798	797	795	794	794	792	791	788	785	783	781	779	777	776	775	773	772	770	769	768	767	766	765	765	763	759	757	756	755	753	750	746	744	741	738	735	732	730	727	725	722	720	718	715	713	711	708	706	704	703	701	699	697	696	695	695	696	697	699	701	702	703	705	705	705	705	705	704	703	701	700	701	703	705	706	706	706	706	705	705	704	704	703	701	699	697	694	691	688	685	682	680	677	675	673	671	668	665	662	658	655	651	646	643	641	643	647	651	654	658	661	665	670	674	679	682	685	688	689	689	689	688	687	686	684	682	681	679	678	676	673	671	670	669	669	669	668	667	665	664	663	661	660	659	658	658	658	658	658	658	658	657	656	654	652	651	650	650	649	649	649	650	651
343	341	338	336	336	336	337	336	334	332	330	329	328	328	328	328	326	325	325	325	326	327	329	331	333	335	335	334	334	334	334	333	332	331	330	329	328	327	324	320	317	315	315	316	316	316	316	315	315	316	318	321	322	321	320	320	320	320	320	319	318	317	316	316	318	318	316	313	311	309	307	305	302	300	298	298	299	299	298	297	298	300	301	301	301	302	303	305	306	305	302	301	302	303	304	305	306	307	308	310	312	313	315	316	318	322	324	325	327	328	328	328	329	329	330	332	334	336	337	337	338	340	341	343	345	347	348	350	352	354	357	358	358	360	361	363	364	366	368	370	372	375	377	380	382	383	384	384	384	383	383	382	381	381	381	380	379	377	376	374	371	368	366	363	361	356	350	348	349	348	347	345	342	340	338	336	333	329	325	321	320	318	317	316	316	316	315	314	313	312	310	309	308	307	307	306	304	302	301	300	298	296	295	294	292	289	286	285	283	280	278	275	274	273	272	270	269	270	272	274	275	276	277	278	279	280	282	283	284	283	283	283	283	284	285	285	286	287	286	286	285	285	285	284	284	284	284	283	283	282	280	278	276	274	273	271	269	267	265	262	257	252	249	246	243	240	237	235	232	229	226	223	220	216	213	210	206	203	199	195	192	190	189	188	185	183	181	179	175	175	178	180	181	181	183	185	187	189	190	190	188	187	186	188	191	194	197	200	201	200	199	199	201	203	204	207	208	209	211	212	212	213	214	216	218	220	221	222	224	225	227	229	230	232	235	236	237	238	239	241	242	245	247	249	250	251	254	257	258	260	262	264	266	269	272	273	274	276	279	283	285	288	290	292	296	300	304	307	311	315	319	323	326	329	333	337	341	344	348	352	356	359	364	368	372	375	379	383	386	389	392	395	399	404	407	410	412	415	418	422	429	436	441	446	451	455	458	463	467	470	475	479	482	485	489	493	496	499	502	505	509	512	515	517	521	526	531	535	539	543	546	551	555	560	565	568	572	576	580	583	586	589	593	596	600	603	606	608	611	613	616	619	622	625	628	631	634	637	641	644	647	651	654	658	661	664	667	671	674	677	680	683	686	688	691	694	697	699	702	704	707	709	711	713	715	716	717	718	720	722	723	725	726	727	728	729	731	733	736	739	740	742	743	744	745	746	747	748	748	749	750	750	751	753	755	759	763	767	771	775	779	782	785	788	791	795	799	804	807	810	811	812	812	813	814	816	819	823	826	829	832	834	836	838	838	838	838	837	835	833	830	828	827	827	828	829	831	834	836	838	840	842	844	845	846	847	848	848	848	849	849	850	851	852	854	856	857	858	858	858	858	858	858	858	857	857	856	856	856	856	856	856	857	857	858	858	857	856	855	854	853	852	851	850	849	848	847	846	845	844	843	843	842	841	841	840	840	839	839	839	839	838	838	837	835	834	833	831	830	828	826	824	822	820	817	815	813	810	808	806	804	802	801	800	799	798	796	795	794	793	792	791	789	787	784	782	780	779	777	776	774	773	772	771	770	769	768	768	767	766	764	762	761	759	757	754	751	748	745	743	740	737	734	732	729	726	723	721	718	716	713	711	708	706	704	702	700	698	696	695	694	693	694	694	695	697	698	699	700	701	701	700	700	700	699	697	697	697	698	700	702	702	702	702	702	701	700	700	699	698	696	695	693	691	689	686	685	684	682	679	676	674	670	667	663	659	656	651	647	643	642	644	649	653	656	659	663	667	671	675	680	684	687	690	691	692	692	691	690	689	687	685	683	682	680	678	676	674	673	672	671	671	670	669	667	666	665	664	662	661	660	660	660	660	660	660	660	660	659	657	655	654	653	654	653	652	651	652	653
341	339	336	335	335	335	336	335	333	331	330	329	328	327	327	326	325	323	323	324	325	325	327	330	332	333	334	333	333	332	331	331	331	330	329	328	327	325	323	319	316	314	313	313	314	314	314	314	314	315	317	319	320	320	319	319	318	316	315	315	314	314	313	313	313	313	311	310	309	307	306	303	301	299	298	298	298	298	298	297	297	299	300	299	299	300	301	302	302	301	301	302	302	303	303	304	305	306	308	310	313	315	317	318	320	322	324	326	328	328	329	330	330	331	332	334	335	336	338	339	340	341	342	343	346	349	350	351	352	354	356	357	358	359	361	362	363	365	367	369	371	373	376	378	380	382	382	382	382	381	381	381	381	381	380	378	376	375	373	371	369	367	364	362	359	353	348	346	345	345	344	344	342	339	337	334	331	328	323	320	318	317	316	315	315	314	313	312	312	310	309	308	307	306	305	304	303	302	300	298	297	295	293	291	290	288	286	284	281	279	277	275	275	274	272	270	269	269	270	272	273	275	277	278	279	280	281	282	282	282	281	281	282	283	284	285	286	286	286	285	285	285	285	284	284	283	283	282	281	280	278	276	275	273	272	270	268	266	264	261	256	251	248	245	241	238	235	233	230	227	225	221	218	215	213	210	206	203	199	196	192	189	188	187	184	181	177	173	173	175	178	180	180	180	182	185	186	188	189	188	187	186	185	188	192	194	197	199	199	198	198	199	201	202	203	205	206	208	210	212	212	212	214	216	218	219	221	221	223	225	227	229	230	232	235	237	238	239	240	241	242	245	248	249	250	252	254	257	258	260	262	264	266	269	271	272	274	277	279	282	285	287	289	292	296	300	303	307	310	315	319	322	325	329	333	338	341	344	349	353	356	359	364	368	372	374	378	382	386	389	391	394	397	401	404	408	411	413	416	420	427	434	440	445	449	453	457	462	466	469	473	478	481	484	488	491	495	498	502	505	509	512	515	517	521	527	531	535	539	543	547	551	557	562	566	570	573	577	580	583	586	589	593	596	599	603	605	607	609	612	615	618	621	624	627	631	634	637	641	644	648	651	655	658	662	665	668	671	675	678	680	684	687	690	693	696	699	701	704	707	709	711	713	715	717	718	720	721	722	724	726	728	729	730	731	732	734	736	739	742	744	745	746	747	749	750	751	752	752	753	753	754	754	755	757	760	763	767	771	775	779	783	787	790	794	798	802	806	809	812	814	816	816	817	818	820	824	827	830	833	836	838	840	841	842	842	841	840	838	835	833	831	830	829	829	830	831	833	835	837	839	841	843	845	846	847	848	849	850	850	851	851	852	854	855	857	858	858	858	858	858	858	857	857	856	856	855	855	855	855	855	856	857	857	858	857	856	855	854	853	852	851	850	849	848	847	847	846	845	844	843	842	842	841	840	840	839	839	838	838	837	837	836	835	833	832	831	830	828	827	825	823	821	819	816	814	811	809	807	805	803	801	799	798	797	796	795	793	792	791	790	789	788	786	784	782	780	779	777	776	775	774	773	772	771	771	771	770	769	768	767	766	765	763	759	756	752	750	747	744	741	738	736	733	730	727	724	721	719	716	713	711	708	706	704	702	700	697	695	693	693	692	692	692	692	693	693	694	694	695	696	696	696	696	695	694	693	693	693	695	696	695	695	696	696	696	695	695	694	694	693	691	690	689	687	686	685	684	683	682	679	676	672	668	664	660	655	651	647	643	643	646	651	655	659	662	665	668	672	676	680	684	687	690	692	693	694	694	693	691	689	687	685	683	682	680	678	676	675	674	673	672	671	670	669	668	667	666	665	663	662	662	663	663	663	663	663	662	661	659	658	657	656	657	656	655	653	654	654
338	335	334	333	333	334	334	333	330	328	328	327	327	326	325	324	323	322	322	323	323	323	325	328	329	330	331	331	331	329	328	329	329	328	327	326	325	324	323	319	315	313	311	311	311	312	311	311	311	313	315	317	318	317	316	316	315	313	312	312	312	312	311	311	312	311	310	309	307	306	304	302	299	297	297	296	296	296	297	298	298	299	299	299	298	298	299	299	299	299	300	301	302	302	303	303	304	306	308	312	314	316	317	319	320	322	324	327	329	330	331	332	333	334	335	336	336	336	338	339	341	342	343	344	347	349	351	351	353	355	356	357	357	358	359	360	362	363	366	368	370	372	375	376	378	380	380	380	380	379	379	378	379	379	379	377	375	373	371	369	367	365	363	361	357	351	346	344	342	341	341	342	339	336	334	332	329	327	323	321	318	316	315	314	313	312	311	310	310	309	308	307	306	305	304	304	303	301	299	297	295	293	291	289	289	288	286	283	280	278	276	275	275	274	272	269	269	269	269	270	271	273	276	278	279	280	280	281	281	281	280	280	280	281	282	284	285	285	285	285	285	285	284	284	283	283	282	281	280	279	277	275	274	273	272	270	268	266	263	260	255	250	247	244	240	236	233	231	229	226	223	220	217	214	213	210	206	203	200	197	192	189	188	187	183	178	173	171	173	176	179	180	180	181	182	184	186	188	188	187	186	185	185	188	192	194	196	197	197	197	198	199	200	201	202	204	206	208	210	211	212	213	214	215	217	218	219	221	222	224	227	229	230	232	234	235	236	238	240	240	241	244	248	250	251	252	254	256	257	259	262	264	266	269	271	272	274	277	279	282	284	287	289	292	296	300	303	306	310	314	318	322	325	329	333	338	340	344	349	353	355	359	364	368	371	373	377	381	384	386	388	392	396	399	402	407	410	413	415	418	424	432	439	445	447	451	456	462	465	468	472	477	480	484	488	491	495	498	502	505	508	511	514	518	523	528	532	535	539	544	547	552	557	562	566	570	574	577	580	583	586	589	593	595	598	601	604	605	608	610	613	616	620	623	626	630	634	637	641	644	648	652	655	659	662	665	668	671	675	678	681	684	688	691	694	698	700	703	706	709	712	714	716	718	719	721	722	724	725	727	729	731	732	733	734	736	737	739	742	745	747	749	750	751	753	755	756	756	757	757	758	758	757	758	759	762	764	768	771	776	780	784	787	791	795	799	803	807	811	815	818	820	820	821	822	825	828	831	834	836	838	841	843	844	845	845	844	843	840	838	836	834	832	830	830	830	832	833	835	837	839	840	843	844	846	848	849	850	851	852	852	853	854	855	856	858	858	859	859	858	858	857	857	856	856	855	854	854	853	853	854	855	856	857	857	856	855	854	852	851	851	850	849	848	847	847	846	845	844	843	842	841	841	840	840	840	839	839	838	837	836	835	834	833	832	830	829	828	826	825	823	822	820	818	815	813	810	808	806	804	802	800	798	797	795	794	793	792	791	790	789	788	787	785	784	782	781	779	778	777	775	775	774	773	772	773	773	772	772	771	770	769	769	767	763	758	754	751	748	745	743	740	737	734	731	728	725	722	719	716	713	711	708	706	704	702	699	697	695	693	692	691	690	690	689	689	689	689	689	690	692	692	693	692	692	690	689	688	688	689	688	688	688	688	689	690	690	690	690	689	688	687	686	685	684	683	683	682	682	680	679	677	674	670	665	661	656	651	646	644	644	648	653	658	662	665	668	670	673	676	680	683	686	689	691	693	694	694	694	692	690	688	686	684	683	681	679	677	676	675	674	673	673	672	670	670	669	668	666	665	664	665	665	665	666	666	666	665	663	661	660	659	659	659	658	656	655	655	655
334	330	329	329	330	332	332	330	327	326	325	325	325	325	323	322	321	321	321	322	322	322	324	326	327	327	328	328	328	327	326	327	327	327	326	325	324	323	322	319	315	312	311	309	309	309	308	307	307	309	311	313	314	314	313	313	312	312	311	311	311	311	311	310	310	310	308	306	305	304	303	300	297	295	295	295	294	294	295	297	297	297	297	296	296	297	298	299	299	298	298	299	300	301	302	303	306	308	310	313	316	318	319	321	322	323	326	329	331	332	333	334	335	336	337	338	338	337	338	339	341	342	344	345	347	350	351	352	354	355	356	357	358	358	358	359	360	362	364	366	368	371	373	374	375	377	378	378	377	377	377	376	375	376	376	375	373	371	369	367	365	363	361	359	356	351	346	343	341	339	338	337	335	333	331	329	327	325	323	321	319	316	315	313	312	311	310	309	308	308	307	307	305	304	303	302	301	300	299	296	294	292	289	288	288	286	284	282	279	277	276	274	273	273	271	269	268	268	268	269	270	272	275	277	278	278	279	280	280	279	278	278	279	280	281	283	284	284	284	284	284	284	283	283	283	282	280	279	278	277	275	274	273	272	272	270	268	265	263	259	255	250	247	244	239	235	233	230	228	225	222	219	216	214	213	210	206	203	200	197	193	189	187	186	182	175	171	171	172	175	178	180	182	183	183	184	185	187	187	186	185	184	184	187	191	193	195	196	196	197	198	199	200	201	202	204	206	207	209	210	211	212	214	215	216	217	218	220	222	224	225	227	229	231	232	233	234	236	238	240	241	243	246	248	250	252	254	255	257	259	262	264	266	269	271	272	274	277	280	282	284	287	289	293	296	299	302	306	309	313	317	321	325	329	333	337	339	343	348	352	355	358	363	366	369	371	374	378	381	383	385	389	394	397	401	405	409	411	414	416	421	427	436	443	447	450	456	463	465	468	473	478	481	485	488	491	494	498	501	505	507	510	515	519	524	528	532	535	539	544	548	552	556	561	566	570	574	577	580	583	586	589	592	595	597	600	602	604	606	609	612	616	620	623	627	630	634	637	641	644	648	652	655	658	662	665	668	671	673	676	680	685	688	691	695	698	701	705	708	711	715	717	719	720	722	723	725	726	728	730	732	734	735	736	737	738	740	742	745	747	750	752	754	755	757	759	760	760	762	763	764	763	762	761	762	764	766	769	772	776	780	784	788	792	796	800	804	808	812	817	820	823	824	825	826	829	832	835	837	839	841	843	845	847	848	848	847	846	843	841	839	837	834	832	831	831	832	834	835	837	839	841	843	845	847	849	850	851	852	853	854	855	856	857	858	859	859	859	859	858	858	857	856	855	855	854	853	852	852	852	853	854	855	856	855	855	853	852	851	850	849	848	847	847	846	845	844	843	842	841	840	840	840	840	840	840	840	839	838	838	836	835	833	832	830	829	827	826	824	823	821	820	818	816	814	812	809	807	805	803	801	799	797	795	793	792	791	790	790	789	789	788	787	785	784	783	782	780	779	777	776	775	774	774	774	774	775	775	774	774	773	771	770	769	765	760	756	753	750	747	744	741	737	734	731	729	726	723	720	717	714	711	709	706	704	702	699	697	695	693	692	690	689	688	687	686	686	685	685	686	687	688	689	689	688	687	685	684	683	682	682	682	683	683	683	684	684	685	685	684	683	681	681	681	680	680	679	678	678	677	676	675	673	670	666	661	656	651	647	644	645	649	655	660	665	668	671	673	675	678	681	683	686	688	691	693	694	694	694	692	690	688	686	685	683	681	680	678	677	676	675	674	674	673	672	671	671	670	668	667	667	667	668	668	668	668	668	667	665	663	662	662	661	660	659	657	656	656	656
330	326	326	326	328	330	329	328	326	324	323	324	324	324	322	321	320	320	321	320	320	322	323	325	325	324	325	326	326	326	325	326	325	324	324	323	323	322	320	317	314	312	311	309	307	307	307	306	305	305	307	309	309	310	311	311	311	311	311	310	310	312	311	309	309	307	305	303	303	302	301	299	295	293	293	293	293	293	294	295	295	294	293	293	294	296	297	298	298	297	297	298	299	301	303	305	308	311	313	315	319	321	322	323	324	325	327	330	332	333	334	335	336	337	338	339	340	339	339	340	342	343	345	346	349	351	352	353	354	354	355	357	358	357	357	358	359	361	363	364	365	368	369	370	372	373	375	375	375	375	375	374	373	373	372	371	370	369	367	365	363	361	360	358	355	352	348	345	342	339	336	334	332	331	329	328	325	323	321	320	318	316	315	313	311	310	310	309	308	307	307	306	304	302	302	301	300	299	298	296	293	291	289	288	286	284	282	280	278	276	274	272	271	270	268	267	267	267	267	268	269	271	274	275	276	276	276	277	277	277	277	277	278	279	280	281	282	283	283	283	283	282	282	282	282	280	278	276	276	275	273	272	272	272	271	269	267	265	262	259	255	250	246	243	239	236	233	230	227	225	221	217	215	213	212	209	205	202	198	196	193	189	186	184	180	173	170	170	171	174	177	180	183	184	184	184	185	186	186	185	184	183	183	186	190	193	194	195	196	198	198	198	200	201	203	204	205	206	208	209	211	212	214	216	216	217	218	220	222	223	224	226	227	229	231	232	234	236	238	239	240	242	245	247	249	252	254	255	258	260	262	264	266	268	270	273	275	277	280	282	284	287	290	293	296	300	302	305	308	311	315	320	324	328	332	335	338	342	347	350	354	357	360	364	366	368	371	376	379	381	384	389	393	396	399	404	408	410	413	417	421	427	434	442	447	450	456	464	466	469	473	478	481	484	487	490	494	498	501	504	507	511	515	520	524	528	531	535	539	544	548	552	556	561	566	570	573	576	579	583	585	588	591	593	596	599	601	603	606	608	611	616	620	624	627	630	634	637	641	645	648	652	655	658	661	665	667	669	671	674	678	683	687	691	695	699	702	705	709	713	716	719	721	723	725	726	728	729	731	733	735	737	738	739	740	741	743	745	748	750	753	755	757	759	761	763	764	765	766	768	769	768	766	765	765	766	768	770	773	776	780	784	788	792	796	800	804	808	813	818	822	825	827	828	830	833	835	838	841	843	844	846	848	850	851	851	850	848	846	844	841	839	836	833	832	833	833	834	836	838	840	842	844	846	848	849	851	852	853	855	856	857	858	859	859	860	860	860	859	858	858	857	856	855	854	853	851	850	850	850	851	852	853	854	853	852	851	850	849	847	846	846	845	845	844	843	842	841	840	839	839	839	839	839	840	840	841	840	839	838	837	835	833	831	829	827	826	824	823	821	819	818	817	815	813	811	808	806	804	802	800	798	796	794	792	791	790	789	788	788	788	787	787	786	784	783	782	781	780	778	777	776	775	774	775	775	775	776	775	775	774	771	769	767	764	761	757	754	750	747	744	741	738	735	732	729	726	724	721	718	715	712	710	707	705	702	700	698	696	694	692	690	688	687	686	684	684	683	682	682	683	684	685	685	685	683	682	680	679	678	678	678	679	679	679	678	678	679	679	678	678	676	676	675	675	675	673	672	673	673	673	672	671	669	666	661	656	651	647	645	647	652	657	662	668	672	674	676	678	680	681	683	685	687	690	692	693	693	693	692	690	688	687	685	684	682	680	679	678	677	676	675	675	674	673	672	672	671	670	669	669	670	671	671	671	671	670	669	667	665	664	664	663	662	660	658	657	657	657
329	326	326	326	326	328	328	327	325	324	322	322	322	323	323	322	320	320	319	318	319	321	322	323	322	322	323	323	324	325	326	325	324	323	322	322	322	321	318	316	314	312	310	307	306	306	306	305	304	303	304	306	307	307	308	309	309	308	308	308	309	311	310	308	306	304	302	302	301	300	300	299	294	291	291	292	292	292	292	292	292	291	290	290	292	295	296	296	296	296	297	298	300	302	305	307	311	316	318	319	321	323	324	325	326	327	329	331	332	334	336	337	338	339	340	340	341	341	341	342	344	345	347	348	350	352	352	352	353	354	355	356	357	357	358	358	358	360	362	363	364	365	366	367	369	371	373	374	374	374	373	372	370	370	369	368	367	367	366	363	361	359	358	356	354	352	349	346	343	340	337	334	332	330	329	327	325	322	320	318	317	316	314	312	310	309	309	309	308	307	306	305	303	302	301	300	299	298	297	295	292	290	288	287	285	282	280	279	276	273	272	270	268	267	266	265	266	266	267	268	269	271	273	274	273	273	274	274	274	274	275	276	277	278	279	280	281	282	282	282	282	281	281	281	279	277	275	273	273	272	272	271	270	270	268	267	265	264	261	258	255	251	246	243	240	236	234	231	227	224	220	216	213	211	210	207	203	200	197	195	192	187	184	181	177	172	169	169	170	174	177	179	181	182	182	184	185	186	185	184	183	182	182	184	189	192	194	195	197	198	197	198	200	202	204	205	205	206	207	209	211	213	214	215	216	217	219	221	223	223	224	225	227	228	230	232	234	235	237	238	240	242	244	246	249	252	254	255	258	260	262	264	266	268	270	272	275	278	281	283	285	287	290	293	296	300	302	305	307	311	315	319	323	326	331	335	338	341	345	348	351	354	357	361	364	366	369	375	379	382	384	388	393	397	399	403	408	411	414	418	422	427	435	442	447	450	455	462	465	469	473	477	480	483	486	490	494	499	501	504	508	511	515	519	523	527	530	534	539	544	548	552	556	561	565	569	572	575	578	582	585	587	589	591	594	597	600	603	605	607	611	616	621	624	627	630	634	637	641	644	648	651	654	656	659	662	665	666	668	671	675	679	684	690	696	699	702	705	709	713	717	720	723	725	727	729	731	732	734	736	738	740	741	742	743	745	746	748	750	753	755	758	761	763	765	767	768	769	770	771	772	771	770	768	769	769	771	773	775	777	780	784	788	791	795	800	803	807	812	818	822	826	829	831	834	836	838	841	844	846	847	849	851	852	853	853	852	850	848	846	843	840	837	835	834	834	834	835	837	839	841	844	846	847	849	850	852	853	855	856	858	859	860	861	861	861	861	860	859	858	858	857	856	855	853	852	850	849	848	848	848	849	850	851	851	850	849	847	846	845	844	843	843	843	842	842	841	839	838	838	838	838	838	839	840	841	842	842	841	840	838	836	834	832	829	827	825	823	821	819	818	816	815	813	812	809	807	805	803	801	799	797	795	793	791	790	788	788	787	787	787	787	786	785	784	783	782	781	780	779	777	776	775	774	774	774	774	774	774	773	772	770	767	765	763	760	757	754	751	748	745	742	738	735	732	730	727	724	722	719	716	713	710	708	706	704	701	698	696	694	692	690	688	687	685	684	684	683	681	680	680	680	681	682	681	680	679	679	678	677	676	676	676	676	675	674	674	674	674	674	673	672	671	670	669	668	667	666	666	667	669	669	668	666	664	661	656	650	647	646	650	654	659	664	669	674	676	678	679	680	682	683	685	686	688	690	691	692	692	691	690	688	687	686	684	683	682	680	679	678	677	676	675	675	674	674	673	672	672	671	671	672	673	673	674	673	672	670	668	667	667	666	665	663	661	659	659	659	658
328	326	326	326	325	326	326	326	325	324	321	320	320	321	322	322	320	319	317	317	318	319	320	319	319	319	320	321	322	324	325	324	322	321	321	321	321	320	318	316	314	312	309	306	305	305	304	303	302	302	302	304	306	306	306	306	306	306	305	305	306	307	307	305	303	302	301	300	299	298	298	297	293	291	290	291	291	291	291	291	290	290	289	289	291	293	294	294	294	296	297	300	302	304	306	309	313	318	320	321	322	324	326	328	329	330	331	332	333	335	336	338	339	340	341	342	342	342	342	344	346	347	349	350	352	352	352	352	353	354	354	354	355	355	357	358	358	359	360	361	362	363	364	365	367	369	370	372	372	372	371	369	368	368	367	366	365	364	363	361	359	358	356	355	353	350	348	345	343	340	338	335	332	330	328	326	323	321	319	318	317	315	313	311	309	308	307	307	306	305	305	304	302	301	300	299	298	297	296	294	292	290	288	286	283	281	279	278	276	272	270	269	266	265	264	265	266	267	267	268	268	270	271	272	272	272	272	272	273	273	274	275	276	277	279	280	281	281	281	282	281	281	280	279	277	274	272	271	270	270	269	268	268	268	266	265	264	262	260	257	255	251	247	244	241	237	235	232	227	223	220	216	212	209	207	205	201	198	195	193	189	185	182	180	176	172	169	168	170	174	177	178	179	180	182	184	185	185	184	183	182	181	182	183	187	190	192	194	196	197	196	197	199	201	203	204	205	206	208	209	211	213	214	215	215	217	219	222	223	224	225	226	227	228	230	232	233	235	236	238	240	242	245	247	249	252	254	256	258	260	262	264	267	269	270	272	275	278	281	284	286	288	290	293	296	300	302	304	307	311	315	319	322	325	329	333	336	339	342	345	348	351	354	358	361	364	367	374	380	383	385	389	394	398	401	405	410	413	415	418	422	428	434	441	446	448	452	458	463	468	472	475	479	483	486	490	494	499	502	504	508	512	516	520	523	526	530	534	539	544	549	553	557	561	565	568	571	574	577	581	584	587	588	589	592	595	599	602	604	607	611	615	620	624	626	630	633	637	640	643	647	650	652	653	655	659	662	663	666	669	673	677	682	688	694	697	700	704	708	712	716	720	724	726	729	731	733	735	737	739	741	743	744	746	747	748	750	751	753	755	758	761	764	767	769	771	772	773	774	774	775	774	773	772	773	773	774	775	777	778	781	784	788	792	795	799	803	807	812	818	823	827	830	834	836	839	841	844	846	848	850	851	853	854	855	855	854	852	850	847	844	841	839	837	836	835	836	837	838	840	842	844	846	848	850	851	853	854	856	857	859	861	861	862	862	861	861	861	860	859	858	857	856	855	853	852	850	848	847	846	846	847	848	849	849	848	846	845	844	843	842	841	841	841	841	840	839	838	837	837	837	837	838	840	841	842	843	843	843	841	839	838	835	832	830	827	825	822	820	818	816	815	813	812	810	808	805	803	801	799	797	795	794	792	791	789	788	786	786	786	786	786	786	785	783	782	781	780	779	778	777	776	775	773	773	772	772	772	771	771	769	767	766	764	761	759	756	753	750	747	744	742	739	735	732	730	727	725	722	719	716	713	711	708	706	704	702	699	696	694	692	690	688	687	686	685	684	683	681	680	679	678	678	678	678	678	678	679	678	677	675	675	675	674	673	672	671	671	671	670	670	669	667	666	665	663	662	661	660	661	663	663	663	662	660	658	653	649	647	648	652	656	660	664	670	674	676	678	679	680	681	683	684	686	687	688	689	690	690	690	689	689	688	686	685	684	683	682	680	679	678	677	676	676	675	675	674	674	674	674	674	674	675	675	675	674	673	671	669	669	669	668	667	665	663	662	661	661	659
329	326	326	325	325	325	325	324	324	322	320	318	317	318	320	320	319	318	317	317	318	318	318	317	317	318	319	320	321	322	323	322	321	320	320	320	320	319	317	316	314	312	309	306	304	303	302	300	300	300	300	302	305	306	306	305	304	303	303	303	303	304	303	302	302	302	300	299	297	296	296	295	292	289	289	289	289	290	290	290	290	289	289	288	289	290	292	295	296	297	298	301	304	306	308	310	314	317	320	321	323	324	327	329	331	332	333	333	334	336	337	339	341	342	343	343	343	343	344	346	347	348	350	351	352	352	352	353	354	354	352	352	352	352	354	356	357	358	359	360	360	361	363	364	366	368	369	370	371	370	369	367	367	366	365	363	362	361	361	360	358	355	354	353	351	348	346	344	342	340	338	335	333	330	327	324	321	319	318	317	316	314	312	310	309	307	306	306	305	303	302	301	300	300	300	299	298	296	295	294	292	290	289	287	283	280	279	278	276	273	271	268	265	263	264	265	266	266	267	267	267	269	270	271	270	270	271	272	272	272	272	273	275	277	279	280	280	281	281	281	281	280	278	276	274	271	269	268	267	267	266	265	265	264	263	262	262	260	258	256	253	250	247	245	241	238	235	232	228	223	220	217	212	208	206	204	201	197	193	190	187	184	182	180	177	172	168	167	169	174	177	178	178	180	182	183	184	184	183	182	181	181	181	183	185	189	191	193	194	195	195	197	198	200	201	203	205	206	208	210	212	213	214	215	216	218	221	223	224	225	226	227	228	229	230	232	233	235	236	238	240	243	245	247	249	251	254	256	259	261	262	265	267	269	271	273	275	277	281	283	286	288	290	293	296	300	302	305	308	311	315	317	320	323	326	330	334	337	340	343	346	349	352	356	359	364	369	375	380	384	387	391	396	400	403	408	412	414	416	419	423	428	435	440	444	447	450	456	462	467	471	474	478	482	486	490	494	498	501	505	509	512	516	520	524	527	532	536	540	545	549	553	557	561	564	567	570	573	577	579	583	585	587	588	591	594	598	601	603	606	610	614	619	622	625	629	632	635	638	641	644	646	648	650	653	657	660	662	665	669	673	677	681	686	691	694	698	702	706	710	715	720	724	727	730	733	735	738	740	742	744	746	748	749	751	753	754	755	756	758	761	763	767	770	773	775	776	777	778	778	778	777	777	776	776	777	777	778	779	780	783	785	789	792	796	800	804	808	813	819	823	827	831	835	838	841	843	846	849	851	852	854	855	856	856	856	855	853	851	848	845	842	840	838	837	837	837	838	840	841	843	845	847	849	851	852	854	855	856	858	860	862	862	862	862	862	861	861	860	859	858	857	856	855	854	852	850	848	846	845	845	845	846	846	846	845	844	843	841	840	839	839	839	839	839	839	838	836	835	835	836	837	838	840	841	842	843	844	844	843	841	839	836	833	830	827	825	822	819	817	815	813	812	810	809	807	804	801	799	798	796	795	793	791	790	788	787	785	784	784	785	785	785	784	782	781	779	778	778	777	776	775	774	772	771	770	769	769	769	768	767	765	764	762	760	757	755	752	749	747	744	741	738	735	732	729	727	724	721	719	716	713	711	708	706	704	701	698	696	694	692	691	689	688	687	686	685	684	682	681	680	679	678	677	677	677	678	679	678	677	676	675	674	673	672	670	669	669	668	667	667	666	664	663	662	661	660	658	657	657	656	657	657	656	655	653	650	648	648	652	656	659	662	665	670	674	676	677	678	679	680	681	683	684	685	686	687	687	688	689	689	689	688	688	687	685	684	683	682	681	680	679	678	677	677	676	676	676	676	676	676	677	677	677	677	675	674	672	670	670	669	668	667	667	666	665	664	662	660
328	326	326	325	325	325	324	323	321	320	319	317	315	315	316	317	317	316	316	316	317	317	317	317	317	318	318	319	320	320	321	320	320	319	319	319	319	319	317	315	313	311	309	306	302	300	300	299	298	298	297	299	303	305	306	306	305	302	301	301	302	301	301	301	303	302	300	297	295	294	295	294	291	288	287	287	288	288	288	288	289	289	287	287	287	288	291	295	298	298	299	301	304	306	308	311	314	317	319	321	323	325	327	330	331	332	333	335	336	337	339	341	342	343	344	344	344	345	346	347	348	349	350	351	352	352	352	352	353	352	351	350	350	350	352	354	356	357	358	360	360	361	362	364	366	367	368	369	370	369	368	367	366	364	363	361	359	358	358	357	355	353	352	351	349	347	345	343	341	339	337	336	334	331	328	324	321	319	317	316	315	313	311	308	307	306	305	305	304	301	300	299	298	299	300	298	297	296	295	293	292	291	289	287	283	280	278	278	277	274	271	268	264	263	263	264	265	266	267	267	267	268	269	269	269	269	270	271	270	270	271	272	275	277	279	280	280	281	281	281	279	277	274	272	270	268	268	266	264	264	263	262	262	261	260	259	258	257	255	252	251	248	246	244	241	238	235	232	228	224	221	217	212	208	206	204	200	195	191	188	186	184	182	180	177	172	167	166	168	173	176	177	178	180	181	182	183	183	182	181	180	180	180	182	185	188	191	192	192	193	195	196	198	199	200	202	204	207	209	211	212	213	214	216	218	220	221	223	224	225	226	227	228	229	231	233	234	235	237	239	242	243	246	247	248	251	254	256	259	261	263	265	267	269	271	273	274	276	280	282	285	288	291	293	295	299	302	305	308	311	314	316	319	322	324	327	331	335	339	343	346	348	352	355	359	364	370	376	380	385	389	393	398	401	404	409	413	415	418	421	425	430	437	441	444	447	450	455	460	466	470	474	477	482	486	490	494	497	501	505	509	513	517	521	524	528	533	537	541	545	550	554	557	560	564	567	570	573	575	577	580	582	584	586	589	593	597	600	602	605	609	613	617	620	624	628	630	633	635	639	642	643	645	649	653	656	660	662	665	670	674	677	681	685	689	692	696	700	704	710	716	720	725	728	731	734	737	740	743	745	747	749	751	753	754	756	758	758	760	762	764	766	769	772	775	778	780	781	781	781	781	781	781	780	780	781	781	782	783	784	785	787	790	793	797	800	804	808	813	819	824	828	832	835	839	842	845	848	850	852	854	856	857	858	858	857	856	854	852	849	846	843	841	839	838	838	839	840	841	843	844	845	847	849	851	853	854	856	857	859	861	862	862	862	862	861	861	860	860	858	857	856	856	855	853	852	850	847	845	843	843	843	843	843	843	843	842	841	839	838	837	837	837	837	838	837	836	835	834	834	835	836	838	840	841	842	843	844	844	844	842	840	837	834	831	828	825	822	819	816	814	812	810	809	808	806	803	800	798	797	795	794	792	790	789	788	786	784	783	783	783	783	783	783	781	779	778	776	776	775	774	774	773	771	770	768	767	766	766	765	764	763	762	760	758	756	753	751	748	745	743	740	737	734	732	729	726	723	721	718	716	713	711	708	706	703	701	698	696	694	693	692	690	689	687	686	685	684	683	682	681	680	679	678	678	678	678	679	679	678	677	676	675	674	672	671	669	668	667	666	665	664	663	662	661	660	659	658	657	656	654	654	654	652	652	651	649	648	651	655	659	662	664	666	669	673	674	674	675	676	678	679	681	682	683	684	685	686	687	688	688	689	689	689	688	686	685	684	683	682	681	680	679	678	678	677	677	677	678	678	679	679	680	679	678	676	674	672	671	670	669	669	668	668	668	667	666	664	662
329	327	327	326	325	325	323	321	319	318	318	316	314	313	313	314	314	314	314	314	315	316	316	317	318	318	318	318	319	319	319	319	319	318	318	318	318	318	317	315	314	311	308	305	301	299	298	297	297	296	296	297	299	300	302	303	303	301	300	300	300	300	299	299	301	301	298	294	292	293	294	293	290	288	286	287	287	286	286	286	287	287	286	286	287	288	290	294	297	298	299	301	303	305	308	311	314	316	318	320	323	325	328	330	332	333	334	336	338	339	340	342	343	344	344	345	345	346	347	348	349	350	350	350	351	352	352	352	351	350	349	349	349	349	351	353	354	355	356	358	359	360	361	363	366	367	368	368	369	368	367	366	364	363	361	359	357	356	355	355	353	352	350	349	347	345	344	342	340	339	337	335	334	332	328	324	322	320	318	316	314	313	310	308	305	304	304	304	303	301	299	298	297	298	298	296	295	294	294	293	292	291	288	286	282	279	277	275	273	271	268	266	265	263	263	263	264	266	266	266	266	267	267	267	268	269	269	269	269	269	270	272	275	277	279	280	280	281	280	279	278	275	272	270	268	267	267	265	262	261	261	260	259	258	256	255	255	253	251	249	248	246	244	242	240	238	235	231	228	225	221	218	213	208	206	204	200	195	190	187	186	184	181	179	177	172	168	165	167	172	175	176	177	179	180	181	181	182	181	180	180	179	179	182	185	188	190	192	192	193	194	196	197	199	200	202	205	207	209	211	212	213	215	217	218	220	221	223	223	224	225	226	228	230	232	234	235	236	238	240	242	244	246	248	250	252	255	257	259	261	263	265	267	270	271	272	273	276	280	283	285	289	292	294	295	297	301	305	307	309	312	315	318	321	324	327	331	334	339	343	347	350	353	355	359	364	371	376	380	385	390	394	398	401	404	409	413	416	419	424	429	434	440	443	445	448	451	455	459	465	471	474	477	481	486	490	494	498	501	505	509	513	517	521	525	529	534	538	541	546	550	554	557	560	564	566	569	571	573	574	576	578	581	584	588	591	595	598	601	604	608	612	615	619	623	626	629	632	634	638	641	644	646	650	654	658	661	663	667	671	675	678	682	685	689	692	697	700	704	711	717	721	725	728	732	735	738	741	745	747	750	752	754	756	758	760	761	763	764	765	767	769	771	775	778	780	783	784	784	785	785	785	785	785	785	785	785	786	787	787	788	790	792	795	798	801	805	808	813	819	824	828	832	835	839	842	845	848	851	853	855	857	859	859	859	858	857	855	852	850	847	844	842	841	840	840	840	842	843	844	845	846	847	849	851	853	855	856	857	859	861	862	862	862	862	861	860	860	859	858	857	856	855	854	853	851	849	847	844	842	841	841	841	841	841	840	840	838	837	836	835	835	834	835	835	835	835	834	833	833	834	836	838	840	841	842	843	844	844	844	842	840	838	835	832	829	825	822	819	816	813	811	809	807	806	805	802	799	797	796	795	793	790	788	787	786	784	782	781	781	782	782	782	781	780	778	776	775	773	773	773	772	772	770	769	767	765	764	763	762	762	761	759	758	756	754	751	749	746	744	741	739	736	734	731	728	725	723	720	718	716	713	710	708	705	703	701	699	697	695	694	693	691	689	688	687	686	685	684	683	682	682	681	680	680	679	680	680	679	679	678	677	676	675	674	672	671	670	668	667	666	665	664	663	662	661	660	659	658	656	655	653	652	651	651	650	649	650	653	656	659	663	665	667	669	670	671	671	672	673	675	677	678	680	681	682	683	684	685	686	687	688	688	689	688	687	686	685	684	683	682	681	680	680	679	678	678	678	679	680	681	682	682	681	679	677	675	672	670	670	669	669	669	670	669	669	667	665	663
330	329	329	327	325	324	322	319	318	317	316	315	313	312	312	312	313	313	313	313	313	314	315	316	317	317	317	316	317	318	318	318	318	317	317	317	317	317	315	315	315	311	306	304	301	298	295	295	295	295	294	294	294	293	295	298	299	299	298	299	299	299	298	298	298	298	297	293	291	293	292	291	289	286	285	286	286	285	284	285	286	286	285	286	287	287	289	291	293	295	298	300	302	305	308	311	314	316	318	320	323	325	328	330	332	333	336	338	339	340	341	342	343	344	345	345	346	347	348	349	350	350	350	351	352	353	352	351	349	349	348	348	348	348	350	351	353	353	354	355	356	358	359	362	365	367	367	367	368	367	367	365	363	362	360	359	356	355	354	354	352	351	350	348	346	344	343	341	339	338	336	335	333	331	328	325	323	321	319	317	315	313	311	308	305	303	302	303	303	301	299	298	296	296	297	295	293	292	292	292	291	289	286	283	280	277	274	271	269	267	266	264	264	262	261	262	264	265	265	264	264	265	265	266	268	269	268	267	266	267	269	271	274	277	278	279	280	280	279	279	277	274	272	270	267	266	265	263	261	259	259	258	256	255	253	252	251	250	248	246	246	244	242	240	238	236	233	230	227	224	221	217	212	208	205	203	200	195	190	187	185	183	180	178	176	172	168	165	167	171	173	174	175	178	179	180	180	181	180	180	179	178	179	182	186	188	190	191	192	193	194	195	197	198	200	202	205	207	208	210	211	213	215	217	218	220	221	222	222	223	224	226	228	230	232	233	235	237	239	240	242	244	246	249	251	253	256	258	259	261	263	265	267	270	271	272	274	277	281	283	286	289	293	294	295	297	301	304	307	309	312	315	319	322	325	329	333	336	340	344	348	351	353	356	361	366	371	376	380	385	390	394	398	401	404	409	414	417	421	427	432	438	442	444	447	449	452	455	459	465	472	475	478	482	486	490	494	498	501	505	509	513	517	521	525	530	534	537	541	546	550	553	557	560	564	566	567	569	570	571	573	575	578	581	586	589	593	597	601	604	607	611	614	617	622	626	628	632	635	638	642	645	649	653	657	660	663	665	669	673	676	679	683	686	689	693	697	702	707	713	718	722	725	729	732	736	740	743	746	750	752	755	757	759	761	763	765	767	768	769	770	772	774	777	780	783	785	787	787	788	788	789	789	789	789	789	789	789	790	790	791	792	794	796	799	802	805	809	813	819	824	828	832	835	838	842	845	848	851	854	856	858	860	860	860	859	857	855	853	850	848	846	844	842	841	841	842	843	845	846	847	848	849	850	851	853	855	856	857	858	860	861	862	861	861	860	859	859	858	857	856	855	854	852	851	850	848	847	844	842	840	839	839	838	838	837	837	836	835	834	833	833	832	833	833	833	833	832	832	833	834	836	837	839	841	841	842	843	843	843	842	840	838	836	833	829	826	822	819	816	813	810	808	806	804	802	800	798	797	795	794	791	788	786	785	784	782	781	780	780	780	780	780	780	779	777	775	773	772	771	770	770	770	769	767	765	763	762	761	760	759	758	757	756	754	752	750	747	745	742	740	737	735	732	730	727	725	722	720	717	715	713	710	708	705	703	701	699	697	696	695	694	692	690	689	689	688	687	686	685	684	683	683	682	682	681	681	681	681	681	680	679	678	677	675	674	673	671	670	669	668	667	666	665	664	664	663	661	660	658	655	653	652	651	651	650	650	651	653	655	658	662	664	666	668	668	668	668	669	670	672	674	675	677	678	679	680	681	683	684	685	686	687	688	688	688	687	686	685	684	683	683	682	681	680	679	678	679	680	681	683	684	683	682	680	678	675	672	671	670	670	671	671	671	671	670	668	667	665
330	330	330	328	324	323	321	318	317	317	316	314	312	312	313	313	313	313	313	313	312	312	313	314	315	316	316	315	315	316	317	317	316	316	315	315	315	314	313	313	314	309	305	302	299	295	292	292	293	293	293	293	292	291	291	292	294	296	297	298	299	299	298	298	297	296	296	293	293	293	291	290	287	285	284	284	284	283	283	285	285	285	285	285	286	287	288	289	291	293	297	300	302	306	310	312	314	316	318	321	323	326	328	330	332	334	336	338	340	341	342	343	344	345	346	346	346	347	348	349	350	350	351	351	352	352	351	350	349	348	347	346	346	347	349	350	351	351	352	352	354	356	359	362	365	366	366	367	367	367	366	365	363	361	360	358	356	355	354	353	352	351	349	347	344	343	341	340	339	337	336	334	333	331	328	326	324	322	320	318	315	313	311	309	306	303	303	303	303	301	299	298	296	295	295	293	291	291	291	290	289	287	283	280	277	275	272	269	266	264	263	262	261	259	259	261	263	264	264	263	263	263	263	264	267	268	267	265	264	266	268	270	273	276	277	278	279	279	278	277	276	274	273	270	268	265	263	259	257	256	256	255	254	252	250	249	249	248	246	244	243	241	239	237	235	233	231	228	225	223	219	215	211	207	205	203	199	194	189	186	185	182	179	177	175	172	168	163	166	170	172	173	175	177	179	179	180	181	180	179	178	178	178	182	186	188	190	191	192	193	194	195	196	198	200	202	204	206	208	209	211	212	215	217	218	219	220	220	220	221	222	224	227	230	232	233	235	237	239	241	243	244	247	250	252	254	256	258	260	262	263	264	266	269	271	272	275	278	281	283	286	289	292	294	296	298	301	304	307	310	313	317	321	324	327	331	334	338	342	345	349	352	355	359	363	367	372	376	380	385	389	392	397	401	404	409	414	418	422	428	433	439	443	446	449	451	454	457	460	465	472	476	479	483	487	490	494	498	501	506	510	514	517	520	525	529	533	536	540	546	550	553	556	559	563	564	565	566	568	569	570	573	576	580	584	588	592	596	600	604	608	611	614	617	622	626	629	632	636	640	643	647	651	655	659	662	665	667	671	675	678	681	685	688	690	694	699	705	710	715	719	723	726	730	733	737	741	745	748	751	754	757	759	761	764	766	768	770	771	773	774	775	777	780	783	785	787	789	790	791	791	792	792	793	793	793	793	793	794	794	794	795	796	798	800	803	806	809	813	818	823	827	830	833	836	840	844	847	850	853	856	858	860	861	860	860	858	856	854	851	849	847	845	844	843	843	844	845	847	848	849	850	851	852	852	854	855	856	857	858	859	860	861	860	860	859	858	858	858	857	856	854	853	851	850	849	848	846	844	842	839	838	837	836	835	834	834	834	833	832	831	831	830	831	831	831	831	831	831	832	834	835	837	839	840	841	841	842	843	842	841	839	837	835	833	830	826	822	819	816	813	810	807	804	802	800	799	797	796	795	792	790	787	785	783	781	780	779	778	778	778	778	778	778	777	775	773	771	770	769	768	768	767	767	765	763	761	760	759	758	757	756	755	754	752	750	748	745	743	741	738	736	734	731	729	726	724	722	719	717	715	712	710	707	705	703	701	699	698	697	696	695	693	692	692	691	690	689	688	687	686	685	684	684	684	683	683	683	683	683	682	681	680	679	677	676	675	673	672	671	670	669	668	667	667	666	665	664	662	660	657	655	653	652	652	652	651	652	653	654	655	659	661	664	665	665	664	665	666	667	668	670	672	674	675	676	677	678	679	681	683	684	685	686	687	687	687	686	686	685	685	684	683	682	681	680	679	679	680	682	684	685	684	683	681	678	675	672	671	671	672	672	672	672	672	671	670	669	668
330	329	329	328	324	322	320	317	316	316	316	314	312	312	312	313	313	313	313	312	311	310	311	312	313	314	314	314	313	314	315	316	315	314	313	313	313	312	311	311	310	307	304	301	296	292	291	291	292	293	293	292	291	291	291	291	292	295	297	299	299	299	298	298	297	296	295	295	294	293	290	288	286	284	283	283	283	283	282	284	285	285	284	285	286	287	288	289	290	292	297	301	303	307	311	312	313	315	318	321	324	327	329	331	333	334	336	338	340	341	343	344	345	346	347	347	347	348	349	350	350	350	351	351	351	351	350	350	349	348	346	345	345	346	347	348	349	349	350	351	353	355	358	362	365	365	366	366	366	366	365	364	363	361	359	357	356	355	354	352	351	349	347	345	343	341	340	339	338	336	335	334	332	331	329	326	325	322	320	318	316	314	311	309	307	305	304	303	302	300	299	298	295	294	293	292	290	289	289	289	287	284	280	277	275	273	271	268	264	263	262	261	259	258	258	260	262	262	263	263	262	262	262	263	265	266	263	262	263	265	268	270	273	275	276	277	278	278	277	276	274	273	271	270	268	264	259	254	253	252	253	253	251	250	248	247	246	246	243	241	240	239	236	234	232	230	228	225	223	220	217	213	210	207	205	202	197	193	189	186	184	181	178	176	174	171	166	162	165	169	171	173	174	176	177	179	180	180	179	178	177	177	177	181	185	188	189	191	192	192	193	195	196	198	200	202	204	206	207	209	210	212	214	216	218	218	218	218	219	220	221	223	226	228	230	232	234	236	238	240	242	245	247	250	251	253	256	257	259	261	262	264	265	267	270	272	275	278	281	283	286	288	291	294	296	299	302	305	308	311	315	319	322	326	329	332	336	340	344	347	351	354	357	361	365	369	373	377	382	386	389	393	397	402	405	409	414	419	424	429	434	439	444	447	450	453	456	459	463	467	472	476	479	483	487	491	494	498	501	506	510	513	516	519	523	528	531	534	538	544	547	550	553	556	559	560	561	562	564	565	566	570	575	578	583	588	591	595	600	604	608	612	614	618	622	626	629	633	636	640	644	648	652	656	660	663	666	669	672	676	680	683	687	690	693	696	702	707	712	716	720	723	727	730	734	738	742	746	750	753	756	759	762	764	766	769	771	773	774	776	777	779	780	783	785	787	789	791	792	793	794	795	796	797	797	797	797	797	798	798	798	798	799	800	802	804	807	810	814	818	822	826	829	832	835	839	842	846	849	853	855	858	860	860	860	859	858	856	854	852	849	848	846	845	845	845	846	847	849	850	852	853	853	854	854	855	856	856	857	858	858	859	859	859	858	857	857	856	856	856	855	853	852	850	848	847	846	845	843	841	839	837	835	834	833	832	831	831	831	830	830	829	829	829	829	829	829	829	830	831	833	835	837	838	839	840	840	841	841	841	840	838	836	834	832	830	826	823	819	816	812	809	807	804	801	799	798	796	795	793	791	789	786	783	781	779	778	777	776	776	776	776	776	775	774	772	771	769	768	766	766	765	765	764	763	761	759	758	757	756	755	753	752	751	750	748	746	744	742	739	737	735	732	730	728	725	723	721	719	717	714	712	710	708	705	703	702	700	698	698	698	697	695	694	694	693	692	691	690	689	688	687	687	686	686	685	685	685	685	685	684	683	682	681	680	678	677	675	674	673	672	671	671	670	669	669	669	667	665	662	660	658	656	654	654	654	654	653	653	654	654	656	657	659	660	661	661	662	663	663	664	666	668	670	673	674	675	675	676	678	680	681	682	683	684	686	686	687	687	686	686	685	684	683	682	680	680	680	681	682	684	685	685	684	682	679	675	673	672	673	673	674	674	674	674	673	672	671	670
329	329	329	327	324	322	319	316	315	315	315	314	312	310	310	310	312	313	312	311	309	309	309	310	310	310	310	308	308	309	312	314	314	313	311	311	311	311	311	310	308	307	304	299	294	291	291	291	291	293	293	292	291	291	291	291	292	293	295	297	298	298	298	298	296	295	294	294	293	291	289	287	284	283	282	283	283	282	282	282	283	284	284	286	287	288	289	289	289	292	297	301	303	306	310	311	313	315	318	321	325	328	330	331	333	334	336	338	340	342	344	345	346	347	348	348	348	349	350	351	350	350	350	350	350	349	349	349	348	346	344	343	344	345	346	347	347	348	348	350	353	355	358	361	364	365	365	365	365	365	364	363	362	360	359	357	355	354	352	351	349	347	344	342	341	340	339	338	337	335	333	332	332	331	329	327	324	322	320	318	316	314	311	309	307	305	303	302	302	300	299	298	295	293	293	291	289	288	288	287	285	282	279	276	274	273	271	269	265	263	262	261	259	258	260	261	261	261	262	262	261	261	261	262	263	262	261	261	263	265	267	270	272	274	275	276	277	277	276	274	272	271	270	268	266	262	257	253	251	250	250	249	248	247	245	244	244	243	241	239	238	236	233	230	228	227	225	222	219	217	214	211	209	206	204	200	196	192	188	185	183	180	177	175	173	169	164	161	164	168	170	172	173	175	176	178	179	179	178	177	177	176	177	180	184	187	188	189	191	192	193	195	197	199	201	203	204	205	206	207	209	210	212	214	216	216	216	217	218	220	221	223	225	227	229	231	233	235	237	239	241	244	246	248	250	252	255	257	258	259	261	263	264	267	269	271	274	277	280	283	285	288	291	294	296	299	302	305	308	312	315	319	322	326	330	333	336	340	345	349	353	356	359	363	367	370	374	379	384	388	391	395	399	404	407	411	416	421	426	430	435	440	444	448	451	455	457	461	464	468	472	476	479	483	486	490	493	497	501	506	509	511	514	517	520	524	528	532	536	540	542	545	549	552	554	555	556	557	559	560	564	570	574	578	583	587	591	595	599	603	608	612	615	618	622	626	629	633	637	640	644	648	652	655	659	663	666	669	673	677	680	684	688	691	695	699	704	708	713	716	720	724	727	731	735	739	743	747	751	754	758	761	763	766	769	771	773	775	777	778	780	781	783	785	787	789	791	793	795	796	797	798	799	800	800	801	802	802	802	802	801	801	802	802	804	806	808	811	814	817	821	824	828	831	834	838	842	845	849	852	854	856	858	859	859	858	857	855	853	852	850	849	848	847	847	847	847	849	850	852	853	854	855	856	856	857	857	857	857	857	858	858	858	858	857	856	855	855	855	854	853	851	850	848	847	845	844	843	842	840	838	836	834	832	831	830	829	829	828	828	828	827	827	827	827	827	828	828	830	831	833	834	836	837	838	839	839	840	840	839	838	837	835	833	831	829	826	823	819	815	812	809	806	803	800	798	796	795	793	791	789	787	785	782	779	777	776	775	775	774	774	773	773	772	771	769	768	767	766	764	764	763	762	761	760	759	757	756	755	753	752	751	750	749	748	746	744	742	740	738	736	734	731	729	727	725	723	720	718	716	714	712	710	708	706	704	702	700	700	700	700	699	698	697	696	695	694	693	692	691	690	689	689	689	688	687	687	687	687	687	686	686	685	683	682	680	679	678	677	675	674	673	673	673	673	672	672	671	668	665	663	661	659	658	657	656	656	656	656	656	655	655	656	657	657	658	659	660	661	661	662	663	665	667	669	671	672	673	673	675	677	678	679	681	682	684	685	687	687	687	687	686	685	684	683	682	680	680	681	682	684	685	685	684	682	678	675	674	674	674	675	675	675	676	675	675	674	673	672
328	328	328	326	324	322	318	315	313	314	314	313	312	310	308	308	310	311	310	309	308	308	308	307	304	302	301	300	300	301	307	312	313	312	310	310	311	311	311	309	307	306	304	299	294	291	291	290	291	292	292	292	291	291	291	292	293	292	291	293	296	297	297	297	295	294	294	293	291	288	286	284	283	282	282	282	282	282	282	282	282	283	284	286	288	289	290	290	290	293	297	301	303	305	308	310	312	315	318	322	326	329	330	331	333	335	336	338	340	342	344	346	346	347	348	348	349	350	350	351	350	349	349	349	349	348	347	347	346	344	342	342	342	343	345	346	346	347	348	350	352	354	357	360	363	363	363	363	363	363	363	362	361	360	359	357	355	353	351	349	347	345	342	340	339	339	338	336	336	334	333	331	331	329	328	326	324	322	320	318	316	313	311	309	307	304	303	301	301	300	299	298	295	293	292	291	290	288	288	287	285	283	279	276	274	273	271	269	266	263	262	261	260	260	262	263	262	261	261	261	260	260	260	260	260	259	258	260	262	264	265	268	270	272	273	274	275	276	275	272	270	269	268	266	263	261	257	253	250	249	247	246	244	242	241	241	242	241	239	237	237	235	231	226	224	223	221	218	215	213	212	209	206	205	203	199	194	192	188	185	183	180	177	175	173	169	162	160	164	167	169	171	172	173	175	177	179	178	177	176	176	175	175	178	183	186	187	189	191	192	194	195	197	199	201	203	204	205	205	207	208	209	211	212	214	214	215	217	218	220	222	223	224	226	229	230	232	234	236	238	240	243	245	246	248	251	254	256	257	258	259	261	264	266	268	271	273	276	279	282	285	288	291	294	296	299	302	306	309	312	315	318	322	326	331	334	337	341	346	350	354	356	360	365	368	372	376	381	385	389	393	397	401	405	409	413	417	423	428	432	436	440	444	448	452	455	458	461	465	468	472	476	480	482	485	488	492	497	500	503	506	508	511	514	517	520	523	528	534	536	537	539	543	547	548	550	553	555	557	559	563	569	574	578	583	588	591	594	599	603	607	612	615	618	621	625	629	633	637	640	644	647	651	654	658	662	665	669	673	676	680	684	688	693	696	700	704	708	712	716	720	724	728	732	735	739	743	747	751	755	758	761	764	767	770	773	775	777	779	781	782	784	785	787	789	791	793	795	797	798	800	801	802	803	804	805	805	805	805	805	805	805	805	805	806	808	810	812	815	818	821	824	827	831	834	838	842	845	848	850	852	854	855	856	856	856	855	854	853	851	850	849	849	848	848	848	849	850	852	853	854	856	857	858	858	859	859	858	858	858	858	858	857	857	856	855	854	853	852	851	850	849	848	847	845	844	842	841	840	839	837	835	833	831	830	829	827	827	826	826	826	826	826	826	826	826	827	828	829	830	832	833	835	836	837	837	838	838	838	838	837	835	834	832	830	828	825	822	818	815	812	809	806	803	800	797	795	794	792	789	787	785	783	781	778	777	775	774	773	772	771	771	770	769	768	767	766	765	764	762	762	761	760	759	758	757	755	754	753	751	750	749	748	747	746	744	742	741	739	737	734	732	730	728	726	724	722	720	718	716	714	712	710	708	706	704	702	701	701	701	701	701	700	699	699	698	697	695	694	693	692	692	692	691	690	689	689	689	689	689	689	688	687	686	684	683	681	680	679	677	676	675	676	676	676	675	674	673	671	668	666	664	662	660	659	659	658	658	658	658	658	657	656	656	657	658	659	660	661	661	662	662	663	664	666	667	668	670	671	671	673	675	676	678	679	682	684	686	687	688	688	687	686	685	684	682	681	681	681	682	683	684	684	683	681	678	675	675	675	675	676	677	677	678	678	677	676	676	675
328	327	327	325	323	321	318	314	312	312	312	312	311	309	306	306	307	308	308	307	307	307	306	303	299	297	296	296	296	297	303	309	310	310	308	308	309	310	310	309	307	305	304	300	296	292	291	291	290	289	288	288	290	291	291	292	293	292	291	292	293	296	296	295	294	293	293	293	290	286	284	283	282	281	281	280	280	281	281	281	282	283	285	286	288	289	290	289	291	295	298	300	303	305	307	310	312	314	317	321	326	329	330	332	334	336	337	338	340	343	345	345	346	347	348	348	349	349	350	351	350	349	348	348	348	347	346	345	344	342	341	340	341	342	343	345	345	346	347	349	351	353	355	359	361	362	361	361	362	362	362	361	360	359	358	356	354	352	350	348	346	343	341	339	339	338	336	335	334	333	332	330	329	328	327	325	324	322	320	318	316	313	310	308	307	305	303	301	300	299	298	297	294	293	292	291	290	288	287	286	285	283	281	278	276	274	273	271	268	265	263	262	261	262	264	264	263	260	260	260	259	259	259	259	257	256	256	256	258	260	262	264	267	269	270	272	274	275	274	271	269	268	266	263	260	258	255	252	250	248	245	241	238	237	236	237	239	239	237	236	235	233	228	224	221	218	215	213	211	209	208	205	203	202	200	196	193	191	188	185	183	180	177	175	172	167	161	160	163	166	168	170	172	173	175	177	178	177	176	175	175	175	175	176	182	186	188	189	191	193	194	196	197	199	200	202	203	205	205	206	207	208	210	211	212	213	215	217	219	221	222	223	224	226	228	230	232	234	236	237	239	242	243	245	247	250	252	254	256	257	259	261	263	265	268	270	273	275	278	281	284	287	291	294	296	299	303	306	310	313	316	318	322	327	331	335	339	343	346	350	354	357	361	366	370	374	378	383	386	390	394	398	402	406	410	414	419	424	429	433	437	440	444	447	451	455	458	461	465	468	472	476	479	482	484	487	491	495	498	500	503	505	508	511	515	517	520	523	529	532	534	536	540	544	546	548	552	555	557	560	563	568	573	578	583	588	591	594	597	601	606	611	615	618	622	625	629	633	636	640	643	646	650	654	657	660	664	668	673	676	679	683	688	693	696	699	703	707	712	717	721	724	728	732	735	739	743	747	751	754	758	761	764	768	771	774	776	778	781	783	784	786	787	789	791	793	795	797	798	800	802	804	805	807	808	808	809	809	810	810	809	809	809	809	809	809	811	813	816	819	822	825	828	831	835	839	842	844	846	848	850	851	852	853	854	853	853	852	851	850	849	849	849	849	849	850	850	851	853	855	856	858	860	861	861	860	860	860	859	858	858	858	857	857	856	854	853	852	850	849	848	847	846	845	843	842	841	840	838	837	835	833	832	830	829	828	827	826	825	825	825	825	824	825	825	825	826	827	828	829	831	833	834	835	836	836	836	836	836	836	835	834	832	831	829	826	824	821	818	815	812	808	805	802	799	797	794	793	791	787	785	783	781	780	777	776	774	773	772	771	770	769	768	767	766	765	763	762	761	760	759	759	758	757	756	755	754	752	751	750	749	747	746	745	744	742	740	739	737	735	733	731	729	727	725	724	722	720	718	716	714	712	710	709	707	705	704	702	702	702	703	702	702	702	701	701	700	698	696	695	695	694	694	694	692	691	691	691	692	692	691	690	690	688	687	685	684	682	681	679	678	678	678	678	678	677	676	675	673	670	668	666	664	663	662	661	661	661	660	660	659	658	658	658	658	659	660	661	662	662	663	663	663	664	665	666	667	668	668	669	671	672	673	675	677	679	682	684	685	686	687	687	687	686	685	683	682	681	682	682	683	683	683	682	680	677	676	675	675	676	677	678	679	680	680	679	679	678	678
327	326	325	324	322	321	319	315	311	310	311	311	310	307	304	304	305	305	306	306	306	305	304	301	298	296	296	296	296	296	301	305	306	305	303	303	307	310	310	309	308	306	304	301	298	295	294	294	289	286	285	284	288	291	292	293	293	292	292	293	294	295	294	293	292	292	293	293	291	287	284	283	281	280	280	279	278	279	279	280	281	283	285	287	289	290	290	290	292	296	297	299	302	304	307	310	312	314	317	321	326	328	329	332	335	337	338	339	341	343	345	345	346	347	348	348	348	349	350	350	349	348	348	347	347	346	345	344	343	341	340	339	339	340	341	343	343	344	345	347	349	352	354	357	359	360	360	360	360	361	360	360	359	358	357	355	353	351	349	346	344	342	340	339	338	337	335	333	332	331	330	329	327	327	326	325	323	321	319	317	315	312	310	308	307	305	303	301	300	298	297	296	294	292	291	290	289	288	287	286	285	285	283	280	278	276	274	272	270	268	267	265	264	263	264	263	261	260	260	260	259	259	259	257	255	254	253	252	252	255	258	261	264	267	269	271	272	273	272	271	268	265	262	260	257	254	253	251	249	246	242	238	234	232	231	231	233	233	232	232	231	229	226	222	219	215	211	209	207	205	203	202	201	199	197	194	192	190	187	185	182	179	176	173	170	164	159	161	164	166	168	170	171	173	174	175	175	175	175	176	175	174	174	175	181	186	188	189	191	193	194	196	197	198	199	200	202	204	205	206	207	208	209	210	212	213	215	217	219	221	223	224	225	226	228	230	232	234	236	237	239	241	243	245	247	249	251	253	255	257	259	261	263	265	267	270	273	276	279	281	284	287	290	293	296	299	303	307	310	313	316	319	323	327	331	336	340	343	347	350	354	357	362	367	371	376	379	383	388	391	395	399	403	407	411	415	419	424	429	433	437	440	444	447	451	454	457	462	465	468	471	475	478	481	483	485	489	493	495	497	500	502	505	509	513	515	518	521	525	529	533	536	539	543	546	549	553	556	559	562	565	568	573	577	583	588	591	593	597	600	605	610	614	618	622	625	628	631	635	638	642	646	649	653	656	659	663	667	672	676	679	683	688	692	695	698	702	707	713	717	721	725	728	732	735	739	743	747	750	754	757	761	764	767	770	774	777	779	782	784	786	787	789	790	792	794	796	798	800	802	804	806	808	810	811	812	813	814	814	814	814	813	813	812	811	812	813	815	817	820	823	826	828	832	835	838	841	843	844	846	847	848	849	850	851	851	850	850	849	849	849	849	849	850	850	851	852	853	855	857	858	860	862	863	863	862	862	861	860	859	859	858	857	857	856	855	853	852	851	849	847	846	845	844	843	842	841	839	838	836	834	832	831	829	828	827	826	825	824	824	823	823	823	824	824	824	825	826	827	829	830	832	833	834	834	835	835	834	834	834	834	833	831	829	827	825	823	821	818	815	812	808	804	801	799	796	794	792	790	787	784	782	780	778	777	775	773	772	770	769	768	767	766	764	763	762	761	760	759	758	757	757	756	755	754	753	752	751	750	748	747	746	744	743	741	740	738	737	735	734	732	730	728	726	724	723	721	719	718	716	714	712	711	709	708	707	705	704	703	703	703	703	704	704	704	703	702	700	698	697	697	697	696	696	695	694	693	694	694	694	694	693	692	691	690	688	687	685	683	681	680	680	680	681	681	680	679	677	675	672	670	668	666	665	664	664	663	663	663	662	661	660	660	660	660	661	662	663	664	665	665	665	666	665	666	666	666	667	668	668	670	671	672	673	675	677	679	681	683	685	686	687	687	686	685	684	683	682	682	683	683	683	682	681	679	677	676	676	676	677	678	679	681	682	682	682	682	682	681
326	325	324	322	321	320	319	316	312	310	310	310	309	306	303	303	303	304	304	304	303	301	301	300	298	296	296	296	296	296	298	300	300	299	298	299	306	311	310	309	307	306	304	302	299	297	296	294	287	284	284	284	287	290	292	293	294	294	294	294	293	294	293	291	291	291	292	291	290	287	284	282	280	278	278	278	277	277	277	278	280	281	284	287	289	289	290	291	291	292	295	298	301	303	307	310	312	314	318	321	325	327	329	332	336	338	340	341	342	344	345	345	346	347	348	348	348	348	349	349	348	348	347	346	346	345	345	343	342	341	339	338	337	338	340	341	341	342	343	345	348	351	353	355	357	359	359	359	360	360	360	359	359	357	356	355	353	350	347	345	343	341	339	338	338	336	333	331	330	329	328	326	326	326	325	323	322	320	318	316	314	312	310	308	306	305	303	301	300	298	297	295	293	292	291	291	290	289	288	287	287	286	284	282	280	278	276	274	272	270	269	267	265	263	261	260	259	260	260	260	259	259	258	255	252	251	250	249	249	252	256	259	261	264	267	270	270	270	270	270	268	264	261	258	254	251	250	249	247	245	242	238	233	231	229	228	227	227	228	228	227	226	223	221	219	215	212	209	204	201	200	199	198	197	194	192	190	188	186	184	181	178	174	171	167	161	159	162	165	167	168	170	172	174	175	174	173	173	175	176	175	173	173	174	180	185	187	189	191	193	194	196	197	198	199	200	201	203	204	205	206	207	209	210	211	213	215	217	219	221	224	225	225	226	228	230	232	234	236	237	239	241	243	245	247	249	251	253	255	257	259	262	263	264	267	270	273	276	278	281	284	286	289	292	296	299	303	307	310	313	316	319	323	327	331	336	340	343	346	350	354	357	361	366	372	376	379	383	388	391	394	399	403	407	411	415	419	424	429	433	437	440	444	447	450	453	457	461	465	467	470	474	477	480	482	484	487	489	492	495	499	502	504	507	511	514	518	521	524	527	531	536	540	544	547	551	555	558	561	563	566	569	573	578	582	587	590	593	597	600	605	609	613	617	621	624	627	631	634	637	641	645	649	653	656	659	662	666	670	674	678	682	686	690	693	697	701	708	714	718	721	725	728	731	735	739	742	746	749	753	756	760	763	766	770	773	776	779	782	785	787	789	790	792	794	796	798	800	802	804	806	808	810	813	814	816	817	817	818	818	817	817	816	815	814	814	815	817	819	822	824	827	829	832	835	838	839	841	842	843	844	845	846	847	848	848	848	848	848	848	848	848	849	850	851	851	853	854	856	858	860	862	864	865	865	864	863	862	861	860	859	858	858	857	856	855	853	852	851	850	849	848	847	845	844	843	842	840	838	836	834	832	830	828	827	826	825	824	824	823	823	822	822	823	823	823	824	825	826	828	829	830	831	832	832	833	833	832	832	832	832	831	830	828	826	824	822	820	818	815	811	807	804	801	798	796	793	791	789	786	784	782	780	778	776	774	773	771	770	768	766	765	764	763	761	760	759	758	757	756	756	755	754	753	752	751	751	750	748	747	746	744	743	741	739	738	736	735	733	732	730	729	727	725	723	722	720	718	717	715	714	712	711	710	709	708	707	706	705	704	704	704	705	706	706	705	703	702	700	699	699	699	699	698	697	696	695	696	696	697	697	696	695	694	693	691	690	688	685	683	682	681	682	682	682	682	681	679	677	674	672	670	668	667	667	666	666	665	665	664	663	662	662	662	663	663	664	665	666	667	668	669	669	668	668	668	668	667	667	668	668	669	670	671	672	675	677	679	681	683	686	687	687	687	686	685	684	683	683	683	683	683	682	680	678	677	676	676	677	678	679	680	682	683	684	685	685	685	685
325	324	323	321	320	320	319	316	313	310	309	308	307	305	303	302	302	301	300	298	296	294	296	299	299	298	297	297	297	297	297	296	296	296	296	297	304	310	310	308	306	305	304	302	300	297	296	292	285	284	284	284	287	288	289	292	295	296	296	294	292	292	291	290	290	290	290	289	288	287	284	281	278	276	277	277	277	277	277	278	279	280	282	285	287	288	289	289	290	292	295	298	300	302	305	310	312	314	316	320	324	327	330	334	337	339	341	343	344	345	346	346	346	347	348	349	349	349	349	348	347	347	346	345	345	345	344	343	341	340	339	336	336	337	338	339	340	341	343	345	347	350	353	354	356	358	358	359	359	359	359	358	358	357	355	354	352	350	347	344	342	340	338	337	335	333	331	330	329	328	326	325	325	325	324	322	321	319	317	315	313	312	309	307	306	304	302	301	300	298	296	295	293	292	293	293	292	291	290	289	288	287	285	284	281	279	277	276	274	272	270	268	264	261	259	258	259	259	260	259	258	257	256	253	249	248	248	247	247	250	254	257	259	262	265	268	268	268	269	269	267	264	261	257	253	250	249	248	246	244	242	238	233	230	228	225	224	224	224	225	225	224	220	218	217	215	212	208	201	198	197	196	196	194	192	190	188	186	184	183	180	176	173	169	164	159	160	164	166	167	168	171	173	175	175	174	172	173	176	177	175	173	172	173	179	184	187	189	191	193	194	195	196	197	198	199	201	203	204	206	206	207	209	210	212	213	215	216	218	221	223	225	225	226	228	230	232	233	235	237	239	241	243	245	247	249	250	252	254	257	259	261	262	264	267	270	272	275	278	280	283	286	289	292	295	299	302	307	310	313	316	319	323	327	331	335	339	343	345	349	353	356	360	365	370	374	378	382	386	389	392	396	402	407	411	415	420	425	430	434	437	440	443	446	449	452	456	460	464	466	468	472	475	479	481	483	484	486	488	491	497	500	503	506	509	513	517	521	523	526	530	536	541	546	550	554	558	561	564	566	568	571	575	579	583	587	590	593	597	601	605	609	613	616	619	623	627	631	634	637	640	645	649	653	656	658	662	666	670	674	677	682	685	689	693	696	701	708	714	718	721	724	728	731	735	738	742	745	749	752	755	759	762	765	769	772	775	779	782	785	788	791	792	793	795	796	798	801	803	805	807	809	812	814	817	818	820	820	821	821	820	820	819	818	817	816	816	818	820	822	825	827	830	832	834	836	837	838	839	840	841	842	843	844	845	846	846	846	846	846	847	848	849	850	851	852	853	855	857	859	861	864	865	866	867	866	864	863	862	860	859	858	857	856	855	854	853	852	852	851	851	850	849	848	846	845	844	842	840	837	834	832	830	828	827	826	825	824	823	823	822	822	822	822	822	823	824	825	826	827	828	828	829	829	830	831	831	830	830	830	830	830	829	827	826	823	821	819	816	813	809	806	803	800	797	795	793	791	788	786	783	782	780	778	776	774	772	771	769	767	766	764	763	761	760	759	758	757	756	755	754	753	752	751	751	750	749	748	747	746	744	743	741	739	738	736	735	733	732	731	729	727	726	724	722	720	719	717	715	714	713	712	711	710	710	709	708	706	705	704	704	705	707	707	707	706	705	704	703	702	701	701	701	701	700	698	697	697	698	699	699	698	697	696	695	694	692	690	688	685	683	682	683	684	684	683	682	680	678	676	674	672	671	670	669	669	668	668	667	666	665	664	664	665	665	666	667	667	669	670	671	672	673	672	672	671	670	669	668	667	667	667	668	669	671	673	675	677	680	683	686	687	688	687	686	685	684	684	684	684	684	684	682	680	678	677	677	677	678	678	680	681	683	685	686	688	689	689	688
323	322	320	319	318	318	317	314	312	310	308	307	306	305	303	301	297	294	292	290	289	288	291	297	300	299	299	300	300	300	300	298	296	296	296	297	302	307	308	307	306	305	303	302	299	295	293	289	284	283	283	285	286	287	287	290	293	294	293	292	291	292	292	290	289	289	289	288	287	285	283	279	276	275	275	276	277	276	277	277	278	278	280	282	285	286	287	288	291	294	296	297	299	300	303	308	311	312	315	318	322	328	332	335	337	340	342	343	345	346	346	347	347	348	349	350	350	350	350	348	347	346	345	344	344	345	344	342	340	339	337	335	335	336	337	338	339	341	344	346	347	349	352	354	355	356	357	358	358	359	358	358	357	356	355	353	352	350	347	344	342	339	337	334	332	331	330	328	327	326	325	325	325	324	323	322	320	318	316	314	313	311	309	307	306	304	303	301	300	298	296	295	295	295	295	294	293	292	291	291	290	288	286	285	283	280	278	277	276	274	272	269	266	263	261	260	260	260	260	258	256	255	255	253	249	248	247	246	245	247	251	255	258	261	263	265	266	267	268	268	266	264	260	256	252	250	249	247	244	241	240	238	233	229	227	224	222	221	221	222	223	221	217	215	214	212	209	204	199	197	195	194	193	192	190	188	186	184	182	180	177	173	171	168	161	159	161	164	166	166	168	170	173	175	175	173	172	173	176	176	175	173	172	173	178	184	186	188	191	193	193	194	195	196	198	199	201	202	204	206	207	207	209	211	213	214	215	217	219	220	222	223	225	226	228	230	231	233	235	237	238	240	242	244	246	248	250	252	254	256	258	259	261	263	266	269	271	274	277	280	282	285	288	292	295	298	302	306	310	312	315	319	323	327	330	334	338	341	344	347	351	355	358	363	367	372	376	379	382	385	390	395	401	405	410	415	420	425	429	433	437	440	443	446	449	451	454	457	460	463	466	469	472	475	478	479	481	483	486	489	493	498	503	506	510	513	517	521	523	526	531	538	544	548	552	557	561	564	567	569	571	574	577	580	583	587	590	593	598	601	604	609	613	616	619	623	627	631	635	638	640	644	647	652	656	658	662	666	670	673	677	681	685	689	692	695	700	707	713	717	721	724	727	731	734	738	741	744	748	751	754	758	761	764	768	771	774	777	781	785	789	791	793	794	795	797	799	801	803	805	807	810	812	815	817	819	821	822	822	822	822	821	821	820	818	818	818	819	821	823	825	827	829	831	832	834	835	836	837	838	839	840	841	842	843	843	843	844	844	845	846	848	849	850	851	852	853	855	857	859	862	864	866	867	867	866	865	864	862	861	859	858	857	856	855	854	852	851	851	851	851	851	851	850	849	848	846	844	841	839	836	833	831	829	828	826	825	824	824	823	823	822	821	821	821	822	823	824	825	825	826	826	826	827	827	828	828	828	828	828	829	828	827	826	825	822	820	817	814	811	808	805	802	799	797	794	792	790	787	785	783	781	779	777	776	774	773	771	769	768	766	764	763	761	759	758	757	756	755	753	752	751	751	750	749	748	747	746	746	744	743	742	740	738	736	735	733	732	731	729	728	726	724	722	721	719	718	716	714	713	712	711	710	709	709	708	707	707	705	705	705	706	707	708	708	707	707	706	705	704	703	703	703	703	701	700	699	699	700	701	701	700	700	698	697	696	694	692	689	687	685	684	685	685	685	685	683	682	680	678	676	675	674	673	672	671	671	670	670	669	668	667	667	668	669	670	670	670	671	672	674	675	676	676	675	674	673	672	670	669	668	668	669	670	671	672	674	677	679	683	685	687	688	688	687	685	685	684	684	684	684	684	683	681	679	678	678	679	679	680	680	682	684	686	688	690	691	692	691
322	320	319	318	317	315	314	311	310	309	308	307	306	305	304	300	293	288	287	286	286	286	288	294	298	300	300	301	302	302	303	300	297	296	296	298	301	304	305	306	305	304	303	301	297	292	289	287	284	282	282	284	285	285	285	288	290	291	290	291	291	292	291	289	288	288	288	287	285	284	281	278	275	274	274	275	275	275	276	276	277	277	278	279	281	284	286	289	292	294	295	296	297	299	302	306	310	312	314	318	324	330	334	336	337	340	342	343	345	345	346	348	349	349	349	350	351	351	350	348	347	346	344	342	341	342	341	340	339	337	335	334	334	334	336	338	339	341	344	346	347	348	351	353	354	354	355	357	358	358	358	357	356	355	354	353	351	349	347	344	342	339	336	334	332	331	330	328	326	325	325	325	325	324	323	321	319	317	316	314	312	311	309	307	306	305	303	301	300	299	297	297	297	297	296	294	293	293	292	292	291	289	287	285	284	281	279	277	276	275	273	271	269	266	264	263	263	262	261	259	257	255	255	255	252	250	249	247	244	245	248	252	256	259	261	263	263	265	267	266	264	262	259	255	251	249	248	246	243	240	238	235	231	229	227	224	220	218	218	218	218	217	214	213	212	210	206	202	199	196	194	192	191	190	188	186	184	181	179	177	174	172	170	166	159	159	162	164	165	166	167	170	172	174	173	171	171	174	176	176	174	172	171	172	177	183	186	188	191	192	193	193	194	196	197	199	200	202	204	205	206	208	209	211	213	214	215	217	219	220	221	223	224	226	227	229	231	233	234	236	238	240	242	243	245	247	248	250	253	255	257	258	260	263	266	268	270	273	276	279	282	285	288	292	295	298	301	305	309	311	314	318	323	327	329	332	336	339	342	345	349	353	357	361	365	370	374	376	378	382	388	395	400	404	409	415	420	424	428	432	436	439	442	445	448	450	452	453	455	458	462	465	469	471	474	476	478	481	485	488	492	497	503	507	511	514	517	521	524	528	533	540	545	550	554	559	562	566	569	572	574	577	579	582	585	588	591	594	598	601	604	609	612	615	619	624	627	630	634	637	640	642	646	651	655	658	662	666	669	673	678	682	685	688	691	695	700	706	711	715	719	723	726	730	733	737	740	743	747	750	753	756	760	763	766	769	772	776	780	785	789	791	793	794	795	797	799	800	802	804	807	809	812	814	817	819	821	822	823	823	822	822	821	820	820	819	819	820	822	823	825	827	828	829	830	831	832	833	834	835	836	837	838	839	840	841	842	842	843	844	846	848	849	850	851	852	853	855	857	859	861	863	865	866	867	866	865	864	862	861	859	858	857	856	854	853	852	851	850	849	850	851	851	850	849	848	847	845	843	840	838	835	833	831	829	828	826	825	824	823	823	822	821	821	821	821	822	822	823	823	823	823	823	824	825	825	826	826	826	826	827	826	826	825	823	821	818	816	813	810	807	804	802	799	796	794	791	789	787	785	783	781	779	777	776	775	773	772	770	768	767	765	763	762	760	758	757	755	754	752	751	750	749	749	748	747	746	745	744	743	742	740	739	737	735	734	732	731	730	728	727	725	723	721	720	718	717	715	713	712	711	710	709	709	708	707	707	706	706	705	705	706	707	708	708	708	708	708	707	706	705	705	704	704	702	701	700	700	701	702	702	702	702	701	699	698	696	694	691	688	686	686	686	686	686	686	685	683	682	680	678	677	676	675	674	674	674	673	672	671	670	670	670	672	673	673	672	672	673	674	675	676	677	678	678	677	676	675	673	671	669	670	670	671	671	672	674	676	678	681	684	686	687	687	687	686	685	685	685	685	685	685	684	682	680	679	680	680	681	681	682	683	685	687	690	692	693	694	693
321	319	318	317	316	313	311	309	308	308	308	307	306	305	304	300	293	287	286	286	286	286	287	290	296	298	299	300	301	302	302	301	298	295	295	299	302	302	303	304	303	301	300	298	295	291	289	287	285	281	279	281	283	284	284	285	288	288	288	290	291	291	289	287	286	287	286	285	284	282	280	277	275	274	274	274	274	274	275	275	275	276	277	277	279	282	286	289	291	293	294	295	297	299	303	307	311	313	315	320	326	331	335	336	337	340	342	343	344	345	347	348	349	349	350	350	350	350	349	347	346	345	343	341	340	340	339	337	336	335	335	335	334	333	335	338	341	343	344	345	347	348	350	352	353	352	353	355	356	356	356	356	355	354	353	352	351	349	346	344	341	339	336	334	333	332	330	327	325	325	325	325	323	322	321	320	318	317	315	314	312	310	309	307	306	305	303	302	301	301	300	299	299	298	296	294	294	293	293	293	292	290	288	286	284	282	280	278	276	274	273	271	270	268	267	266	265	264	262	261	259	257	257	256	255	254	252	250	246	245	246	249	254	256	258	260	261	263	264	263	261	259	256	253	251	249	247	245	242	239	236	232	228	227	226	222	217	215	214	214	213	212	211	210	210	208	204	201	198	196	193	191	188	187	185	183	181	179	177	175	172	171	169	164	157	158	161	163	164	165	167	169	172	173	171	170	171	173	175	175	174	171	170	171	178	184	186	188	191	192	192	192	194	195	197	198	200	202	203	204	206	208	209	210	212	213	215	217	219	220	221	223	224	225	227	229	231	233	234	236	238	239	241	243	244	246	248	249	251	253	256	258	260	262	265	268	270	273	276	278	281	284	287	291	295	297	300	304	307	310	313	317	322	326	328	330	333	337	340	342	346	351	355	360	364	368	372	374	376	379	386	394	399	404	409	415	420	423	426	430	434	438	442	444	446	448	449	450	452	455	458	463	466	469	472	473	476	481	485	488	492	498	504	509	512	515	518	521	525	530	535	540	546	551	555	560	563	567	570	573	576	578	581	583	586	589	592	595	598	601	604	608	611	614	618	622	625	629	633	636	639	642	645	650	654	658	662	666	670	674	677	681	685	688	691	695	700	706	710	714	718	722	725	729	733	736	739	743	746	749	752	755	758	761	764	767	770	773	779	784	788	790	792	794	795	796	798	799	801	803	806	808	811	813	816	818	820	821	822	821	821	821	821	820	820	820	820	821	822	823	824	826	827	828	828	829	830	831	831	832	833	834	836	837	838	839	839	841	842	844	846	848	849	849	850	851	852	854	856	858	860	862	864	865	866	865	864	863	862	860	859	858	857	855	854	853	852	850	849	848	848	849	850	849	848	847	846	845	843	841	839	837	835	833	831	829	827	826	824	824	823	823	822	821	820	820	820	820	820	820	820	820	820	821	822	823	823	823	824	824	825	824	824	823	821	819	817	814	811	809	806	803	801	798	796	793	791	788	786	784	782	781	779	778	777	775	774	773	771	770	768	766	764	762	760	759	757	756	754	752	751	750	749	748	747	746	745	744	743	742	741	739	738	736	735	733	732	730	729	728	727	725	722	720	719	717	716	714	713	712	711	710	709	708	708	707	707	706	706	706	706	707	708	709	709	710	710	709	708	708	707	706	705	704	703	702	701	701	702	703	704	704	703	703	701	700	698	696	693	690	687	687	688	688	688	688	687	685	684	682	681	680	679	678	677	676	676	675	674	674	673	673	673	675	676	675	674	674	674	675	676	677	678	679	680	679	678	677	675	672	671	671	672	673	673	673	674	675	677	679	681	684	686	686	686	686	685	685	685	685	685	685	684	682	681	681	682	682	682	682	683	684	686	688	691	693	694	695	694
321	319	318	317	314	312	309	308	308	308	308	308	307	306	303	299	294	289	286	286	286	286	287	290	294	297	298	299	300	301	301	300	297	295	295	299	302	302	302	301	300	298	297	296	293	290	289	288	286	280	278	280	281	282	281	281	281	282	282	285	288	288	285	284	284	285	284	283	282	280	277	275	273	273	274	274	273	273	274	274	274	275	276	277	279	282	285	287	290	292	294	296	298	302	305	308	311	314	317	322	327	331	335	336	337	339	341	343	344	345	347	349	349	349	350	350	350	349	348	346	345	345	343	341	340	339	337	335	334	335	335	335	334	333	334	338	342	344	344	345	347	347	349	351	352	351	351	352	353	353	353	354	354	353	352	351	350	347	345	343	341	339	337	335	334	332	329	326	325	325	324	323	322	320	319	318	317	316	315	313	311	310	309	308	307	305	304	303	303	302	301	301	300	298	296	294	294	293	293	292	291	290	288	286	284	282	280	278	276	274	273	272	270	269	268	267	266	265	265	264	262	260	259	259	258	257	255	252	249	246	246	247	252	254	255	257	259	260	261	260	258	256	254	252	250	248	245	243	240	237	234	230	227	226	224	219	215	213	212	211	211	210	208	206	207	206	203	200	198	195	192	189	185	183	182	180	179	178	175	173	171	169	167	162	157	157	159	162	164	165	167	170	172	172	170	170	171	173	174	175	173	171	169	171	179	184	185	187	190	191	192	192	193	195	197	198	199	201	202	203	205	207	208	209	211	213	215	216	218	219	220	222	224	225	227	229	230	232	234	236	237	239	240	242	244	245	247	249	251	253	255	257	259	262	264	267	269	272	275	278	281	284	287	290	294	297	299	303	305	308	312	316	320	324	327	329	331	335	338	340	343	348	353	358	363	365	369	371	373	376	382	389	396	403	410	416	419	421	425	429	433	436	440	442	444	445	447	448	451	453	456	460	465	468	470	472	476	481	485	488	492	497	504	509	512	514	518	522	526	530	534	539	545	551	556	560	564	567	570	574	576	579	581	584	587	590	592	596	599	601	604	608	611	614	618	622	625	628	632	635	639	642	646	650	654	658	662	666	670	674	677	681	684	688	691	695	699	704	708	712	716	720	724	728	732	735	738	741	745	748	751	754	756	759	762	765	768	771	772	778	785	788	790	792	794	795	796	797	799	802	804	807	809	812	814	817	819	820	820	820	820	820	820	820	820	820	820	821	822	823	824	825	826	826	827	827	827	828	829	830	831	832	833	835	836	837	838	839	841	844	845	847	848	848	849	850	851	853	855	857	859	860	862	863	864	863	863	862	861	860	859	857	856	855	855	854	853	851	849	847	847	847	848	848	847	846	845	843	842	840	839	837	836	834	832	830	828	826	825	824	823	823	822	821	820	819	818	818	818	817	817	817	817	818	819	820	821	821	822	822	822	822	821	820	819	818	815	812	810	808	805	803	800	798	795	793	791	788	786	784	783	781	780	779	778	777	775	774	772	771	769	767	765	763	761	760	758	757	755	753	751	750	749	748	747	746	745	744	743	742	740	739	737	736	735	733	732	730	729	728	727	725	722	720	718	717	715	714	713	712	711	710	710	709	708	708	707	707	707	707	708	708	709	709	710	711	711	711	710	709	708	707	706	705	704	703	702	702	703	704	705	705	705	705	704	702	700	698	695	691	689	689	689	690	690	690	689	687	686	684	683	682	681	680	679	679	678	678	677	676	676	675	676	677	678	677	676	676	676	676	677	678	679	681	682	682	680	678	675	673	672	672	673	674	674	674	674	675	676	678	679	681	683	685	685	685	685	685	685	685	685	684	684	683	682	683	684	684	684	684	684	685	686	689	692	694	695	695	694
