676	678	679	678	676	673	673	674	674	674	673	672	671	670	670	670	669	668	667	666	665	664	663	661	659	657	656	655	653	651	649	647	645	643	641	639	638	636	634	632	630	628	627	627	629	632	634	636	636	634	632	630	628	627	627	628	629	630	630	630	630	629	628	626	623	620	615	609	604	599	593	589	585	581	577	574	572	569	564	558	553	547	542	537	532	527	520	513	505	501	499	495	490	484	480	477	473	466	457	452	449	444	438	433	429	424	420	418	417	414	410	407	404	400	398	396	394	393	395	396	395	394	394	394	395	395	396	395	394	393	392	390	388	384	381	379	378	378	378	377	376	375	373	372	370	368	365	362	359	357	355	353	351	350	349	348	347	346	344	342	340	337	335	332	330	328	327	326	325	324	323	321	319	316	313	311	309	305	300	295	292	290	287	285	283	280	277	275	276	275	275	274	273	271	271	271	269	267	265	261	257	251	245	240	237	233	229	226	222	219	215	211	201	193	187	181	174	170	167	163	161	158	156	154	152	149	144	141	139	136	132	131	129	128	127	126	125	123	121	119	118	116	115	114	113	113	112	112	111	110	109	108	107	105	104	103	102	100	99	98	97	95	94	95	95	96	95	95	95	97	97	96	96	96	95	94	93	91	90	88	88	88	87	85	83	82	81	79	79	78	78	78	79	79	80	81	82	83	84	85	85	84	84	82	80	79	78	78	79	81	82	84	86	87	88	89	90	92	92	92	92	93	95	97	101	105	108	110	112	113	114	115	116	116	117	117	116	117	117	116	116	115	115	114	114	112	110	108	107	106	104	101	97	94	89	86	84	82	79	74	70	67	63	61	58	55	52	50	48	45	43	43	42	41	38	33	32	31	28	25	26	26	24	20	17	15	15	14	13	12	11	11	11	11	10	10	10	10	10	10	10	10	9	9	9	9	9	9	10	10	9	9	9	9	9	9	9	8	8	8	8	8	8	8	7	7	7	7	6	6	6	6	5	5	5	5	5	5	5	5	5	5	5	5	4	4	4	4	4	4	4	4	4	4	4	4	4	4	5	5	4	3	3	3	3	3	3	3	3	3	3	3	2	2	2	2	3	5	5	4	4	4	4	4	3	3	3	3	3	3	3	3	3	4	4	4	3	3	3	4	5	5	4	4	3	3	2	2	1	1	2	3	3	4	4	4	4	4	4	8	15	19	20	23	25	27	28	29	30	31	32	32	32	31	32	34	36	38	40	42	46	48	51	52	53	53	52	52	52	52	52	53	54	54	53	52	52	52	53	53	53	54	54	54	54	54	53	51	51	52	52	52	51	50	49	51	53	55	54	52	51	51	51	51	51	50	50	48	46	45	46	45	43	39	36	36	36	35	34	34	34	34	37	40	41	40	40	39	38	34	28	24	23	23	25	26	25	23	20	15	9	7	7	7	7	7	7	6	6	5	5	5	5	5	5	5	5	5	5	5	5	5	5	5	5	5	5	5	5	5	5	4	3	1	0	0	0	0	0	0	0	0	0	0	0	0	0	0	0	0	0	0	0	0	0	0	0	0	0	0	0	0	0	0	0	0	0	0	0	0	0	0	0	0	0	0	0	0	0	0	0	0	0	0	0	0	0	0	0	0	0	0	0	0	0	0	0	0	0	0	0	0	0	0	0	0	0	0	0	0	0	0	0	0	0	0	0	0	0	0	0	0	0	0	0	0	0	0	0	0	0	0	0	0	0	0	0	0	0	0	0	0	0	0	0	0	0	0	0	0	0	0	0	0	0	0	0	0	0	0	0	0	0	0	0	0	0	0	0	0	0	0	0	0	0	0	0	0	0	0	0	0	0	0	0	0	0	0	0	0	0	0	0	0	0	0	0	0	0	0	0	0	0	0	0	0	0	0	0	0	0	0	0	0	0	0	0	0	0	0	0	0	0	0	0	0	0	0	0	0	0	0	0	0	0	0	0	0	0	0	0	0	0	0	0	0	0	0	0	0	0	0	0	0	0	0	0	0	0	0	0	0	0	0	0	0	0	0	0	0	0	0	0	0	0	0	0	0	0	0	0	0	0	0	0	0	0	0	0	0	0	0	0	0	0	0	0	0	0	0	0	0	0	0	0	0	0	0	0	0	0	0	0	0	0	0	0	0	0	0	0	0	0	0	0	0	0	0	0	0	0	0	0	0	0	0	0	0	0	0	0	0	0	0	0	0	0	0	0	0	0	0	0	0	0	0	0	0	0	0	0	0	0	0	0	0	0	0	0	0	0	0	0	0	0	0	0	0	0	0
677	679	680	679	677	675	675	676	676	676	675	674	674	673	673	672	671	671	669	668	667	666	665	663	662	660	659	658	656	653	651	648	646	644	641	639	638	636	634	633	631	629	629	629	631	633	635	637	637	635	632	630	628	627	627	628	629	630	631	631	631	631	630	628	625	621	616	610	604	599	594	590	585	580	576	573	570	567	562	557	552	547	542	537	531	525	518	511	505	500	497	493	489	484	480	475	470	464	456	451	448	444	438	432	427	423	420	417	414	411	408	405	401	397	396	395	391	389	388	389	390	391	391	391	391	392	393	391	390	389	389	388	386	384	380	377	376	376	376	375	374	372	370	368	367	364	362	359	357	356	355	352	349	347	346	346	345	343	340	339	337	335	332	330	327	325	325	324	323	321	320	319	318	315	313	311	308	304	300	296	295	292	290	286	284	281	279	278	278	276	275	274	273	271	271	271	269	267	264	260	257	251	245	241	239	235	231	228	224	220	216	210	200	190	182	176	171	167	164	161	159	157	155	152	150	148	145	142	139	136	133	130	129	127	126	125	125	123	121	119	118	117	115	114	112	111	111	111	110	109	108	107	106	104	103	103	101	99	98	98	97	95	94	93	93	93	93	93	93	95	94	93	93	93	93	92	90	88	87	86	86	86	85	84	82	81	80	79	78	77	76	77	77	78	79	81	81	81	82	82	81	80	81	80	78	77	76	76	78	79	80	81	82	83	85	86	87	88	89	88	87	90	94	97	100	103	106	109	111	111	112	114	115	115	115	115	115	115	116	116	116	116	116	115	114	113	111	109	107	106	103	100	97	94	89	86	84	82	78	73	70	67	64	61	58	55	52	50	49	46	44	43	42	41	39	36	35	34	30	26	26	26	24	21	18	16	15	14	13	12	11	11	11	11	10	10	10	10	10	10	10	10	9	9	9	9	9	9	9	9	9	9	9	9	9	9	9	8	8	8	8	8	8	8	8	8	8	7	7	6	6	6	5	5	5	5	5	5	5	5	5	5	5	5	5	4	4	4	4	4	4	4	4	4	4	4	3	4	4	5	4	3	3	4	4	4	4	4	3	3	3	3	2	2	2	2	3	4	5	4	4	4	4	4	4	4	4	4	3	3	3	3	3	3	3	3	3	3	3	4	4	4	3	3	3	3	2	2	2	2	2	2	3	3	4	4	4	4	4	5	10	16	18	21	23	25	27	28	29	30	31	31	31	31	31	32	34	36	38	40	44	46	47	49	50	50	50	50	50	49	49	50	51	51	50	50	50	50	50	50	51	51	52	54	55	54	54	53	52	53	51	49	48	48	47	49	52	54	54	54	54	53	52	52	51	51	51	51	50	48	47	46	45	42	40	42	44	44	41	38	38	39	41	44	46	47	46	45	45	41	32	25	22	21	22	23	23	22	20	15	10	7	7	7	7	7	7	6	6	5	5	5	5	5	5	5	5	5	5	5	5	5	5	5	5	5	5	5	5	5	5	4	3	1	0	0	0	0	0	0	0	0	0	0	0	0	0	0	0	0	0	0	0	0	0	0	0	0	0	0	0	0	0	0	0	0	0	0	0	0	0	0	0	0	0	0	0	0	0	0	0	0	0	0	0	0	0	0	0	0	0	0	0	0	0	0	0	0	0	0	0	0	0	0	0	0	0	0	0	0	0	0	0	0	0	0	0	0	0	0	0	0	0	0	0	0	0	0	0	0	0	0	0	0	0	0	0	0	0	0	0	0	0	0	0	0	0	0	0	0	0	0	0	0	0	0	0	0	0	0	0	0	0	0	0	0	0	0	0	0	0	0	0	0	0	0	0	0	0	0	0	0	0	0	0	0	0	0	0	0	0	0	0	0	0	0	0	0	0	0	0	0	0	0	0	0	0	0	0	0	0	0	0	0	0	0	0	0	0	0	0	0	0	0	0	0	0	0	0	0	0	0	0	0	0	0	0	0	0	0	0	0	0	0	0	0	0	0	0	0	0	0	0	0	0	0	0	0	0	0	0	0	0	0	0	0	0	0	0	0	0	0	0	0	0	0	0	0	0	0	0	0	0	0	0	0	0	0	0	0	0	0	0	0	0	0	0	0	0	0	0	0	0	0	0	0	0	0	0	0	0	0	0	0	0	0	0	0	0	0	0	0	0	0	0	0	0	0	0	0	0	0	0	0	0	0	0	0	0	0	0	0	0	0	0	0	0	0	0	0	0	0	0	0	0	0	0	0	0	0	0	0	0	0	0	0	0	0	0	0	0	0	0	0	0	0	0	0	0	0
678	680	681	680	678	677	677	678	678	678	678	677	676	676	675	675	674	673	672	670	669	668	667	665	664	663	662	660	658	655	652	650	647	645	643	640	638	637	635	633	632	631	630	631	632	634	636	637	637	635	632	630	628	627	627	628	629	630	631	632	632	632	631	629	625	621	616	610	604	600	596	591	585	579	575	571	568	564	560	555	550	546	542	536	529	521	515	510	504	499	495	492	488	483	479	473	467	460	454	451	448	444	440	435	429	425	423	419	414	411	408	405	401	396	393	391	386	383	382	382	383	386	388	388	388	389	389	388	387	386	386	385	384	382	378	373	371	371	371	371	370	367	366	365	363	361	359	357	355	354	353	349	345	344	343	343	342	340	338	337	335	332	330	328	325	323	322	322	320	319	318	317	316	315	312	309	306	302	299	298	296	293	291	288	285	282	280	279	278	276	274	273	271	270	271	270	268	265	262	258	255	250	246	242	240	237	234	230	226	221	215	208	199	189	179	173	168	165	162	160	158	157	154	150	148	146	144	142	140	136	133	130	129	127	126	125	124	122	119	118	117	117	116	114	111	110	110	110	109	108	106	106	105	104	103	102	100	99	98	98	97	96	94	93	92	92	92	91	91	92	91	90	91	91	90	89	86	85	85	84	84	84	84	82	80	79	79	79	77	76	75	75	76	75	76	78	79	78	78	78	77	77	78	78	76	75	74	75	76	77	78	78	78	79	80	82	84	85	85	85	85	88	94	97	100	102	105	107	109	109	111	113	114	114	114	114	113	113	113	114	114	115	116	115	114	113	111	109	107	105	102	99	97	94	89	86	84	81	77	73	69	67	64	61	57	54	51	51	49	47	45	44	42	41	39	37	35	35	31	26	26	25	23	21	20	18	17	16	15	13	11	10	11	10	10	10	10	10	9	9	9	9	9	9	8	9	9	9	9	9	9	9	9	9	9	9	9	8	8	8	8	8	8	8	8	8	8	7	7	6	6	6	5	5	5	5	5	5	5	5	5	5	5	5	5	5	5	5	5	4	4	4	4	4	3	3	3	3	4	5	5	4	4	4	4	4	4	3	3	3	3	3	3	2	2	2	2	3	4	4	4	3	4	4	4	4	4	4	3	3	3	3	3	3	3	3	3	3	3	4	4	3	3	2	3	3	3	2	2	2	2	2	3	3	3	4	4	4	4	4	5	11	16	18	21	23	25	26	27	28	30	30	31	31	31	32	33	34	35	38	41	42	43	44	45	46	46	47	48	47	47	48	48	48	48	48	48	47	48	48	49	49	49	52	54	53	53	53	52	51	48	47	46	45	45	48	51	53	56	57	57	55	54	53	52	51	50	51	50	49	48	47	45	43	42	45	47	47	47	43	41	41	42	45	47	47	46	45	44	42	35	26	22	21	20	20	21	20	19	14	9	7	7	7	7	7	7	6	6	5	5	5	5	5	5	5	5	5	5	5	5	5	5	5	5	5	5	5	5	5	5	4	2	0	0	0	0	0	0	0	0	0	0	0	0	0	0	0	0	0	0	0	0	0	0	0	0	0	0	0	0	0	0	0	0	0	0	0	0	0	0	0	0	0	0	0	0	0	0	0	0	0	0	0	0	0	0	0	0	0	0	0	0	0	0	0	0	0	0	0	0	0	0	0	0	0	0	0	0	0	0	0	0	0	0	0	0	0	0	0	0	0	0	0	0	0	0	0	0	0	0	0	0	0	0	0	0	0	0	0	0	0	0	0	0	0	0	0	0	0	0	0	0	0	0	0	0	0	0	0	0	0	0	0	0	0	0	0	0	0	0	0	0	0	0	0	0	0	0	0	0	0	0	0	0	0	0	0	0	0	0	0	0	0	0	0	0	0	0	0	0	0	0	0	0	0	0	0	0	0	0	0	0	0	0	0	0	0	0	0	0	0	0	0	0	0	0	0	0	0	0	0	0	0	0	0	0	0	0	0	0	0	0	0	0	0	0	0	0	0	0	0	0	0	0	0	0	0	0	0	0	0	0	0	0	0	0	0	0	0	0	0	0	0	0	0	0	0	0	0	0	0	0	0	0	0	0	0	0	0	0	0	0	0	0	0	0	0	0	0	0	0	0	0	0	0	0	0	0	0	0	0	0	0	0	0	0	0	0	0	0	0	0	0	0	0	0	0	0	0	0	0	0	0	0	0	0	0	0	0	0	0	0	0	0	0	0	0	0	0	0	0	0	0	0	0	0	0	0	0	0	0	0	0	0	0	0	0	0	0	0	0	0	0	0	0	0	0	0	0
680	682	682	681	680	679	680	680	681	681	680	679	679	679	678	677	676	675	674	673	672	670	669	668	667	666	665	662	660	657	654	651	649	646	644	642	640	638	636	634	633	632	632	633	634	635	637	637	636	634	632	629	628	627	627	628	629	630	631	632	633	633	631	629	624	620	614	608	603	600	596	590	584	578	574	570	566	562	558	553	549	544	539	532	525	518	512	508	503	497	493	490	486	481	477	471	465	459	454	451	448	445	441	436	431	427	424	421	417	413	409	406	402	395	390	388	385	382	382	381	379	380	384	385	384	385	385	385	383	382	381	382	381	380	375	370	368	367	367	367	366	364	362	361	360	359	357	356	354	352	349	345	342	340	339	339	339	338	337	335	332	330	328	325	322	320	320	320	318	317	316	316	315	313	310	306	303	300	298	297	295	292	290	288	285	283	281	279	277	275	273	272	270	270	270	269	266	264	261	257	253	250	247	244	241	238	235	231	226	221	214	207	198	188	179	171	166	163	161	158	157	155	152	149	147	145	143	141	139	137	134	132	130	128	127	125	124	125	123	118	117	117	116	114	112	110	109	109	108	107	105	105	104	104	103	102	100	99	98	97	96	95	94	92	92	91	91	90	90	89	88	88	89	89	88	86	83	82	82	82	82	81	81	79	77	77	77	77	77	76	75	75	75	73	73	74	75	74	75	75	76	77	77	76	74	73	73	74	74	75	75	75	76	76	77	80	82	84	83	84	85	89	94	97	100	102	104	105	107	107	109	110	111	112	112	112	111	110	110	111	112	113	114	113	113	111	110	108	106	103	101	99	96	93	89	86	84	80	76	72	69	67	64	62	58	54	52	51	50	48	46	44	42	41	39	37	35	34	30	26	25	24	23	22	21	20	19	18	18	15	11	10	11	10	10	10	10	9	9	9	9	9	9	9	9	9	9	9	9	9	9	9	9	9	9	9	9	8	8	8	8	7	7	7	7	7	7	7	7	6	6	6	5	5	5	5	5	5	5	5	5	5	5	5	5	5	5	4	4	4	4	4	4	3	3	4	4	4	5	5	5	5	4	4	4	3	3	3	3	3	4	4	4	3	3	2	2	2	3	4	4	3	3	3	4	4	4	4	3	3	3	3	3	3	3	3	3	3	3	3	3	3	2	2	3	3	3	3	3	2	3	3	3	3	3	3	4	4	4	4	4	7	12	15	18	20	22	24	25	26	28	29	30	30	31	32	33	33	33	34	36	38	39	40	42	42	43	44	45	46	46	45	45	45	45	45	45	45	45	46	46	46	46	48	49	49	49	49	49	48	46	46	45	43	43	47	51	56	59	57	56	57	56	54	53	52	51	51	50	50	50	49	47	45	45	46	46	45	44	42	40	40	41	42	43	44	43	42	42	40	35	28	23	21	20	20	19	18	16	13	8	7	7	7	7	7	7	6	6	5	5	5	5	5	5	5	5	5	5	5	5	5	5	5	5	5	5	5	5	5	4	4	2	0	0	0	0	0	0	0	0	0	0	0	0	0	0	0	0	0	0	0	0	0	0	0	0	0	0	0	0	0	0	0	0	0	0	0	0	0	0	0	0	0	0	0	0	0	0	0	0	0	0	0	0	0	0	0	0	0	0	0	0	0	0	0	0	0	0	0	0	0	0	0	0	0	0	0	0	0	0	0	0	0	0	0	0	0	0	0	0	0	0	0	0	0	0	0	0	0	0	0	0	0	0	0	0	0	0	0	0	0	0	0	0	0	0	0	0	0	0	0	0	0	0	0	0	0	0	0	0	0	0	0	0	0	0	0	0	0	0	0	0	0	0	0	0	0	0	0	0	0	0	0	0	0	0	0	0	0	0	0	0	0	0	0	0	0	0	0	0	0	0	0	0	0	0	0	0	0	0	0	0	0	0	0	0	0	0	0	0	0	0	0	0	0	0	0	0	0	0	0	0	0	0	0	0	0	0	0	0	0	0	0	0	0	0	0	0	0	0	0	0	0	0	0	0	0	0	0	0	0	0	0	0	0	0	0	0	0	0	0	0	0	0	0	0	0	0	0	0	0	0	0	0	0	0	0	0	0	0	0	0	0	0	0	0	0	0	0	0	0	0	0	0	0	0	0	0	0	0	0	0	0	0	0	0	0	0	0	0	0	0	0	0	0	0	0	0	0	0	0	0	0	0	0	0	0	0	0	0	0	0	0	0	0	0	0	0	0	0	0	0	0	0	0	0	0	0	0	0	0	0	0	0	0	0	0	0	0	0	0	0	0	0	0	0	0	0	0
683	684	684	683	682	682	682	683	683	683	683	682	682	681	681	680	679	678	677	675	674	673	671	671	670	669	667	664	661	658	655	653	650	648	646	643	641	639	637	636	635	634	634	635	636	637	637	637	635	633	631	629	628	627	626	627	628	630	631	632	633	633	631	628	623	618	612	606	602	598	594	588	583	577	573	569	565	561	556	552	546	541	536	529	523	516	511	507	501	495	492	488	483	479	475	470	465	459	454	451	449	446	441	435	431	427	425	421	418	413	409	405	401	395	389	385	384	383	383	380	378	377	378	380	380	380	381	380	378	377	377	377	377	376	372	368	366	363	363	363	363	362	360	359	358	356	355	353	351	349	345	341	339	338	337	336	336	335	335	333	329	328	326	323	320	318	318	318	317	316	315	314	313	311	308	304	302	299	296	295	294	291	289	287	285	283	280	278	276	274	272	271	270	270	270	268	265	263	261	257	253	250	248	245	242	238	235	231	226	220	213	205	196	188	181	171	165	162	159	156	155	154	151	148	146	144	141	139	138	137	135	133	131	130	127	125	125	129	129	122	118	117	116	115	113	111	109	108	108	107	105	104	103	103	103	101	101	100	98	96	95	95	93	92	91	90	90	89	88	88	87	86	86	86	86	84	82	80	80	80	79	79	78	77	76	75	75	75	75	75	75	75	74	72	71	72	72	72	73	74	75	76	76	75	73	72	72	71	71	71	71	72	73	74	76	78	80	82	82	83	85	89	93	96	99	101	103	104	104	105	106	107	108	110	110	110	109	108	108	108	110	111	111	111	110	109	108	107	105	103	101	99	96	92	88	85	82	78	75	72	69	66	64	62	58	55	53	52	49	48	47	44	42	41	40	37	35	33	29	25	24	23	22	22	21	21	20	18	17	15	11	10	11	10	10	10	10	9	9	9	9	9	9	9	9	9	9	9	9	9	9	9	9	9	8	8	8	8	8	8	8	7	7	7	7	7	7	7	7	6	6	6	6	5	5	5	5	5	5	5	5	5	5	5	5	5	4	4	4	4	4	4	4	4	4	4	4	5	4	4	4	4	4	3	3	3	3	3	3	3	4	4	4	4	4	3	2	2	2	3	3	3	3	3	3	4	4	3	3	3	3	3	3	3	3	3	3	3	3	3	2	2	2	2	3	3	3	3	3	3	3	3	3	3	3	3	4	4	4	4	4	5	8	13	16	19	21	22	22	24	25	26	28	29	30	31	32	33	32	31	32	34	37	39	41	41	40	41	43	44	43	42	41	41	42	42	43	43	42	43	44	44	44	44	45	45	45	45	45	45	45	45	44	42	42	46	51	57	57	55	55	58	58	56	56	55	55	53	51	51	51	50	50	49	47	46	44	42	42	41	40	40	40	41	41	41	40	38	37	36	33	28	24	20	19	19	18	17	14	11	8	7	7	7	7	7	7	6	6	5	5	5	5	5	5	5	5	5	5	5	5	5	5	5	5	5	5	5	5	5	4	3	1	0	0	0	0	0	0	0	0	0	0	0	0	0	0	0	0	0	0	0	0	0	0	0	0	0	0	0	0	0	0	0	0	0	0	0	0	0	0	0	0	0	0	0	0	0	0	0	0	0	0	0	0	0	0	0	0	0	0	0	0	0	0	0	0	0	0	0	0	0	0	0	0	0	0	0	0	0	0	0	0	0	0	0	0	0	0	0	0	0	0	0	0	0	0	0	0	0	0	0	0	0	0	0	0	0	0	0	0	0	0	0	0	0	0	0	0	0	0	0	0	0	0	0	0	0	0	0	0	0	0	0	0	0	0	0	0	0	0	0	0	0	0	0	0	0	0	0	0	0	0	0	0	0	0	0	0	0	0	0	0	0	0	0	0	0	0	0	0	0	0	0	0	0	0	0	0	0	0	0	0	0	0	0	0	0	0	0	0	0	0	0	0	0	0	0	0	0	0	0	0	0	0	0	0	0	0	0	0	0	0	0	0	0	0	0	0	0	0	0	0	0	0	0	0	0	0	0	0	0	0	0	0	0	0	0	0	0	0	0	0	0	0	0	0	0	0	0	0	0	0	0	0	0	0	0	0	0	0	0	0	0	0	0	0	0	0	0	0	0	0	0	0	0	0	0	0	0	0	0	0	0	0	0	0	0	0	0	0	0	0	0	0	0	0	0	0	0	0	0	0	0	0	0	0	0	0	0	0	0	0	0	0	0	0	0	0	0	0	0	0	0	0	0	0	0	0	0	0	0	0	0	0	0	0	0	0	0	0	0	0	0	0	0	0	0	0	0
685	686	686	686	685	684	685	685	686	686	686	685	684	684	683	683	682	681	679	677	676	675	673	673	672	670	668	665	662	660	657	654	652	650	648	645	643	641	639	637	636	636	636	637	637	638	638	636	635	633	630	629	627	626	626	626	628	630	631	632	633	632	630	626	622	617	611	605	600	596	591	586	581	576	572	568	564	560	555	550	543	538	533	527	520	515	510	505	499	493	488	483	480	477	473	467	462	458	454	452	449	445	439	433	429	426	424	421	417	413	408	403	400	395	388	384	383	383	383	381	376	372	372	374	375	376	375	374	372	372	372	372	371	371	369	366	363	361	360	360	360	359	358	356	355	354	352	350	348	345	343	340	338	337	335	334	334	333	332	330	327	325	323	321	317	316	316	316	315	314	313	312	311	308	306	303	300	296	293	293	292	290	289	287	285	282	279	277	275	272	271	271	271	271	270	267	263	262	260	258	254	250	248	245	241	237	233	230	225	219	212	203	194	187	181	172	165	161	157	155	154	152	149	147	145	143	140	138	137	137	136	134	132	130	128	126	126	128	128	122	119	117	116	116	114	112	109	108	108	107	105	103	103	103	102	101	100	99	97	95	94	94	93	92	91	89	88	87	87	86	86	86	85	85	84	83	81	80	79	78	77	77	76	75	75	74	73	73	74	73	74	73	71	70	70	70	70	71	72	72	72	73	73	73	72	71	69	68	67	67	67	69	72	74	75	76	77	79	80	82	85	89	93	95	98	100	101	101	101	102	103	104	106	107	108	107	107	106	105	106	108	109	108	108	107	107	106	105	104	102	101	98	95	91	87	83	81	77	74	71	68	66	64	62	58	55	53	51	48	47	46	44	42	41	40	36	34	31	27	25	23	22	22	22	21	21	19	15	13	12	11	11	10	10	10	10	10	10	10	9	9	9	9	9	9	9	9	9	9	9	9	9	9	9	9	8	8	8	8	8	8	7	7	7	7	7	7	7	7	7	6	6	6	5	5	5	5	5	5	5	5	5	5	5	4	4	4	4	4	4	4	4	4	5	5	5	5	4	4	4	4	4	3	3	3	3	3	3	3	3	3	3	3	4	4	4	3	2	2	2	3	3	3	3	3	3	3	3	3	3	3	3	3	3	3	3	3	3	3	3	3	3	2	3	3	3	3	3	3	3	3	3	2	2	2	3	4	4	4	5	5	4	5	9	14	18	20	20	19	20	22	23	25	27	29	30	31	31	31	31	32	33	35	37	38	38	38	40	41	42	42	40	39	39	39	40	40	40	40	40	42	43	43	43	43	43	43	43	43	43	44	43	42	40	39	42	50	55	55	53	54	59	60	59	59	61	63	61	57	53	51	51	50	50	49	47	44	42	42	42	41	40	40	40	40	39	36	33	31	31	29	26	23	20	18	18	18	16	12	9	7	7	7	7	7	7	7	6	6	6	5	5	5	5	5	5	5	5	5	5	5	5	5	5	5	5	5	5	5	5	4	3	1	0	0	0	0	0	0	0	0	0	0	0	0	0	0	0	0	0	0	0	0	0	0	0	0	0	0	0	0	0	0	0	0	0	0	0	0	0	0	0	0	0	0	0	0	0	0	0	0	0	0	0	0	0	0	0	0	0	0	0	0	0	0	0	0	0	0	0	0	0	0	0	0	0	0	0	0	0	0	0	0	0	0	0	0	0	0	0	0	0	0	0	0	0	0	0	0	0	0	0	0	0	0	0	0	0	0	0	0	0	0	0	0	0	0	0	0	0	0	0	0	0	0	0	0	0	0	0	0	0	0	0	0	0	0	0	0	0	0	0	0	0	0	0	0	0	0	0	0	0	0	0	0	0	0	0	0	0	0	0	0	0	0	0	0	0	0	0	0	0	0	0	0	0	0	0	0	0	0	0	0	0	0	0	0	0	0	0	0	0	0	0	0	0	0	0	0	0	0	0	0	0	0	0	0	0	0	0	0	0	0	0	0	0	0	0	0	0	0	0	0	0	0	0	0	0	0	0	0	0	0	0	0	0	0	0	0	0	0	0	0	0	0	0	0	0	0	0	0	0	0	0	0	0	0	0	0	0	0	0	0	0	0	0	0	0	0	0	0	0	0	0	0	0	0	0	0	0	0	0	0	0	0	0	0	0	0	0	0	0	0	0	0	0	0	0	0	0	0	0	0	0	0	0	0	0	0	0	0	0	0	0	0	0	0	0	0	0	0	0	0	0	0	0	0	0	0	0	0	0	0	0	0	0	0	0	0	0	0	0	0	0	0	0	0	0	0	0
687	688	688	688	687	687	687	688	688	689	689	688	687	686	686	685	685	683	681	680	678	677	675	674	673	671	669	666	663	661	658	656	654	652	650	647	645	643	641	639	638	638	638	639	639	638	638	636	634	632	630	628	627	626	625	625	627	629	631	632	632	630	628	624	620	616	610	604	599	594	589	584	580	575	571	567	563	559	554	549	542	536	531	524	518	513	507	501	494	489	484	478	476	474	469	464	459	455	453	452	448	442	436	431	428	425	422	419	415	411	406	401	397	394	388	384	383	383	382	379	373	369	369	370	371	372	371	368	367	369	368	367	366	366	365	363	360	358	357	356	356	355	354	353	352	352	350	348	345	343	340	339	338	335	332	330	330	330	329	328	325	322	320	316	313	313	313	313	312	312	311	310	308	306	304	302	298	294	292	291	290	289	288	286	285	282	278	276	273	271	271	271	271	271	270	266	261	260	259	257	254	250	248	245	240	236	232	229	224	217	210	202	193	184	179	173	168	162	157	155	153	150	147	145	143	142	139	137	136	136	135	134	132	130	128	126	126	126	124	121	118	116	115	115	113	111	109	108	107	106	105	103	103	103	102	100	99	98	96	95	94	94	93	92	90	88	87	86	85	85	85	85	85	85	83	82	81	80	79	77	77	76	75	74	73	72	72	72	72	72	72	71	69	68	68	69	69	69	70	70	70	70	70	70	70	69	67	66	65	66	66	68	71	73	74	75	76	77	78	80	84	87	91	94	96	98	98	98	99	100	101	102	103	104	105	105	105	103	103	103	104	105	105	105	105	105	105	104	103	102	100	97	93	89	85	82	79	76	73	70	68	66	64	61	57	54	52	50	48	47	46	44	42	40	37	33	31	28	25	24	23	22	22	22	22	20	17	13	11	11	11	11	10	10	10	10	10	10	10	9	9	9	9	9	8	8	8	9	9	9	9	9	9	9	8	8	8	8	8	8	8	7	7	7	7	7	7	7	7	7	7	6	6	5	5	5	5	5	5	5	5	5	5	4	4	4	4	4	4	4	5	5	5	5	4	4	4	4	4	4	4	4	4	4	4	3	3	3	3	3	3	3	3	4	4	4	4	3	2	2	3	4	3	3	3	3	3	3	3	3	3	3	3	3	3	3	3	3	3	3	3	3	3	3	3	3	3	3	3	3	3	3	2	2	3	3	4	4	5	5	4	4	4	6	11	18	17	15	14	15	17	19	22	24	26	29	30	30	30	31	32	33	34	34	35	35	36	38	40	41	40	39	38	38	38	38	38	38	38	38	40	41	42	41	41	41	42	42	41	41	41	40	40	39	38	39	46	52	53	53	56	59	60	59	61	66	68	68	65	58	52	51	50	50	48	46	44	43	42	42	41	40	39	39	38	36	32	29	28	27	27	25	23	20	18	17	17	15	12	9	7	7	7	7	7	7	7	6	6	6	5	5	5	5	5	5	5	5	5	5	5	5	5	5	5	5	5	5	5	5	4	3	1	0	0	0	0	0	0	0	0	0	0	0	0	0	0	0	0	0	0	0	0	0	0	0	0	0	0	0	0	0	0	0	0	0	0	0	0	0	0	0	0	0	0	0	0	0	0	0	0	0	0	0	0	0	0	0	0	0	0	0	0	0	0	0	0	0	0	0	0	0	0	0	0	0	0	0	0	0	0	0	0	0	0	0	0	0	0	0	0	0	0	0	0	0	0	0	0	0	0	0	0	0	0	0	0	0	0	0	0	0	0	0	0	0	0	0	0	0	0	0	0	0	0	0	0	0	0	0	0	0	0	0	0	0	0	0	0	0	0	0	0	0	0	0	0	0	0	0	0	0	0	0	0	0	0	0	0	0	0	0	0	0	0	0	0	0	0	0	0	0	0	0	0	0	0	0	0	0	0	0	0	0	0	0	0	0	0	0	0	0	0	0	0	0	0	0	0	0	0	0	0	0	0	0	0	0	0	0	0	0	0	0	0	0	0	0	0	0	0	0	0	0	0	0	0	0	0	0	0	0	0	0	0	0	0	0	0	0	0	0	0	0	0	0	0	0	0	0	0	0	0	0	0	0	0	0	0	0	0	0	0	0	0	0	0	0	0	0	0	0	0	0	0	0	0	0	0	0	0	0	0	0	0	0	0	0	0	0	0	0	0	0	0	0	0	0	0	0	0	0	0	0	0	0	0	0	0	0	0	0	0	0	0	0	0	0	0	0	0	0	0	0	0	0	0	0	0	0	0	0	0	0	0	0	0	0	0	0	0	0	0	0	0	0	0	0	0	0
690	690	691	690	689	689	690	690	691	691	691	691	690	690	689	689	687	686	684	682	680	679	677	676	675	673	670	667	665	662	660	658	656	654	652	650	648	645	643	642	640	640	640	639	639	638	636	635	633	631	629	628	626	625	624	625	626	628	630	631	630	628	625	622	618	614	609	604	599	593	588	583	579	575	570	566	562	558	554	549	542	536	531	523	516	512	506	497	490	484	477	472	471	469	466	463	457	454	451	450	445	439	433	430	427	423	419	416	413	409	404	399	395	392	389	386	381	379	378	375	370	367	367	367	368	367	366	364	364	365	364	363	362	362	361	359	357	354	352	351	351	351	350	349	348	348	346	345	343	340	338	337	335	332	328	327	327	327	326	325	322	319	317	314	311	311	311	310	310	310	309	308	306	304	302	300	298	295	294	291	290	289	288	285	283	281	278	276	273	271	271	272	272	271	267	263	260	258	257	255	252	250	247	245	241	236	232	229	225	217	209	203	194	181	176	173	170	164	157	154	152	148	145	145	145	145	140	135	135	135	134	133	131	130	128	127	125	124	122	120	118	115	113	111	111	109	108	107	107	105	104	103	102	102	102	101	99	97	96	94	93	93	92	91	89	88	87	85	84	84	84	85	85	84	82	81	80	79	78	77	76	75	74	73	72	71	70	71	71	71	70	69	67	67	67	67	68	68	68	69	69	69	69	69	69	67	66	65	65	65	65	67	71	73	73	73	75	76	77	78	82	85	89	91	93	95	95	96	97	98	98	99	100	101	102	103	103	101	100	100	100	101	103	103	103	103	103	103	102	101	98	96	92	88	84	80	77	74	71	69	67	66	64	60	57	54	53	51	49	47	46	44	43	38	32	29	27	25	24	23	22	22	21	22	22	20	17	13	11	11	11	10	10	10	10	10	10	9	9	9	9	9	9	9	8	8	8	9	9	9	9	8	8	8	8	8	8	8	8	8	7	7	7	7	7	7	7	7	7	7	6	6	6	6	6	6	5	5	5	5	5	5	4	4	4	4	5	5	5	5	5	5	4	4	4	4	5	4	4	4	4	4	4	4	4	4	3	3	3	3	3	3	3	3	4	4	4	4	3	2	2	3	4	3	3	3	3	3	3	3	4	4	4	3	3	3	3	3	3	3	3	3	3	3	3	3	3	3	3	3	3	3	2	3	3	4	4	4	5	4	4	4	4	5	9	14	13	11	9	10	11	13	15	18	21	25	27	29	30	30	31	32	33	33	33	33	34	36	37	37	37	37	37	37	36	36	36	36	36	36	38	41	41	40	39	39	40	40	39	38	38	38	38	37	38	39	41	45	49	53	59	60	59	61	64	68	69	70	68	61	54	52	51	50	48	46	45	43	42	42	41	40	39	37	35	33	30	28	27	27	27	26	23	21	18	17	16	14	12	9	7	7	7	7	7	7	7	6	6	6	5	5	5	5	5	5	5	6	6	6	5	5	5	5	5	5	5	5	5	5	4	2	0	0	0	0	0	0	0	0	0	0	0	0	0	0	0	0	0	0	0	0	0	0	0	0	0	0	0	0	0	0	0	0	0	0	0	0	0	0	0	0	0	0	0	0	0	0	0	0	0	0	0	0	0	0	0	0	0	0	0	0	0	0	0	0	0	0	0	0	0	0	0	0	0	0	0	0	0	0	0	0	0	0	0	0	0	0	0	0	0	0	0	0	0	0	0	0	0	0	0	0	0	0	0	0	0	0	0	0	0	0	0	0	0	0	0	0	0	0	0	0	0	0	0	0	0	0	0	0	0	0	0	0	0	0	0	0	0	0	0	0	0	0	0	0	0	0	0	0	0	0	0	0	0	0	0	0	0	0	0	0	0	0	0	0	0	0	0	0	0	0	0	0	0	0	0	0	0	0	0	0	0	0	0	0	0	0	0	0	0	0	0	0	0	0	0	0	0	0	0	0	0	0	0	0	0	0	0	0	0	0	0	0	0	0	0	0	0	0	0	0	0	0	0	0	0	0	0	0	0	0	0	0	0	0	0	0	0	0	0	0	0	0	0	0	0	0	0	0	0	0	0	0	0	0	0	0	0	0	0	0	0	0	0	0	0	0	0	0	0	0	0	0	0	0	0	0	0	0	0	0	0	0	0	0	0	0	0	0	0	0	0	0	0	0	0	0	0	0	0	0	0	0	0	0	0	0	0	0	0	0	0	0	0	0	0	0	0	0	0	0	0	0	0	0	0	0	0	0	0	0	0	0	0	0	0	0	0	0	0	0	0	0	0	0	0	0	0	0
692	692	693	692	692	691	692	693	693	694	694	694	694	693	693	692	690	689	687	685	683	681	679	678	676	674	672	668	666	664	662	660	658	656	654	652	650	648	646	644	642	641	640	640	638	636	634	633	631	630	628	627	625	624	623	624	625	627	629	630	628	626	623	620	616	612	608	604	599	593	587	582	578	574	570	566	562	558	554	549	543	537	531	523	516	512	504	495	489	483	475	469	467	466	465	463	458	453	451	448	441	436	431	428	425	421	416	413	409	405	403	399	394	392	390	386	379	377	375	373	369	367	366	365	364	363	361	360	360	360	360	359	359	357	356	355	353	351	347	346	346	346	346	346	344	343	341	340	339	337	336	334	331	327	324	323	323	324	323	322	319	317	315	312	310	310	309	309	308	308	307	306	304	302	301	299	297	296	294	291	289	289	287	284	281	279	278	276	274	272	272	272	272	269	265	261	258	256	254	252	250	249	247	244	241	237	233	229	224	217	209	202	194	180	175	173	170	164	158	155	152	149	147	147	147	146	140	135	135	135	133	131	130	129	128	126	125	123	122	121	118	114	111	109	109	108	107	106	106	105	104	102	101	102	103	102	99	96	95	94	93	92	91	90	89	88	86	84	83	83	84	84	84	83	81	80	79	78	77	76	75	74	73	72	71	70	70	70	70	70	69	68	66	66	66	66	67	67	67	68	69	69	69	69	69	67	65	66	66	65	64	66	70	71	71	72	73	74	75	76	79	83	87	89	91	92	92	93	94	95	95	95	97	98	100	101	101	99	97	97	98	99	100	101	101	102	102	101	99	98	97	95	92	87	82	78	75	73	70	68	67	66	65	61	57	56	54	52	50	48	47	46	44	37	30	27	25	23	23	22	21	21	21	21	22	20	17	14	11	11	11	10	10	10	10	10	9	9	9	9	9	9	9	8	8	8	8	9	8	8	8	8	8	8	8	8	8	8	8	7	7	7	7	7	7	7	7	7	7	6	6	6	6	6	6	6	5	5	5	5	5	5	5	5	5	5	5	5	5	5	5	5	4	4	5	5	5	5	5	4	4	4	4	4	4	4	4	3	3	4	4	4	4	3	3	3	4	4	4	2	2	3	4	4	3	3	3	3	3	3	4	4	4	3	3	3	3	3	3	3	3	3	2	3	3	3	3	3	3	3	3	3	3	3	4	4	4	4	4	4	4	4	5	5	8	11	9	8	8	8	8	9	9	11	13	16	21	26	28	29	30	31	32	32	33	33	34	35	35	35	35	35	36	36	35	34	33	33	34	34	36	39	39	38	37	37	37	38	38	37	37	37	36	36	37	38	41	44	48	54	61	62	61	63	67	69	70	70	67	60	56	55	54	53	50	47	46	44	43	41	40	39	38	35	34	33	30	28	27	27	27	26	24	23	19	16	16	14	12	9	7	7	7	7	7	7	7	6	6	6	5	5	5	5	5	5	5	6	6	6	5	5	5	5	5	5	5	5	5	5	4	2	0	0	0	0	0	0	0	0	0	0	0	0	0	0	0	0	0	0	0	0	0	0	0	0	0	0	0	0	0	0	0	0	0	0	0	0	0	0	0	0	0	0	0	0	0	0	0	0	0	0	0	0	0	0	0	0	0	0	0	0	0	0	0	0	0	0	0	0	0	0	0	0	0	0	0	0	0	0	0	0	0	0	0	0	0	0	0	0	0	0	0	0	0	0	0	0	0	0	0	0	0	0	0	0	0	0	0	0	0	0	0	0	0	0	0	0	0	0	0	0	0	0	0	0	0	0	0	0	0	0	0	0	0	0	0	0	0	0	0	0	0	0	0	0	0	0	0	0	0	0	0	0	0	0	0	0	0	0	0	0	0	0	0	0	0	0	0	0	0	0	0	0	0	0	0	0	0	0	0	0	0	0	0	0	0	0	0	0	0	0	0	0	0	0	0	0	0	0	0	0	0	0	0	0	0	0	0	0	0	0	0	0	0	0	0	0	0	0	0	0	0	0	0	0	0	0	0	0	0	0	0	0	0	0	0	0	0	0	0	0	0	0	0	0	0	0	0	0	0	0	0	0	0	0	0	0	0	0	0	0	0	0	0	0	0	0	0	0	0	0	0	0	0	0	0	0	0	0	0	0	0	0	0	0	0	0	0	0	0	0	0	0	0	0	0	0	0	0	0	0	0	0	0	0	0	0	0	0	0	0	0	0	0	0	0	0	0	0	0	0	0	0	0	0	0	0	0	0	0	0	0	0	0	0	0	0	0	0	0	0	0	0	0	0	0	0	0	0
694	695	695	695	694	694	695	695	696	697	697	697	697	697	696	695	693	692	690	687	685	683	681	679	677	676	674	670	668	666	664	662	660	658	656	654	652	650	647	645	643	642	641	639	637	634	632	631	630	629	628	626	625	623	622	622	624	626	628	628	627	624	621	617	613	609	605	602	597	591	585	581	577	573	569	565	561	557	553	549	544	538	532	524	517	512	506	497	491	486	481	474	470	467	466	463	458	453	450	445	439	435	431	427	424	418	413	410	406	404	402	399	394	391	389	386	380	377	373	372	369	367	366	365	363	361	359	358	357	357	357	357	356	354	352	351	349	347	344	342	342	341	342	341	340	339	338	337	335	334	333	330	327	324	321	321	321	321	320	319	317	315	312	310	309	308	307	307	307	306	306	305	303	301	299	298	296	295	293	291	289	288	286	283	280	278	277	276	274	271	271	271	270	267	263	260	257	254	252	250	249	248	246	244	241	236	232	226	221	214	208	202	193	180	173	171	169	164	160	156	152	150	149	148	147	145	141	137	135	135	132	130	128	127	127	126	124	122	122	120	118	114	111	110	111	110	108	106	105	106	106	103	101	101	102	103	100	96	94	93	92	91	90	89	88	87	86	84	82	82	83	83	82	81	80	80	79	78	77	75	75	73	72	72	71	70	69	69	69	68	68	66	65	65	65	65	66	67	66	66	68	69	69	70	69	68	67	67	67	65	64	66	69	70	71	71	71	72	74	75	78	82	85	87	88	89	90	91	92	92	92	93	95	96	97	97	97	95	95	95	95	96	97	99	100	101	100	98	98	97	96	95	92	86	81	77	74	71	69	67	66	66	66	62	59	57	55	53	51	49	48	47	46	36	30	27	24	22	21	19	19	19	20	21	21	19	17	14	12	11	11	10	10	10	10	10	9	9	9	9	9	9	9	9	8	8	8	9	8	8	8	8	8	8	8	8	8	8	8	7	7	7	7	7	7	7	7	7	7	6	6	6	6	6	5	5	5	5	5	5	5	5	5	5	5	5	5	5	5	5	5	5	5	5	5	4	4	5	4	4	4	4	4	4	4	4	3	3	3	4	4	4	4	4	3	3	4	4	4	3	2	2	3	4	3	3	3	3	3	3	4	4	3	2	3	3	3	3	3	3	3	3	3	3	3	3	2	3	3	3	4	4	4	4	4	4	4	4	4	5	5	5	5	6	7	7	7	7	8	8	8	8	8	9	9	11	15	21	25	27	28	29	31	31	32	32	33	33	34	34	34	34	35	35	34	33	32	32	32	32	33	35	35	35	37	36	36	36	36	36	36	35	34	35	36	38	42	45	48	53	58	61	61	65	69	70	71	71	69	61	57	57	56	55	52	50	46	44	42	41	40	39	37	35	34	33	32	30	28	28	28	27	26	25	20	16	15	14	12	9	7	7	7	7	7	7	6	6	6	6	5	5	5	5	5	5	5	5	6	5	5	5	5	5	5	5	5	5	5	4	3	1	0	0	0	0	0	0	0	0	0	0	0	0	0	0	0	0	0	0	0	0	0	0	0	0	0	0	0	0	0	0	0	0	0	0	0	0	0	0	0	0	0	0	0	0	0	0	0	0	0	0	0	0	0	0	0	0	0	0	0	0	0	0	0	0	0	0	0	0	0	0	0	0	0	0	0	0	0	0	0	0	0	0	0	0	0	0	0	0	0	0	0	0	0	0	0	0	0	0	0	0	0	0	0	0	0	0	0	0	0	0	0	0	0	0	0	0	0	0	0	0	0	0	0	0	0	0	0	0	0	0	0	0	0	0	0	0	0	0	0	0	0	0	0	0	0	0	0	0	0	0	0	0	0	0	0	0	0	0	0	0	0	0	0	0	0	0	0	0	0	0	0	0	0	0	0	0	0	0	0	0	0	0	0	0	0	0	0	0	0	0	0	0	0	0	0	0	0	0	0	0	0	0	0	0	0	0	0	0	0	0	0	0	0	0	0	0	0	0	0	0	0	0	0	0	0	0	0	0	0	0	0	0	0	0	0	0	0	0	0	0	0	0	0	0	0	0	0	0	0	0	0	0	0	0	0	0	0	0	0	0	0	0	0	0	0	0	0	0	0	0	0	0	0	0	0	0	0	0	0	0	0	0	0	0	0	0	0	0	0	0	0	0	0	0	0	0	0	0	0	0	0	0	0	0	0	0	0	0	0	0	0	0	0	0	0	0	0	0	0	0	0	0	0	0	0	0	0	0	0	0	0	0	0	0	0	0	0	0	0	0	0	0	0	0	0	0	0	0
696	697	697	697	697	697	697	698	699	699	700	700	700	700	699	698	696	694	692	690	688	685	683	681	678	677	675	672	670	668	666	664	662	660	658	656	653	651	648	646	644	642	640	638	636	634	632	631	630	629	628	626	624	622	621	621	622	625	626	627	625	623	619	615	610	605	602	599	594	589	583	579	575	571	567	563	560	556	552	547	543	538	532	525	517	511	507	500	496	492	486	479	474	470	466	463	459	454	450	444	439	435	430	426	422	417	413	410	406	405	403	401	395	393	389	386	382	376	372	370	370	368	366	364	362	360	357	356	356	355	354	353	352	350	348	347	346	344	342	340	337	336	336	336	335	335	334	333	332	331	329	326	324	322	320	319	319	319	318	316	314	311	309	308	307	306	304	304	305	305	305	304	302	300	297	295	295	293	292	290	288	287	285	282	280	278	276	275	273	271	271	270	268	265	262	259	256	253	252	250	249	248	246	244	240	235	228	222	217	212	207	201	193	185	174	170	168	164	160	157	154	151	149	148	147	145	142	138	136	135	132	130	128	127	126	125	123	122	121	120	118	115	114	112	112	113	111	109	108	107	107	104	101	101	99	99	98	96	94	93	92	91	90	89	88	86	85	83	82	81	82	82	81	80	80	80	79	78	77	75	74	73	72	72	71	70	70	69	68	68	67	66	65	65	66	66	66	67	66	65	66	68	68	69	69	69	69	68	67	65	64	64	67	69	69	69	69	70	72	75	77	80	83	85	86	87	88	89	90	90	90	92	93	93	93	93	93	92	91	92	93	94	95	96	98	99	98	96	96	96	95	94	90	85	80	77	73	70	67	65	65	66	66	63	59	57	55	53	51	49	48	46	42	34	31	29	24	22	20	17	16	17	19	21	21	19	17	14	12	11	11	10	10	10	10	10	9	9	9	9	9	9	9	9	8	8	8	8	8	7	7	8	8	8	9	8	8	8	7	7	7	7	7	7	7	7	7	7	7	6	6	6	6	6	5	5	5	5	5	5	5	5	5	5	5	5	5	5	5	5	5	5	5	5	4	4	4	4	4	4	4	4	4	4	4	4	4	4	4	4	4	4	4	4	3	3	4	4	4	4	3	2	3	4	3	3	3	4	4	4	3	3	2	2	2	3	3	3	3	3	3	3	3	3	3	2	2	3	3	3	4	4	4	4	4	4	4	4	5	6	5	6	6	7	7	7	7	8	8	8	8	8	8	8	9	10	13	17	21	22	24	26	28	29	30	31	31	32	32	32	33	33	33	33	33	33	32	32	32	32	32	32	32	34	37	37	35	34	35	35	34	34	34	34	36	39	43	46	48	51	54	58	60	65	69	71	71	72	70	61	57	57	57	56	55	52	47	43	42	41	40	38	37	35	33	34	33	31	29	29	29	28	27	26	20	15	15	14	13	10	8	7	7	7	7	7	7	6	6	6	5	5	5	5	5	5	5	5	5	5	5	5	5	5	5	5	5	5	5	4	3	1	0	0	0	0	0	0	0	0	0	0	0	0	0	0	0	0	0	0	0	0	0	0	0	0	0	0	0	0	0	0	0	0	0	0	0	0	0	0	0	0	0	0	0	0	0	0	0	0	0	0	0	0	0	0	0	0	0	0	0	0	0	0	0	0	0	0	0	0	0	0	0	0	0	0	0	0	0	0	0	0	0	0	0	0	0	0	0	0	0	0	0	0	0	0	0	0	0	0	0	0	0	0	0	0	0	0	0	0	0	0	0	0	0	0	0	0	0	0	0	0	0	0	0	0	0	0	0	0	0	0	0	0	0	0	0	0	0	0	0	0	0	0	0	0	0	0	0	0	0	0	0	0	0	0	0	0	0	0	0	0	0	0	0	0	0	0	0	0	0	0	0	0	0	0	0	0	0	0	0	0	0	0	0	0	0	0	0	0	0	0	0	0	0	0	0	0	0	0	0	0	0	0	0	0	0	0	0	0	0	0	0	0	0	0	0	0	0	0	0	0	0	0	0	0	0	0	0	0	0	0	0	0	0	0	0	0	0	0	0	0	0	0	0	0	0	0	0	0	0	0	0	0	0	0	0	0	0	0	0	0	0	0	0	0	0	0	0	0	0	0	0	0	0	0	0	0	0	0	0	0	0	0	0	0	0	0	0	0	0	0	0	0	0	0	0	0	0	0	0	0	0	0	0	0	0	0	0	0	0	0	0	0	0	0	0	0	0	0	0	0	0	0	0	0	0	0	0	0	0	0	0	0	0	0	0	0	0	0	0	0	0	0	0	0	0	0	0	0
698	699	700	700	700	699	700	700	701	702	702	702	702	702	701	700	698	696	694	692	690	687	685	682	680	678	676	674	671	669	667	665	663	661	659	656	654	651	649	647	644	642	640	638	636	634	633	633	631	630	629	627	624	622	620	619	620	622	624	625	623	621	618	613	608	603	599	595	590	585	581	577	573	570	566	562	558	554	550	545	541	537	532	525	517	511	507	502	499	497	492	484	475	470	467	464	461	456	451	446	440	435	430	428	424	418	415	412	409	407	406	406	405	403	395	387	381	376	372	371	370	368	365	361	359	357	355	354	354	352	350	350	349	347	345	344	343	341	339	337	335	333	332	331	331	331	331	330	329	328	326	324	321	320	318	315	315	315	314	314	312	309	306	305	304	303	301	302	303	304	303	302	301	299	296	294	292	292	291	289	288	286	284	282	280	277	275	274	273	271	270	269	267	264	262	259	255	253	252	250	249	247	245	243	238	232	224	219	214	210	206	199	191	186	176	171	170	165	161	158	155	152	150	149	147	146	143	139	136	135	133	132	130	128	127	125	123	122	122	120	118	117	117	115	114	115	114	112	110	108	108	105	103	102	99	98	97	95	94	93	92	91	91	90	88	85	84	83	82	81	82	81	80	80	80	79	79	78	77	75	74	73	72	71	70	70	70	69	68	67	67	67	66	66	65	65	66	66	65	63	64	65	66	67	67	68	68	67	65	64	63	63	64	66	67	67	67	68	71	75	78	79	80	82	84	85	86	87	88	88	88	89	91	90	90	90	90	89	88	89	91	93	93	94	97	97	95	94	95	95	94	92	88	83	79	76	72	68	65	64	64	65	66	63	59	57	55	52	50	49	47	44	38	34	32	28	24	23	23	19	16	15	18	21	21	20	17	13	11	11	10	10	10	10	10	10	9	9	9	9	9	9	9	9	8	8	8	8	8	7	7	7	8	8	9	8	8	8	7	7	7	7	7	7	7	7	7	7	6	6	6	6	6	6	6	6	6	5	5	5	5	5	5	5	5	5	5	5	5	5	5	5	5	5	4	4	4	4	4	4	4	4	4	4	4	4	4	4	4	4	4	4	4	3	3	3	4	4	4	4	3	2	2	3	4	4	4	4	4	3	2	2	2	2	3	3	2	2	3	3	3	3	3	3	3	2	3	3	3	3	3	4	4	4	4	4	4	4	5	6	6	6	6	7	7	7	7	8	8	8	8	8	8	8	9	9	11	13	15	16	18	20	23	25	26	26	28	29	31	31	31	31	30	30	30	31	31	31	31	32	32	31	30	32	35	35	33	33	34	34	33	33	33	34	36	38	42	46	48	51	53	56	59	64	68	70	72	73	70	62	57	57	57	56	56	54	49	44	42	42	41	39	38	37	34	34	34	32	30	30	30	29	28	26	21	15	14	14	13	11	8	7	7	7	7	7	7	7	6	6	5	5	5	5	5	5	5	5	5	5	5	5	5	5	5	5	5	5	5	4	2	0	0	0	0	0	0	0	0	0	0	0	0	0	0	0	0	0	0	0	0	0	0	0	0	0	0	0	0	0	0	0	0	0	0	0	0	0	0	0	0	0	0	0	0	0	0	0	0	0	0	0	0	0	0	0	0	0	0	0	0	0	0	0	0	0	0	0	0	0	0	0	0	0	0	0	0	0	0	0	0	0	0	0	0	0	0	0	0	0	0	0	0	0	0	0	0	0	0	0	0	0	0	0	0	0	0	0	0	0	0	0	0	0	0	0	0	0	0	0	0	0	0	0	0	0	0	0	0	0	0	0	0	0	0	0	0	0	0	0	0	0	0	0	0	0	0	0	0	0	0	0	0	0	0	0	0	0	0	0	0	0	0	0	0	0	0	0	0	0	0	0	0	0	0	0	0	0	0	0	0	0	0	0	0	0	0	0	0	0	0	0	0	0	0	0	0	0	0	0	0	0	0	0	0	0	0	0	0	0	0	0	0	0	0	0	0	0	0	0	0	0	0	0	0	0	0	0	0	0	0	0	0	0	0	0	0	0	0	0	0	0	0	0	0	0	0	0	0	0	0	0	0	0	0	0	0	0	0	0	0	0	0	0	0	0	0	0	0	0	0	0	0	0	0	0	0	0	0	0	0	0	0	0	0	0	0	0	0	0	0	0	0	0	0	0	0	0	0	0	0	0	0	0	0	0	0	0	0	0	0	0	0	0	0	0	0	0	0	0	0	0	0	0	0	0	0	0	0	0	0	0	0	0	0	0	0	0	0	0	0	0	0	0	0	0	0	0	0	0
700	701	702	702	702	702	702	703	704	704	704	704	704	704	703	702	700	698	696	694	691	689	686	684	681	679	677	675	672	670	668	666	664	661	659	656	654	651	649	647	644	642	640	638	637	636	635	634	633	632	631	629	626	622	620	618	618	619	621	621	620	618	615	611	606	601	596	592	586	582	578	575	571	568	564	561	557	552	548	544	539	535	530	524	517	512	509	505	501	497	494	486	476	470	468	466	463	458	452	448	443	437	432	431	427	421	417	415	412	411	409	411	415	414	405	393	382	376	374	372	369	366	362	358	356	354	352	351	350	347	346	347	347	344	342	341	340	338	336	334	333	332	329	327	326	327	328	327	326	325	324	321	319	318	315	312	310	310	310	311	309	305	303	302	302	300	299	300	301	302	301	300	299	298	296	293	291	290	290	289	287	285	283	281	280	277	275	274	272	270	269	268	265	263	262	260	256	253	252	250	249	246	244	241	236	228	221	217	213	208	205	197	190	184	178	174	172	168	163	159	157	154	150	148	147	146	145	141	138	136	135	135	133	130	128	126	124	123	122	120	119	119	119	118	116	115	114	112	110	109	109	107	106	104	102	99	97	95	94	92	91	91	91	90	88	86	84	83	82	82	82	81	80	80	79	78	78	78	77	75	74	73	72	71	70	69	69	69	68	67	67	67	67	65	63	63	64	65	64	62	62	62	64	65	65	64	65	65	64	63	63	62	63	64	65	65	66	67	70	74	77	78	78	79	80	82	83	84	86	87	87	87	87	87	87	87	87	86	86	87	89	91	91	92	93	94	93	93	93	93	93	91	87	82	79	75	71	68	66	65	64	63	64	62	59	57	55	52	50	48	46	42	37	33	30	26	24	26	27	21	16	16	18	20	21	20	17	14	11	11	10	10	10	10	10	9	9	9	9	9	9	9	9	9	8	8	8	8	8	8	7	7	8	9	9	8	8	7	7	7	7	7	7	7	6	6	6	6	6	6	6	6	6	6	6	6	6	6	5	5	5	5	5	5	5	5	5	5	5	5	5	5	5	5	5	4	4	4	4	4	4	4	4	4	4	4	4	4	4	4	3	3	3	3	3	3	3	4	4	4	3	2	2	3	4	4	4	4	3	2	1	2	2	3	3	3	3	2	3	3	2	3	3	3	3	3	3	3	3	3	4	4	4	4	4	4	4	4	5	6	6	6	7	7	7	7	7	8	8	8	8	8	8	8	9	9	9	10	11	11	12	15	17	19	19	19	21	24	27	28	29	29	28	28	29	30	30	30	31	31	31	30	30	30	31	30	29	30	32	33	33	32	33	34	35	37	41	45	48	50	52	55	58	62	65	68	70	71	69	62	58	57	56	56	56	55	52	46	43	42	42	41	42	43	40	36	35	33	30	30	30	29	28	26	22	16	13	14	13	10	8	7	7	7	7	7	7	7	6	6	6	6	5	5	5	5	5	5	5	5	5	5	5	5	5	5	5	5	5	3	2	0	0	0	0	0	0	0	0	0	0	0	0	0	0	0	0	0	0	0	0	0	0	0	0	0	0	0	0	0	0	0	0	0	0	0	0	0	0	0	0	0	0	0	0	0	0	0	0	0	0	0	0	0	0	0	0	0	0	0	0	0	0	0	0	0	0	0	0	0	0	0	0	0	0	0	0	0	0	0	0	0	0	0	0	0	0	0	0	0	0	0	0	0	0	0	0	0	0	0	0	0	0	0	0	0	0	0	0	0	0	0	0	0	0	0	0	0	0	0	0	0	0	0	0	0	0	0	0	0	0	0	0	0	0	0	0	0	0	0	0	0	0	0	0	0	0	0	0	0	0	0	0	0	0	0	0	0	0	0	0	0	0	0	0	0	0	0	0	0	0	0	0	0	0	0	0	0	0	0	0	0	0	0	0	0	0	0	0	0	0	0	0	0	0	0	0	0	0	0	0	0	0	0	0	0	0	0	0	0	0	0	0	0	0	0	0	0	0	0	0	0	0	0	0	0	0	0	0	0	0	0	0	0	0	0	0	0	0	0	0	0	0	0	0	0	0	0	0	0	0	0	0	0	0	0	0	0	0	0	0	0	0	0	0	0	0	0	0	0	0	0	0	0	0	0	0	0	0	0	0	0	0	0	0	0	0	0	0	0	0	0	0	0	0	0	0	0	0	0	0	0	0	0	0	0	0	0	0	0	0	0	0	0	0	0	0	0	0	0	0	0	0	0	0	0	0	0	0	0	0	0	0	0	0	0	0	0	0	0	0	0	0	0	0	0	0	0	0	0
702	703	704	705	705	704	704	705	706	706	707	707	706	706	705	704	702	700	698	696	693	691	688	686	683	680	678	675	673	671	669	666	664	661	658	656	653	651	649	647	645	642	640	639	638	637	637	636	636	635	634	631	627	623	619	617	616	615	616	616	615	614	612	608	604	599	594	589	584	580	576	573	569	566	562	559	555	550	547	542	538	534	529	523	519	516	512	509	504	499	495	488	478	471	468	466	463	458	452	448	445	441	436	433	430	425	422	418	416	415	413	414	418	419	412	399	386	377	374	371	367	363	359	355	354	352	350	349	347	343	343	345	344	340	338	338	337	334	332	331	331	330	327	323	322	322	322	322	322	322	320	318	317	316	314	310	308	305	306	306	305	301	299	300	300	299	297	298	300	300	299	298	297	296	295	293	291	289	288	287	286	283	281	279	278	277	275	274	272	270	268	265	263	262	261	260	257	254	252	250	248	245	242	238	232	225	220	216	210	207	204	196	188	183	180	177	174	170	165	162	161	157	151	149	147	147	146	143	140	138	138	138	137	135	132	129	126	124	122	121	121	120	119	118	116	114	112	111	110	110	110	108	107	105	103	101	98	95	93	91	90	90	90	89	89	88	86	85	84	83	83	81	80	79	78	76	76	77	76	75	74	73	72	71	70	69	69	68	68	67	67	67	66	64	62	61	62	63	63	62	61	61	62	63	62	62	63	64	63	63	62	63	63	63	63	64	64	66	69	72	74	76	77	77	77	79	81	82	83	85	85	84	83	84	84	84	84	84	84	86	88	89	89	88	89	91	92	91	91	91	90	89	86	82	79	76	72	70	68	66	64	62	61	60	58	57	55	54	51	48	45	41	34	30	27	25	24	25	24	19	17	17	19	20	20	20	18	15	13	11	11	10	10	10	9	9	9	9	9	9	9	9	9	9	8	8	8	8	8	8	8	8	8	9	8	8	7	7	7	7	7	7	7	6	6	6	6	6	7	7	7	7	7	6	6	6	6	6	5	5	5	5	5	5	5	5	5	5	5	5	5	5	5	5	5	4	4	4	4	4	4	4	4	4	4	4	4	4	4	3	3	3	3	3	3	3	3	3	4	4	4	2	2	3	4	5	4	3	2	2	1	2	3	3	3	3	3	3	3	2	2	3	3	3	3	3	3	3	4	4	4	4	4	4	4	4	4	5	5	6	6	6	7	7	7	7	7	7	8	7	8	8	8	8	8	9	9	9	9	9	10	11	12	12	12	12	14	17	20	23	25	25	26	26	27	28	29	29	30	31	31	29	29	29	29	28	27	27	29	31	32	33	34	35	37	38	41	44	47	48	51	54	57	60	62	65	68	68	67	64	59	57	56	56	57	57	56	52	45	43	44	46	48	48	46	41	38	35	32	30	30	29	29	26	21	15	13	13	12	10	8	7	7	7	7	7	7	7	6	6	6	6	6	6	5	5	5	5	5	5	5	5	5	5	5	5	5	5	4	3	1	0	0	0	0	0	0	0	0	0	0	0	0	0	0	0	0	0	0	0	0	0	0	0	0	0	0	0	0	0	0	0	0	0	0	0	0	0	0	0	0	0	0	0	0	0	0	0	0	0	0	0	0	0	0	0	0	0	0	0	0	0	0	0	0	0	0	0	0	0	0	0	0	0	0	0	0	0	0	0	0	0	0	0	0	0	0	0	0	0	0	0	0	0	0	0	0	0	0	0	0	0	0	0	0	0	0	0	0	0	0	0	0	0	0	0	0	0	0	0	0	0	0	0	0	0	0	0	0	0	0	0	0	0	0	0	0	0	0	0	0	0	0	0	0	0	0	0	0	0	0	0	0	0	0	0	0	0	0	0	0	0	0	0	0	0	0	0	0	0	0	0	0	0	0	0	0	0	0	0	0	0	0	0	0	0	0	0	0	0	0	0	0	0	0	0	0	0	0	0	0	0	0	0	0	0	0	0	0	0	0	0	0	0	0	0	0	0	0	0	0	0	0	0	0	0	0	0	0	0	0	0	0	0	0	0	0	0	0	0	0	0	0	0	0	0	0	0	0	0	0	0	0	0	0	0	0	0	0	0	0	0	0	0	0	0	0	0	0	0	0	0	0	0	0	0	0	0	0	0	0	0	0	0	0	0	0	0	0	0	0	0	0	0	0	0	0	0	0	0	0	0	0	0	0	0	0	0	0	0	0	0	0	0	0	0	0	0	0	0	0	0	0	0	0	0	0	0	0	0	0	0	0	0	0	0	0	0	0	0	0	0	0	0	0	0	0	0	0	0
704	705	706	707	707	707	707	707	708	708	709	709	709	708	707	706	704	702	700	698	695	692	690	687	685	682	679	676	674	672	669	666	663	661	658	655	653	651	649	647	645	643	641	640	639	639	639	639	639	638	636	634	630	624	620	617	614	613	612	612	611	610	609	606	602	597	593	588	584	579	575	572	568	564	561	558	554	549	546	543	539	535	530	526	523	520	516	511	505	499	495	489	480	474	468	465	463	459	453	449	446	444	440	436	433	430	428	423	420	418	417	418	421	422	418	404	391	380	372	369	367	363	359	355	354	351	349	348	345	341	340	341	339	335	333	332	331	329	328	328	328	328	325	321	320	319	318	318	318	318	317	315	314	314	312	309	306	303	303	303	301	298	297	297	297	296	295	297	299	299	298	297	297	296	295	293	291	288	287	286	283	281	279	277	276	275	274	273	272	269	266	263	260	259	259	258	256	253	251	248	245	242	239	235	229	224	220	214	209	205	203	195	188	184	181	179	177	173	168	165	164	162	155	151	149	148	146	144	142	140	139	139	139	138	135	132	129	126	124	123	123	122	120	118	116	113	111	110	109	109	109	108	106	106	104	102	99	96	94	90	89	89	88	88	88	88	87	85	84	83	83	82	79	78	77	76	76	76	75	74	73	72	72	72	70	69	69	68	67	67	66	66	65	64	62	61	62	62	61	61	61	60	60	60	59	60	61	62	61	61	61	61	62	61	62	62	62	64	67	69	72	74	75	75	75	76	78	79	80	80	81	81	81	82	82	82	82	82	82	85	87	87	86	86	88	91	92	90	90	89	88	87	86	82	78	76	74	72	71	68	66	63	61	59	57	56	56	55	53	48	45	41	33	30	28	26	24	22	20	19	17	17	19	20	20	20	19	17	14	11	11	10	10	10	9	9	9	9	9	9	9	9	9	9	8	8	8	8	8	8	8	8	9	9	8	7	7	7	7	7	7	7	7	7	6	6	7	7	7	7	7	7	6	6	6	6	7	6	5	5	5	5	5	6	5	5	5	5	5	5	5	5	5	5	5	4	4	4	4	4	4	4	4	4	4	4	4	4	3	3	4	4	4	4	4	4	3	3	4	4	4	2	2	2	4	5	4	3	2	2	2	2	3	3	3	3	3	3	2	2	3	4	4	4	3	3	4	4	4	4	4	4	4	4	5	5	5	6	6	6	6	6	7	7	7	7	7	7	7	7	7	8	8	8	8	8	9	9	9	9	9	9	10	9	9	9	10	11	14	17	19	20	22	23	24	25	26	27	28	29	29	27	27	27	27	27	27	27	29	30	32	34	35	37	38	39	41	43	46	48	50	52	56	59	61	62	63	63	63	62	60	59	58	58	59	58	58	56	50	48	50	51	53	50	48	45	42	39	36	33	31	31	30	26	18	13	12	12	11	9	7	7	7	7	7	7	7	7	7	6	6	6	6	6	5	5	5	5	5	5	5	5	5	5	5	5	5	5	4	3	2	2	0	0	0	0	0	0	0	0	0	0	0	0	0	0	0	0	0	0	0	0	0	0	0	0	0	0	0	0	0	0	0	0	0	0	0	0	0	0	0	0	0	0	0	0	0	0	0	0	0	0	0	0	0	0	0	0	0	0	0	0	0	0	0	0	0	0	0	0	0	0	0	0	0	0	0	0	0	0	0	0	0	0	0	0	0	0	0	0	0	0	0	0	0	0	0	0	0	0	0	0	0	0	0	0	0	0	0	0	0	0	0	0	0	0	0	0	0	0	0	0	0	0	0	0	0	0	0	0	0	0	0	0	0	0	0	0	0	0	0	0	0	0	0	0	0	0	0	0	0	0	0	0	0	0	0	0	0	0	0	0	0	0	0	0	0	0	0	0	0	0	0	0	0	0	0	0	0	0	0	0	0	0	0	0	0	0	0	0	0	0	0	0	0	0	0	0	0	0	0	0	0	0	0	0	0	0	0	0	0	0	0	0	0	0	0	0	0	0	0	0	0	0	0	0	0	0	0	0	0	0	0	0	0	0	0	0	0	0	0	0	0	0	0	0	0	0	0	0	0	0	0	0	0	0	0	0	0	0	0	0	0	0	0	0	0	0	0	0	0	0	0	0	0	0	0	0	0	0	0	0	0	0	0	0	0	0	0	0	0	0	0	0	0	0	0	0	0	0	0	0	0	0	0	0	0	0	0	0	0	0	0	0	0	0	0	0	0	0	0	0	0	0	0	0	0	0	0	0	0	0	0	0	0	0	0	0	0	0	0	0	0	0	0	0	0	0	0	0
706	707	708	709	709	709	709	709	710	711	711	711	711	710	709	708	706	704	702	700	697	694	691	689	686	683	680	677	675	672	669	666	663	661	658	655	653	651	649	648	646	644	642	641	641	641	642	642	643	641	639	636	632	626	621	617	614	612	610	609	608	607	605	603	600	596	592	588	584	580	575	571	568	565	562	560	556	552	548	544	541	538	534	530	527	523	518	512	506	500	494	488	481	475	470	466	464	461	456	451	447	444	441	439	438	436	434	430	424	423	422	423	426	425	421	410	397	385	374	370	369	365	361	357	356	352	349	347	345	340	336	335	333	330	328	328	326	325	325	326	327	326	323	319	317	316	316	315	314	314	313	312	312	311	308	306	304	302	302	300	298	297	296	295	294	293	294	296	298	297	296	296	295	294	293	292	290	287	285	284	281	279	277	274	273	272	272	272	271	269	264	260	258	256	256	255	253	250	247	244	242	239	236	232	227	224	219	213	207	203	200	194	189	186	183	182	180	175	170	168	166	164	159	154	152	150	148	146	145	142	140	139	139	139	137	134	130	127	126	125	124	123	120	117	115	113	111	110	109	109	108	107	106	106	105	103	100	98	95	92	90	88	87	86	86	86	86	85	84	83	82	81	78	77	77	76	76	76	75	74	73	72	72	71	70	70	69	68	67	67	66	66	65	64	63	62	61	60	60	60	60	59	59	59	58	58	59	59	59	58	58	59	60	60	60	60	61	63	66	67	69	70	71	72	71	72	74	75	76	76	77	77	78	79	79	78	79	79	80	81	82	82	81	82	86	90	90	89	88	88	87	86	85	81	77	76	75	73	71	69	67	64	62	60	58	57	56	55	53	49	47	44	38	32	30	28	26	24	22	21	20	18	20	21	21	20	19	18	15	12	11	11	10	10	9	9	9	9	9	9	9	9	8	8	8	8	8	8	8	8	8	9	9	9	8	8	7	7	7	7	7	7	7	7	7	7	7	7	7	7	7	6	6	6	6	6	6	6	6	6	5	5	5	6	6	5	5	5	5	5	5	5	5	5	5	5	4	4	4	4	4	4	4	4	4	4	4	4	4	4	4	4	4	4	4	4	4	4	4	4	4	2	2	2	3	5	4	3	2	2	2	2	3	3	3	3	3	3	3	3	4	4	4	4	4	4	4	4	4	4	4	4	5	5	6	6	6	6	6	6	6	6	6	7	7	7	7	7	7	7	7	7	8	8	8	8	9	9	9	9	9	9	9	9	9	9	9	9	10	12	13	15	16	17	18	20	21	23	24	26	26	26	25	25	25	25	26	27	29	31	32	34	36	37	38	40	41	44	46	48	50	52	55	58	60	60	61	61	60	61	61	61	61	61	60	59	58	57	56	55	55	55	53	51	49	47	44	43	40	37	34	33	30	25	17	13	12	12	11	9	7	7	7	7	7	7	7	7	7	7	6	6	6	5	5	5	5	5	5	5	5	5	5	5	5	5	5	4	4	3	4	4	2	0	0	0	0	0	0	0	0	0	0	0	0	0	0	0	0	0	0	0	0	0	0	0	0	0	0	0	0	0	0	0	0	0	0	0	0	0	0	0	0	0	0	0	0	0	0	0	0	0	0	0	0	0	0	0	0	0	0	0	0	0	0	0	0	0	0	0	0	0	0	0	0	0	0	0	0	0	0	0	0	0	0	0	0	0	0	0	0	0	0	0	0	0	0	0	0	0	0	0	0	0	0	0	0	0	0	0	0	0	0	0	0	0	0	0	0	0	0	0	0	0	0	0	0	0	0	0	0	0	0	0	0	0	0	0	0	0	0	0	0	0	0	0	0	0	0	0	0	0	0	0	0	0	0	0	0	0	0	0	0	0	0	0	0	0	0	0	0	0	0	0	0	0	0	0	0	0	0	0	0	0	0	0	0	0	0	0	0	0	0	0	0	0	0	0	0	0	0	0	0	0	0	0	0	0	0	0	0	0	0	0	0	0	0	0	0	0	0	0	0	0	0	0	0	0	0	0	0	0	0	0	0	0	0	0	0	0	0	0	0	0	0	0	0	0	0	0	0	0	0	0	0	0	0	0	0	0	0	0	0	0	0	0	0	0	0	0	0	0	0	0	0	0	0	0	0	0	0	0	0	0	0	0	0	0	0	0	0	0	0	0	0	0	0	0	0	0	0	0	0	0	0	0	0	0	0	0	0	0	0	0	0	0	0	0	0	0	0	0	0	0	0	0	0	0	0	0	0	0	0	0	0	0	0	0	0	0	0	0	0	0	0	0	0	0	0	0
707	709	710	710	711	711	711	711	712	713	713	713	713	712	711	710	708	705	703	701	698	696	693	690	687	684	681	678	676	673	670	666	664	661	658	656	654	652	650	648	646	645	643	643	643	644	645	645	646	644	641	638	633	628	623	618	615	612	609	607	605	603	602	600	597	594	591	588	584	581	576	572	569	567	564	562	560	557	552	548	544	541	537	533	529	524	518	512	506	500	494	488	481	474	471	468	466	463	459	453	448	445	442	441	441	440	438	435	430	428	426	425	427	425	420	411	400	390	378	372	370	368	364	361	358	356	352	348	345	341	336	333	332	330	327	324	323	322	322	324	325	324	321	316	314	313	313	312	310	309	308	308	308	306	304	302	300	300	299	297	296	295	294	293	292	292	293	295	296	295	295	294	293	291	291	290	288	285	283	282	280	278	276	272	270	270	270	271	270	266	262	259	257	255	254	252	249	247	244	241	238	236	233	229	226	222	218	212	206	202	199	194	191	188	185	184	181	176	172	170	168	166	163	159	156	154	151	149	148	145	142	141	141	139	138	136	132	129	127	126	125	124	121	118	115	113	112	112	110	109	109	108	106	106	105	103	100	98	95	94	92	89	88	87	86	85	84	83	83	82	81	79	78	77	76	76	76	76	75	74	73	72	71	71	70	70	69	68	67	67	67	66	65	63	62	61	60	59	59	59	59	59	58	58	57	57	57	57	57	57	56	57	58	58	58	59	60	62	64	65	66	67	68	68	68	69	70	72	73	74	74	73	74	74	75	75	75	76	78	79	78	77	77	77	81	85	86	86	87	87	87	85	82	80	78	78	76	74	71	69	67	65	63	62	61	59	57	56	54	51	49	46	42	38	35	32	30	27	25	22	20	19	21	22	21	20	20	19	16	13	11	10	10	9	9	9	9	9	9	9	9	9	8	8	8	8	8	8	8	8	9	9	9	9	9	8	8	8	7	7	7	7	7	7	7	7	7	7	6	6	6	6	6	6	6	6	6	6	6	6	5	5	5	6	6	5	5	5	5	5	5	5	5	5	5	5	5	4	4	4	4	4	4	4	4	4	4	4	4	4	4	4	4	4	4	3	4	4	4	4	4	2	2	2	3	5	4	3	2	2	3	3	3	3	3	3	3	3	4	4	4	4	4	4	4	4	3	3	4	4	5	5	6	6	7	7	6	6	6	6	6	6	6	6	7	7	7	7	7	7	7	7	7	7	8	8	9	9	9	9	9	9	9	9	9	9	9	9	9	9	10	11	12	12	13	14	16	18	20	21	23	23	23	23	22	23	24	25	28	31	32	34	35	37	38	40	43	45	47	49	51	53	55	58	59	60	61	62	61	61	62	62	62	61	60	59	58	57	58	58	58	57	54	52	51	49	47	45	44	40	37	35	31	25	19	13	11	11	10	8	7	7	7	7	7	7	7	7	7	6	6	6	5	5	5	5	5	5	5	5	5	5	5	5	5	5	4	4	4	4	5	5	2	0	0	0	0	0	0	0	0	0	0	0	0	0	0	0	0	0	0	0	0	0	0	0	0	0	0	0	0	0	0	0	0	0	0	0	0	0	0	0	0	0	0	0	0	0	0	0	0	0	0	0	0	0	0	0	0	0	0	0	0	0	0	0	0	0	0	0	0	0	0	0	0	0	0	0	0	0	0	0	0	0	0	0	0	0	0	0	0	0	0	0	0	0	0	0	0	0	0	0	0	0	0	0	0	0	0	0	0	0	0	0	0	0	0	0	0	0	0	0	0	0	0	0	0	0	0	0	0	0	0	0	0	0	0	0	0	0	0	0	0	0	0	0	0	0	0	0	0	0	0	0	0	0	0	0	0	0	0	0	0	0	0	0	0	0	0	0	0	0	0	0	0	0	0	0	0	0	0	0	0	0	0	0	0	0	0	0	0	0	0	0	0	0	0	0	0	0	0	0	0	0	0	0	0	0	0	0	0	0	0	0	0	0	0	0	0	0	0	0	0	0	0	0	0	0	0	0	0	0	0	0	0	0	0	0	0	0	0	0	0	0	0	0	0	0	0	0	0	0	0	0	0	0	0	0	0	0	0	0	0	0	0	0	0	0	0	0	0	0	0	0	0	0	0	0	0	0	0	0	0	0	0	0	0	0	0	0	0	0	0	0	0	0	0	0	0	0	0	0	0	0	0	0	0	0	0	0	0	0	0	0	0	0	0	0	0	0	0	0	0	0	0	0	0	0	0	0	0	0	0	0	0	0	0	0	0	0	0	0	0	0	0	0	0	0	0	0
709	711	712	713	713	713	713	714	714	715	715	715	715	714	713	711	709	707	705	702	700	697	694	691	688	685	682	679	676	673	670	667	664	662	659	657	655	653	651	649	647	645	645	645	646	646	646	647	647	645	643	639	635	630	625	620	617	613	610	606	603	601	599	597	595	592	589	587	584	581	577	574	571	570	568	566	563	560	555	551	547	543	538	534	529	523	518	512	506	500	494	488	481	474	471	469	468	466	461	457	453	449	447	445	443	440	438	436	432	429	427	424	423	421	417	411	401	393	382	375	372	370	367	362	360	358	355	350	347	342	338	335	334	331	327	323	321	320	320	320	322	322	319	314	311	310	309	308	307	305	304	304	304	302	301	300	296	295	295	295	294	293	292	291	291	291	292	293	293	293	292	291	291	290	290	289	287	283	281	281	280	278	276	271	269	269	268	268	266	263	259	258	257	255	252	249	246	243	241	238	236	233	230	227	223	220	215	209	205	202	198	195	192	190	187	185	182	178	174	171	169	167	166	163	159	156	155	153	153	151	148	146	144	141	139	139	137	132	129	127	127	126	124	120	117	115	114	114	113	111	111	109	107	106	105	103	100	98	96	95	94	92	90	89	88	86	84	83	83	81	81	80	78	77	76	75	76	76	75	75	74	73	71	70	70	69	69	68	66	66	66	66	64	61	60	59	59	59	59	58	58	58	57	56	55	55	56	55	55	55	56	57	57	56	56	57	59	61	62	63	64	65	65	66	66	67	67	69	72	72	71	70	69	70	71	71	72	73	76	76	75	74	74	74	75	78	81	83	85	86	86	83	80	78	77	78	77	75	71	69	68	66	65	64	63	60	58	57	55	53	49	46	44	42	39	37	34	29	25	23	19	19	21	21	20	20	20	19	17	13	11	10	10	10	9	9	9	9	9	9	9	9	9	8	8	8	8	8	8	8	9	9	9	9	9	9	8	8	7	7	7	7	7	7	7	7	6	6	6	6	6	6	6	6	6	6	6	6	6	6	6	5	5	6	6	5	5	5	5	5	5	5	5	5	5	5	5	4	4	4	4	4	4	4	4	4	4	4	4	4	4	4	4	4	4	4	4	4	4	4	4	2	2	2	3	4	4	3	3	3	3	3	3	3	3	3	3	3	4	4	4	4	4	4	4	3	3	4	5	5	6	6	6	6	6	7	6	6	6	6	6	6	6	6	6	7	7	7	7	7	7	7	7	7	7	8	8	9	9	9	9	9	9	9	9	9	9	9	9	9	9	9	9	9	10	10	11	13	14	16	18	20	20	20	20	20	21	23	27	30	32	33	35	36	38	41	43	46	47	49	51	53	56	58	59	60	62	63	63	61	60	60	60	60	60	59	58	58	58	58	58	57	55	54	53	52	49	47	46	43	38	35	30	25	20	14	11	11	10	8	7	7	7	7	7	7	7	7	7	6	6	6	5	5	5	5	5	5	5	5	5	5	5	5	5	5	4	4	4	4	5	5	3	1	0	0	0	0	0	0	0	0	0	0	0	0	0	0	0	0	0	0	0	0	0	0	0	0	0	0	0	0	0	0	0	0	0	0	0	0	0	0	0	0	0	0	0	0	0	0	0	0	0	0	0	0	0	0	0	0	0	0	0	0	0	0	0	0	0	0	0	0	0	0	0	0	0	0	0	0	0	0	0	0	0	0	0	0	0	0	0	0	0	0	0	0	0	0	0	0	0	0	0	0	0	0	0	0	0	0	0	0	0	0	0	0	0	0	0	0	0	0	0	0	0	0	0	0	0	0	0	0	0	0	0	0	0	0	0	0	0	0	0	0	0	0	0	0	0	0	0	0	0	0	0	0	0	0	0	0	0	0	0	0	0	0	0	0	0	0	0	0	0	0	0	0	0	0	0	0	0	0	0	0	0	0	0	0	0	0	0	0	0	0	0	0	0	0	0	0	0	0	0	0	0	0	0	0	0	0	0	0	0	0	0	0	0	0	0	0	0	0	0	0	0	0	0	0	0	0	0	0	0	0	0	0	0	0	0	0	0	0	0	0	0	0	0	0	0	0	0	0	0	0	0	0	0	0	0	0	0	0	0	0	0	0	0	0	0	0	0	0	0	0	0	0	0	0	0	0	0	0	0	0	0	0	0	0	0	0	0	0	0	0	0	0	0	0	0	0	0	0	0	0	0	0	0	0	0	0	0	0	0	0	0	0	0	0	0	0	0	0	0	0	0	0	0	0	0	0	0	0	0	0	0	0	0	0	0	0	0	0	0	0	0	0	0	0	0	0
711	713	714	715	716	716	716	716	716	717	717	717	717	717	715	713	711	708	706	703	701	698	695	691	688	685	682	679	676	673	670	668	665	663	660	658	656	654	652	650	648	647	647	647	647	647	646	646	646	645	642	639	635	631	627	623	619	615	611	607	603	600	597	595	593	590	588	586	583	581	578	575	574	573	572	570	567	563	558	554	550	545	539	533	528	523	517	512	506	500	494	488	481	476	472	471	471	469	463	459	457	454	450	448	444	441	438	435	432	429	427	422	418	416	414	409	401	395	385	377	373	372	369	363	360	359	356	352	348	344	340	337	336	334	330	325	320	318	317	316	316	316	314	311	308	305	304	303	303	302	301	301	300	299	299	298	292	291	292	293	293	291	290	290	290	290	290	291	291	290	289	288	288	290	290	288	286	282	280	279	279	277	274	272	270	269	267	265	264	261	258	256	255	253	249	246	243	241	239	237	234	231	227	223	220	216	212	208	204	202	198	195	192	191	188	186	183	179	176	173	170	168	167	164	161	159	157	156	156	154	152	150	148	145	142	142	141	137	133	129	129	128	125	122	118	116	116	116	115	114	113	111	108	107	106	104	101	99	97	96	94	93	91	90	90	88	86	84	83	81	80	80	79	78	76	75	75	75	75	75	74	73	71	70	69	68	68	67	65	65	65	64	62	60	58	57	58	58	58	58	58	57	56	55	54	54	54	53	53	53	54	55	55	55	55	56	58	60	61	61	62	63	63	64	64	65	65	67	70	71	69	66	66	66	67	67	69	71	72	73	72	72	71	71	72	74	76	80	83	84	81	79	77	76	76	75	75	75	73	70	68	67	67	66	64	61	58	57	56	54	50	48	46	44	41	39	37	32	27	24	21	21	21	19	19	20	20	20	18	14	11	10	10	10	9	9	9	9	9	9	9	9	9	9	8	8	8	8	8	8	9	9	8	8	8	9	9	8	8	7	7	7	7	7	7	7	6	6	6	6	6	6	6	6	6	6	6	5	6	6	6	5	5	6	6	5	5	5	5	5	5	5	5	5	5	5	5	4	4	4	4	4	4	4	4	4	4	5	4	4	4	4	4	4	4	4	4	4	4	4	4	2	2	2	3	4	4	4	3	3	2	3	3	3	3	3	3	4	4	4	4	4	5	5	4	4	5	5	6	6	7	6	6	6	6	7	7	6	7	7	7	6	6	6	6	6	7	7	7	7	7	7	7	7	7	7	8	8	8	8	8	9	9	9	9	9	9	9	9	9	9	9	9	9	9	9	9	10	11	11	13	16	17	18	18	19	20	22	26	29	31	33	35	37	39	41	43	46	48	49	51	54	57	59	60	61	63	64	64	61	59	59	59	59	59	59	59	59	59	59	58	57	57	57	56	54	52	50	50	47	40	34	29	24	20	14	10	10	9	8	7	7	7	7	7	7	7	7	7	6	6	6	5	5	5	5	5	5	5	5	5	5	5	5	5	5	5	5	5	5	5	5	4	3	2	2	1	1	0	0	0	0	0	0	0	0	0	0	0	0	0	0	0	0	0	0	0	0	0	0	0	0	0	0	0	0	0	0	0	0	0	0	0	0	0	0	0	0	0	0	0	0	0	0	0	0	0	0	0	0	0	0	0	0	0	0	0	0	0	0	0	0	0	0	0	0	0	0	0	0	0	0	0	0	0	0	0	0	0	0	0	0	0	0	0	0	0	0	0	0	0	0	0	0	0	0	0	0	0	0	0	0	0	0	0	0	0	0	0	0	0	0	0	0	0	0	0	0	0	0	0	0	0	0	0	0	0	0	0	0	0	0	0	0	0	0	0	0	0	0	0	0	0	0	0	0	0	0	0	0	0	0	0	0	0	0	0	0	0	0	0	0	0	0	0	0	0	0	0	0	0	0	0	0	0	0	0	0	0	0	0	0	0	0	0	0	0	0	0	0	0	0	0	0	0	0	0	0	0	0	0	0	0	0	0	0	0	0	0	0	0	0	0	0	0	0	0	0	0	0	0	0	0	0	0	0	0	0	0	0	0	0	0	0	0	0	0	0	0	0	0	0	0	0	0	0	0	0	0	0	0	0	0	0	0	0	0	0	0	0	0	0	0	0	0	0	0	0	0	0	0	0	0	0	0	0	0	0	0	0	0	0	0	0	0	0	0	0	0	0	0	0	0	0	0	0	0	0	0	0	0	0	0	0	0	0	0	0	0	0	0	0	0	0	0	0	0	0	0	0	0	0	0	0	0	0	0	0	0	0	0	0	0	0	0	0	0	0	0	0
713	715	716	717	718	718	718	718	718	718	719	720	719	719	717	715	712	710	707	704	701	698	695	692	689	686	683	680	677	674	671	669	667	664	662	660	657	655	652	650	649	649	649	649	648	647	646	646	645	644	642	638	635	631	628	624	620	616	612	608	604	601	597	594	591	589	587	585	583	581	579	578	577	577	575	573	569	565	561	557	553	546	539	533	527	522	517	511	505	499	494	489	484	479	476	475	474	472	468	462	458	454	451	448	444	440	436	433	430	427	424	420	415	413	410	406	399	394	387	380	375	373	370	364	359	358	356	353	349	345	342	340	338	335	332	327	322	318	315	312	311	309	308	306	304	301	300	300	300	299	298	298	297	297	296	294	289	288	290	291	291	290	289	288	288	288	288	288	289	288	287	286	286	289	289	287	284	281	278	278	277	275	271	271	271	269	266	264	263	260	256	253	251	249	245	243	241	240	238	235	232	228	224	221	218	215	212	208	204	201	198	195	193	191	188	186	183	180	178	175	172	169	168	166	163	162	160	158	157	155	154	152	150	147	144	143	142	140	135	131	129	128	126	122	119	118	118	118	118	116	115	113	110	108	107	105	103	100	98	96	94	93	92	91	91	90	89	86	84	82	80	80	79	78	76	74	74	74	74	74	73	71	70	70	69	68	67	66	64	64	63	62	60	59	58	57	57	58	58	57	57	56	54	54	54	53	52	52	51	51	51	52	53	53	54	55	57	58	59	59	60	61	61	62	62	63	64	66	69	69	66	64	64	64	63	63	65	68	70	70	70	69	68	68	69	71	73	77	80	80	77	75	74	74	75	74	73	74	73	70	68	67	67	66	65	62	59	57	56	55	52	50	48	46	43	40	38	36	31	26	23	24	21	18	18	19	20	21	20	16	13	11	11	10	10	10	9	9	9	9	9	9	9	9	9	8	8	8	8	8	8	8	8	8	8	8	9	8	8	7	7	7	7	7	7	7	6	6	6	6	6	6	6	6	5	5	5	5	5	5	5	5	5	6	6	5	5	5	5	5	5	5	5	5	5	5	5	4	4	4	4	4	4	4	4	4	4	4	4	4	4	4	4	4	4	4	4	4	4	4	4	3	2	2	3	4	4	4	3	3	3	3	3	4	4	4	4	4	4	4	5	5	6	6	6	6	6	6	6	6	6	6	6	6	6	6	6	6	6	7	7	7	6	6	6	6	6	7	7	7	7	7	7	7	7	7	7	7	7	8	8	8	8	9	9	9	9	9	9	9	9	9	9	9	9	9	9	9	9	10	10	13	15	17	18	19	20	23	27	30	31	33	35	37	40	42	44	46	48	50	52	55	58	60	61	61	63	64	63	62	60	59	59	59	59	59	59	59	59	59	58	58	58	58	57	56	54	53	54	51	41	33	28	25	21	14	10	9	9	8	7	7	7	7	7	7	7	7	7	7	6	6	5	5	5	5	5	5	5	5	5	5	5	5	5	5	5	5	5	5	5	5	5	4	4	4	3	3	2	1	1	0	0	0	0	0	0	0	0	0	0	0	0	0	0	0	0	0	0	0	0	0	0	0	0	0	0	0	0	0	0	0	0	0	0	0	0	0	0	0	0	0	0	0	0	0	0	0	0	0	0	0	0	0	0	0	0	0	0	0	0	0	0	0	0	0	0	0	0	0	0	0	0	0	0	0	0	0	0	0	0	0	0	0	0	0	0	0	0	0	0	0	0	0	0	0	0	0	0	0	0	0	0	0	0	0	0	0	0	0	0	0	0	0	0	0	0	0	0	0	0	0	0	0	0	0	0	0	0	0	0	0	0	0	0	0	0	0	0	0	0	0	0	0	0	0	0	0	0	0	0	0	0	0	0	0	0	0	0	0	0	0	0	0	0	0	0	0	0	0	0	0	0	0	0	0	0	0	0	0	0	0	0	0	0	0	0	0	0	0	0	0	0	0	0	0	0	0	0	0	0	0	0	0	0	0	0	0	0	0	0	0	0	0	0	0	0	0	0	0	0	0	0	0	0	0	0	0	0	0	0	0	0	0	0	0	0	0	0	0	0	0	0	0	0	0	0	0	0	0	0	0	0	0	0	0	0	0	0	0	0	0	0	0	0	0	0	0	0	0	0	0	0	0	0	0	0	0	0	0	0	0	0	0	0	0	0	0	0	0	0	0	0	0	0	0	0	0	0	0	0	0	0	0	0	0	0	0	0	0	0	0	0	0	0	0	0	0	0	0	0	0	0	0	0	0	0	0	0	0	0	0	0	0	0	0	0	0	0	0
715	716	718	719	720	720	720	720	719	720	721	721	721	720	719	716	714	711	708	705	702	699	696	693	690	687	684	681	678	676	673	670	668	666	663	660	658	655	653	652	651	652	651	650	649	647	646	645	644	643	641	638	635	631	627	624	620	616	613	609	606	602	598	594	591	589	586	584	583	582	581	581	581	580	578	574	570	566	562	557	553	546	538	532	527	521	516	510	505	499	496	492	487	484	481	479	478	475	470	465	459	454	451	448	443	438	434	431	429	426	422	417	412	409	407	403	398	393	387	381	377	375	371	365	360	357	355	354	351	347	345	345	340	336	332	329	326	321	315	313	311	308	305	302	301	298	298	298	297	296	295	294	294	293	293	290	286	286	288	289	290	289	288	286	286	286	286	286	287	286	284	286	288	289	288	286	283	280	278	277	276	273	270	270	270	267	263	261	260	258	254	251	248	245	242	241	240	238	235	233	230	226	223	220	218	215	212	208	203	200	198	195	193	191	189	187	184	183	181	178	175	173	171	170	167	165	163	160	158	157	155	154	152	148	145	145	144	141	136	132	130	129	127	122	119	119	120	121	120	119	116	114	112	110	109	106	104	101	99	97	95	93	93	93	92	91	90	88	86	84	82	80	80	80	78	75	73	74	73	72	71	70	70	70	69	68	68	65	64	63	62	60	59	58	58	57	56	56	56	56	56	55	54	53	53	52	51	51	50	50	49	50	51	52	53	54	56	56	57	58	59	59	60	60	60	60	62	64	67	66	64	62	62	62	61	60	62	65	67	67	67	67	65	66	67	69	70	73	75	75	74	73	72	73	74	74	72	72	71	69	67	66	66	65	64	63	60	58	57	56	54	51	49	47	45	43	40	38	35	29	25	25	23	19	18	18	20	21	20	17	14	12	12	11	10	10	10	9	9	9	9	9	9	9	9	8	8	8	8	9	8	8	7	8	8	8	8	8	8	8	7	7	7	7	7	7	6	6	6	6	6	6	6	6	5	5	5	5	5	5	5	5	5	5	5	5	5	5	5	5	5	5	5	5	5	5	5	4	4	4	4	4	4	4	4	4	4	4	4	4	4	3	3	4	4	4	4	4	4	4	4	2	2	2	3	4	4	4	4	3	3	3	4	4	4	4	4	4	4	5	6	6	6	7	6	6	6	6	6	6	6	6	6	6	6	6	6	6	6	7	7	7	6	6	6	6	6	7	7	7	7	7	7	7	7	7	7	7	7	7	7	7	8	8	8	9	9	9	9	9	9	9	9	9	9	9	9	9	9	9	10	13	16	18	19	19	21	25	28	31	33	35	37	38	40	43	46	48	49	51	52	54	57	61	63	62	62	63	63	63	61	60	59	59	59	59	59	59	59	59	59	59	59	58	58	57	55	55	55	53	43	32	28	25	21	15	9	9	8	8	7	7	7	7	7	7	7	7	7	7	6	6	6	5	5	5	5	5	5	5	5	5	5	5	5	5	5	5	5	5	5	5	5	5	5	5	5	4	4	4	3	2	2	1	0	0	0	0	0	0	0	0	0	0	0	0	0	0	0	0	0	0	0	0	0	0	0	0	0	0	0	0	0	0	0	0	0	0	0	0	0	0	0	0	0	0	0	0	0	0	0	0	0	0	0	0	0	0	0	0	0	0	0	0	0	0	0	0	0	0	0	0	0	0	0	0	0	0	0	0	0	0	0	0	0	0	0	0	0	0	0	0	0	0	0	0	0	0	0	0	0	0	0	0	0	0	0	0	0	0	0	0	0	0	0	0	0	0	0	0	0	0	0	0	0	0	0	0	0	0	0	0	0	0	0	0	0	0	0	0	0	0	0	0	0	0	0	0	0	0	0	0	0	0	0	0	0	0	0	0	0	0	0	0	0	0	0	0	0	0	0	0	0	0	0	0	0	0	0	0	0	0	0	0	0	0	0	0	0	0	0	0	0	0	0	0	0	0	0	0	0	0	0	0	0	0	0	0	0	0	0	0	0	0	0	0	0	0	0	0	0	0	0	0	0	0	0	0	0	0	0	0	0	0	0	0	0	0	0	0	0	0	0	0	0	0	0	0	0	0	0	0	0	0	0	0	0	0	0	0	0	0	0	0	0	0	0	0	0	0	0	0	0	0	0	0	0	0	0	0	0	0	0	0	0	0	0	0	0	0	0	0	0	0	0	0	0	0	0	0	0	0	0	0	0	0	0	0	0	0	0	0	0	0	0	0	0	0	0	0	0	0	0	0	0	0	0	0	0	0	0	0	0	0	0	0	0	0	0	0
717	719	720	722	723	723	722	722	721	721	722	723	723	722	720	718	715	712	709	706	703	700	697	694	691	688	686	683	680	678	675	672	669	666	664	661	658	657	655	654	654	654	653	651	649	647	646	644	644	642	640	638	635	631	627	623	620	616	612	609	606	603	599	595	591	589	586	585	584	584	584	584	583	582	579	575	571	566	561	557	551	544	536	531	525	520	515	510	506	501	498	494	491	488	486	483	480	476	471	465	459	454	450	447	442	435	431	429	427	424	419	413	408	406	403	400	396	391	385	381	378	375	370	365	360	356	354	354	351	347	346	346	340	335	332	330	329	324	318	316	313	309	307	304	300	297	296	295	294	293	292	291	290	289	289	286	284	284	286	287	288	288	286	284	283	283	284	284	284	283	282	286	289	288	286	285	283	280	277	276	274	271	270	269	267	263	260	259	258	256	253	249	245	243	242	240	239	236	233	230	227	224	222	219	217	214	211	207	203	200	197	195	193	191	190	188	186	185	183	182	179	176	175	173	170	168	166	163	161	158	157	155	153	150	148	147	145	142	137	133	131	129	128	124	120	121	122	123	122	120	118	115	113	111	110	107	104	102	100	98	96	95	94	93	92	91	91	90	89	87	85	83	82	81	80	77	75	75	73	72	71	70	70	69	69	69	68	65	63	63	62	60	58	58	58	56	54	54	54	55	54	54	54	53	52	51	50	49	50	50	49	50	51	51	52	53	55	55	55	56	57	57	57	57	57	57	58	60	61	60	59	58	58	58	58	58	59	61	63	64	65	65	64	64	66	68	68	70	74	75	74	71	70	71	73	74	72	70	69	68	67	66	65	65	64	63	61	59	58	58	56	53	50	49	48	45	42	40	37	32	27	25	23	20	19	19	21	22	20	17	15	13	12	12	11	11	11	9	9	9	9	9	9	8	8	8	9	9	9	8	8	7	7	7	8	8	8	8	8	8	7	7	7	7	7	7	6	6	6	6	6	6	6	6	6	6	6	6	5	5	5	5	5	5	5	5	5	5	5	5	5	5	5	5	5	5	5	5	4	4	4	4	4	4	4	4	4	4	4	4	4	3	4	4	4	4	4	4	4	4	4	2	2	3	3	3	3	4	4	4	4	3	3	4	4	4	4	4	5	6	7	6	6	6	6	6	6	6	6	6	6	7	7	6	6	6	6	6	6	7	7	6	6	6	6	6	6	6	6	6	7	7	7	7	7	7	7	7	7	7	7	7	7	7	8	8	8	9	9	9	9	9	9	9	9	9	9	9	9	10	15	17	19	20	20	20	22	27	30	32	33	36	37	38	40	43	46	48	49	51	52	54	57	60	64	62	61	61	62	62	61	60	59	59	59	59	59	59	59	59	59	59	59	59	58	57	56	56	55	52	40	31	28	26	22	15	9	8	8	7	7	7	7	7	7	7	7	7	7	6	6	6	6	5	5	5	5	5	5	5	5	5	5	5	5	5	5	5	5	5	5	5	5	5	5	5	5	5	5	5	4	4	4	3	1	0	0	0	0	0	0	0	0	0	0	0	0	0	0	0	0	0	0	0	0	0	0	0	0	0	0	0	0	0	0	0	0	0	0	0	0	0	0	0	0	0	0	0	0	0	0	0	0	0	0	0	0	0	0	0	0	0	0	0	0	0	0	0	0	0	0	0	0	0	0	0	0	0	0	0	0	0	0	0	0	0	0	0	0	0	0	0	0	0	0	0	0	0	0	0	0	0	0	0	0	0	0	0	0	0	0	0	0	0	0	0	0	0	0	0	0	0	0	0	0	0	0	0	0	0	0	0	0	0	0	0	0	0	0	0	0	0	0	0	0	0	0	0	0	0	0	0	0	0	0	0	0	0	0	0	0	0	0	0	0	0	0	0	0	0	0	0	0	0	0	0	0	0	0	0	0	0	0	0	0	0	0	0	0	0	0	0	0	0	0	0	0	0	0	0	0	0	0	0	0	0	0	0	0	0	0	0	0	0	0	0	0	0	0	0	0	0	0	0	0	0	0	0	0	0	0	0	0	0	0	0	0	0	0	0	0	0	0	0	0	0	0	0	0	0	0	0	0	0	0	0	0	0	0	0	0	0	0	0	0	0	0	0	0	0	0	0	0	0	0	0	0	0	0	0	0	0	0	0	0	0	0	0	0	0	0	0	0	0	0	0	0	0	0	0	0	0	0	0	0	0	0	0	0	0	0	0	0	0	0	0	0	0	0	0	0	0	0	0	0	0	0	0	0	0	0	0	0	0	0	0	0	0	0	0
719	721	724	725	725	725	725	724	723	723	724	724	724	723	722	720	717	713	710	707	704	701	699	696	693	690	688	685	682	679	676	673	669	666	664	661	659	659	658	657	656	655	654	652	649	647	645	644	643	642	640	638	635	632	628	624	619	615	611	607	605	602	598	594	591	588	587	586	586	586	587	586	584	581	578	574	570	565	560	555	549	541	534	529	524	518	513	510	507	503	500	496	493	490	487	484	481	476	472	466	460	454	450	445	440	433	429	427	425	422	416	409	405	403	400	396	392	388	384	380	377	373	368	364	360	357	354	352	350	346	345	344	339	335	333	332	329	325	321	320	316	311	310	310	305	299	296	293	292	290	289	287	286	284	283	282	281	282	284	285	286	286	283	281	280	281	281	282	282	282	282	286	288	286	284	283	281	278	276	275	272	270	269	269	266	262	260	259	258	256	252	247	244	243	241	240	237	234	231	228	225	223	221	218	215	212	208	205	203	200	197	194	192	192	193	192	189	187	185	184	182	179	177	175	173	171	169	167	164	161	158	157	155	152	150	148	146	142	137	134	131	129	128	126	123	123	123	123	123	121	119	116	114	112	110	107	105	103	101	99	98	96	95	93	93	92	91	91	91	89	87	86	84	83	81	79	77	76	74	72	71	71	70	70	69	69	67	65	64	63	62	60	58	57	57	56	54	53	53	54	54	53	53	53	52	50	48	48	48	49	49	49	49	49	50	51	52	53	53	54	55	55	55	56	55	54	54	55	56	55	54	54	53	54	55	56	57	58	59	61	63	63	63	63	65	66	67	68	71	73	71	68	68	70	72	72	72	69	68	68	68	67	66	65	64	64	62	59	57	58	58	56	52	50	49	47	44	42	38	33	28	27	26	23	20	20	22	21	19	18	17	15	14	13	13	13	13	11	11	10	10	9	9	9	9	9	9	9	9	8	7	7	7	7	7	8	8	8	8	7	7	7	7	6	6	6	6	6	6	6	6	6	6	6	6	6	6	6	6	6	6	5	5	5	5	5	5	5	5	5	5	5	5	5	5	5	5	5	4	4	5	4	4	4	4	4	4	4	4	4	4	3	3	4	4	4	4	4	4	4	4	2	2	3	4	4	3	3	3	4	4	4	4	4	4	4	4	4	5	6	7	6	6	6	6	6	6	6	6	6	7	7	7	6	6	6	6	6	6	7	6	6	6	6	6	6	6	6	6	6	6	7	7	7	7	7	7	7	7	7	7	7	7	7	7	7	7	8	8	8	9	9	9	9	9	9	9	9	9	11	16	20	22	22	21	22	24	28	30	31	33	35	37	38	40	43	45	47	48	50	52	55	57	58	60	60	59	59	60	60	59	59	59	59	59	59	59	59	59	59	59	59	59	59	59	58	56	54	52	46	37	31	28	27	20	12	8	8	7	7	7	7	7	7	7	7	7	7	6	6	6	6	6	5	5	5	5	5	5	5	5	5	5	5	5	5	5	5	5	5	5	5	5	5	5	5	5	5	5	5	5	5	5	4	2	0	0	0	0	0	0	0	0	0	0	0	0	0	0	0	0	0	0	0	0	0	0	0	0	0	0	0	0	0	0	0	0	0	0	0	0	0	0	0	0	0	0	0	0	0	0	0	0	0	0	0	0	0	0	0	0	0	0	0	0	0	0	0	0	0	0	0	0	0	0	0	0	0	0	0	0	0	0	0	0	0	0	0	0	0	0	0	0	0	0	0	0	0	0	0	0	0	0	0	0	0	0	0	0	0	0	0	0	0	0	0	0	0	0	0	0	0	0	0	0	0	0	0	0	0	0	0	0	0	0	0	0	0	0	0	0	0	0	0	0	0	0	0	0	0	0	0	0	0	0	0	0	0	0	0	0	0	0	0	0	0	0	0	0	0	0	0	0	0	0	0	0	0	0	0	0	0	0	0	0	0	0	0	0	0	0	0	0	0	0	0	0	0	0	0	0	0	0	0	0	0	0	0	0	0	0	0	0	0	0	0	0	0	0	0	0	0	0	0	0	0	0	0	0	0	0	0	0	0	0	0	0	0	0	0	0	0	0	0	0	0	0	0	0	0	0	0	0	0	0	0	0	0	0	0	0	0	0	0	0	0	0	0	0	0	0	0	0	0	0	0	0	0	0	0	0	0	0	0	0	0	0	0	0	0	0	0	0	0	0	0	0	0	0	0	0	0	0	0	0	0	0	0	0	0	0	0	0	0	0	0	0	0	0	0	0	0	0	0	0	0	0	0	0	0	0	0	0	0	0	0	0	0	0	0
721	724	727	728	728	727	727	726	725	725	725	726	725	725	723	721	718	715	712	709	706	703	701	699	696	693	689	686	683	680	677	673	669	667	665	663	661	661	660	658	657	655	654	652	649	646	644	643	642	641	641	639	636	632	629	624	619	615	610	606	602	599	596	593	590	587	586	586	587	588	588	586	584	580	576	572	568	563	558	553	547	538	531	525	521	516	511	509	507	503	499	496	494	491	487	484	480	476	471	466	460	454	448	444	439	432	427	426	423	419	413	407	403	401	398	393	389	385	382	379	376	371	367	363	359	355	352	349	347	346	344	341	337	335	335	332	329	326	323	321	317	313	312	312	309	303	299	295	291	288	286	282	281	279	278	278	278	279	281	283	284	283	281	279	279	280	280	281	281	282	284	287	287	285	283	280	279	278	278	278	276	273	272	271	267	264	261	259	258	256	252	247	244	242	240	238	236	234	231	228	226	223	220	216	213	210	207	205	204	200	198	195	194	196	198	196	193	190	187	186	184	182	180	178	176	174	172	170	167	164	162	159	155	152	150	149	147	142	137	134	132	130	129	127	126	126	126	124	122	121	120	118	115	112	110	108	106	104	102	100	99	98	96	95	94	94	93	93	93	92	90	88	87	86	84	81	79	78	76	74	73	72	71	71	70	69	67	65	64	63	63	62	58	56	55	55	54	53	53	54	53	53	53	52	51	50	48	47	46	47	47	47	47	47	47	48	49	49	50	51	52	53	54	55	54	53	52	52	53	52	53	53	52	52	53	54	55	56	57	58	60	61	62	62	63	65	66	66	67	67	65	64	65	68	70	71	70	69	68	68	68	68	68	67	66	65	62	58	56	59	59	58	54	51	49	47	45	43	40	35	30	29	29	26	22	22	23	21	18	17	18	17	15	14	15	16	16	15	14	13	12	12	12	12	11	9	9	9	9	8	7	7	7	7	7	7	7	7	7	7	7	7	7	6	6	6	6	6	6	6	6	6	6	6	6	6	6	6	6	6	6	5	5	5	5	5	5	5	5	5	5	5	5	5	5	5	5	5	5	5	5	5	4	4	4	4	4	4	4	4	4	4	4	4	4	4	4	4	4	4	3	2	2	4	4	4	3	2	2	3	4	4	4	4	4	4	4	4	5	6	7	6	6	6	6	6	6	6	6	6	7	7	7	6	6	6	6	6	6	6	6	6	6	6	6	6	6	6	6	6	6	6	6	6	7	7	7	7	7	7	7	7	7	7	7	7	7	7	7	8	8	8	9	9	9	9	9	9	9	11	17	23	25	24	22	23	25	28	30	30	32	35	37	39	40	42	45	46	47	49	51	55	57	56	55	55	55	56	56	56	57	57	58	58	58	59	59	59	60	59	59	59	59	59	59	59	56	53	47	42	37	32	30	28	19	11	8	7	7	7	7	7	7	7	7	7	7	7	6	6	6	6	6	5	5	5	5	5	5	5	5	5	5	5	5	5	5	5	5	5	5	5	5	5	5	5	5	5	5	5	5	5	5	4	2	0	0	0	0	0	0	0	0	0	0	0	0	0	0	0	0	0	0	0	0	0	0	0	0	0	0	0	0	0	0	0	0	0	0	0	0	0	0	0	0	0	0	0	0	0	0	0	0	0	0	0	0	0	0	0	0	0	0	0	0	0	0	0	0	0	0	0	0	0	0	0	0	0	0	0	0	0	0	0	0	0	0	0	0	0	0	0	0	0	0	0	0	0	0	0	0	0	0	0	0	0	0	0	0	0	0	0	0	0	0	0	0	0	0	0	0	0	0	0	0	0	0	0	0	0	0	0	0	0	0	0	0	0	0	0	0	0	0	0	0	0	0	0	0	0	0	0	0	0	0	0	0	0	0	0	0	0	0	0	0	0	0	0	0	0	0	0	0	0	0	0	0	0	0	0	0	0	0	0	0	0	0	0	0	0	0	0	0	0	0	0	0	0	0	0	0	0	0	0	0	0	0	0	0	0	0	0	0	0	0	0	0	0	0	0	0	0	0	0	0	0	0	0	0	0	0	0	0	0	0	0	0	0	0	0	0	0	0	0	0	0	0	0	0	0	0	0	0	0	0	0	0	0	1	1	1	0	0	0	0	1	1	1	1	1	1	1	0	0	0	0	0	0	0	0	0	0	0	0	0	0	0	0	0	0	0	0	0	0	0	0	0	0	0	0	0	0	0	0	0	0	0	0	0	0	0	0	0	0	0	0	0	0	0	0	0	0	0	0	0	0	0	0	0	0	0	0	0	0	0	0	0	0	0	0
723	726	729	730	730	730	729	728	727	727	727	727	727	726	725	722	719	716	714	711	709	706	704	701	698	695	691	688	684	681	677	673	670	668	666	665	663	662	660	658	656	655	653	651	648	646	644	642	641	641	640	639	636	632	628	623	618	614	609	604	599	595	593	591	588	586	585	585	586	588	588	586	583	579	575	570	566	562	557	551	545	536	527	522	518	514	509	506	504	501	498	495	493	490	486	483	479	474	469	466	460	452	447	444	439	432	426	424	421	417	413	407	403	398	395	391	388	385	381	378	374	370	366	362	357	352	348	345	345	344	342	338	335	336	336	331	328	327	324	320	318	316	314	312	309	306	304	300	294	290	288	284	280	277	275	275	275	276	278	279	282	282	281	280	279	279	279	279	280	280	283	287	286	284	281	279	278	279	280	280	278	276	274	272	269	266	263	260	259	257	253	248	244	242	239	237	235	234	232	229	227	224	220	217	213	210	208	208	207	203	200	198	197	197	199	197	195	193	191	189	187	185	183	181	178	176	174	172	168	166	164	161	156	153	151	150	147	142	138	136	135	133	130	130	129	129	128	125	123	122	121	119	117	114	111	109	107	105	103	102	101	99	98	97	97	96	96	97	97	95	93	91	89	88	87	83	81	80	78	76	74	73	72	71	70	69	67	65	64	63	63	62	59	55	54	55	55	54	53	53	53	54	53	52	51	49	47	46	46	45	45	45	44	44	44	45	46	47	48	49	50	51	53	54	54	52	51	51	51	52	52	53	52	52	53	52	52	53	55	56	57	59	60	60	60	62	63	64	63	62	61	61	63	67	69	69	69	68	67	67	68	69	69	69	68	65	63	59	58	61	60	57	53	50	49	48	47	45	42	38	34	31	30	28	24	23	24	21	18	17	18	18	17	16	17	18	18	17	16	15	15	14	14	14	12	9	8	9	8	8	7	7	7	7	7	7	7	7	7	7	7	7	6	6	6	6	6	6	6	6	6	6	6	6	6	6	6	6	6	6	6	6	6	6	5	5	5	5	5	5	5	5	5	5	5	5	5	5	5	5	5	5	4	4	4	4	4	4	4	4	4	4	4	4	4	4	4	4	4	4	3	2	2	4	4	4	3	2	2	3	4	4	4	4	4	4	4	4	5	6	7	6	6	6	6	6	6	6	6	6	7	7	7	6	6	6	6	6	6	6	6	6	6	6	6	6	6	6	6	6	6	6	6	6	6	7	7	7	7	7	7	7	7	6	6	6	7	7	7	7	7	8	8	8	8	9	9	9	9	12	19	23	25	22	20	22	26	28	29	30	32	34	36	38	40	42	44	45	47	48	50	53	54	52	51	51	52	52	54	54	54	55	56	56	56	58	59	60	61	60	60	60	59	59	59	59	56	51	45	42	39	34	31	28	19	12	8	7	7	7	7	7	7	7	7	7	7	7	7	6	6	6	6	5	5	5	5	5	5	5	5	5	5	5	5	5	5	5	5	5	5	5	5	5	5	5	5	5	5	5	5	5	5	4	1	0	0	0	0	0	0	0	0	0	0	0	0	0	0	0	0	0	0	0	0	0	0	0	0	0	0	0	0	0	0	0	0	0	0	0	0	0	0	0	0	0	0	0	0	0	0	0	0	0	0	0	0	0	0	0	0	0	0	0	0	0	0	0	0	0	0	0	0	0	0	0	0	0	0	0	0	0	0	0	0	0	0	0	0	0	0	0	0	0	0	0	0	0	0	0	0	0	0	0	0	0	0	0	0	0	0	0	0	0	0	0	0	0	0	0	0	0	0	0	0	0	0	0	0	0	0	0	0	0	0	0	0	0	0	0	0	0	0	0	0	0	0	0	0	0	0	0	0	0	0	0	0	0	0	0	0	0	0	0	0	0	0	0	0	0	0	0	0	0	0	0	0	0	0	0	0	0	0	0	0	0	0	0	0	0	0	0	0	0	0	0	0	0	0	0	0	0	0	0	0	0	0	0	0	0	0	0	0	0	0	0	0	0	0	0	0	0	0	0	0	0	0	0	0	0	0	0	0	0	0	0	0	0	0	0	0	0	0	0	0	0	0	0	0	0	0	0	0	1	1	1	1	1	2	2	1	1	1	1	1	2	2	2	1	1	2	1	1	0	0	0	0	0	0	0	0	0	0	0	0	0	0	0	0	0	0	0	0	0	0	-1	0	0	1	0	0	0	0	0	0	0	0	0	0	0	0	0	0	0	0	0	0	0	0	0	0	0	0	0	0	0	0	0	0	0	0	0	0	0	0	0	0	0	0	0
725	728	730	732	732	731	730	729	729	729	729	729	728	728	726	723	721	718	716	713	711	708	705	703	699	696	692	688	685	681	678	675	672	670	669	667	665	662	660	657	655	653	651	649	647	645	643	641	640	640	640	638	635	630	625	621	617	612	607	602	597	593	590	588	586	585	583	583	584	586	587	585	582	578	573	568	564	559	554	549	542	533	525	521	517	512	508	504	501	498	495	493	490	487	484	480	476	471	467	464	459	452	448	445	440	432	426	424	420	415	411	407	402	397	393	391	389	385	382	378	374	371	366	362	357	352	348	345	341	339	337	335	334	334	333	328	325	325	322	320	319	318	316	312	309	308	307	304	298	293	289	286	283	279	276	274	272	273	274	276	280	281	281	280	279	277	277	278	278	278	279	284	285	283	279	277	276	278	280	280	278	276	274	272	269	268	264	261	259	258	254	248	245	243	240	237	236	235	233	230	228	226	222	219	216	213	212	212	210	205	202	201	200	199	199	198	196	195	193	191	189	188	186	183	180	178	176	174	169	167	166	162	158	154	151	149	147	144	141	139	138	136	133	133	132	131	129	126	124	123	122	120	118	114	112	110	108	106	104	102	101	100	99	99	98	98	98	99	99	97	95	93	91	90	89	85	82	80	79	77	76	74	73	72	70	69	67	65	64	63	62	62	59	56	55	56	56	55	54	53	54	54	54	52	50	49	48	47	47	45	44	44	44	42	43	44	44	45	46	47	49	50	51	51	51	51	51	51	51	51	52	52	52	51	51	50	49	51	52	53	55	57	58	58	58	59	60	60	60	60	59	60	62	64	66	67	68	68	67	67	68	69	69	68	67	65	62	61	60	61	60	54	51	51	50	49	48	46	44	41	38	34	31	28	25	23	23	22	20	19	21	21	21	21	20	18	17	17	16	16	18	18	17	16	14	10	8	8	8	8	7	7	7	7	7	7	7	7	7	7	7	7	6	6	6	6	6	6	6	6	6	6	6	6	6	6	6	6	6	6	6	6	6	6	5	5	5	5	5	5	5	5	5	5	5	5	5	5	5	5	5	5	5	4	4	4	4	4	4	4	4	4	4	4	4	4	4	4	5	4	3	2	2	4	4	4	3	2	2	3	4	4	4	4	4	4	4	4	5	6	6	7	6	6	6	6	7	7	7	7	7	6	6	6	6	7	7	6	6	6	6	6	6	6	6	6	6	6	6	6	6	6	6	5	6	6	6	6	7	7	7	7	6	6	6	6	6	7	7	7	7	7	7	7	8	8	9	8	9	13	18	21	21	20	18	21	25	28	29	30	31	33	35	37	39	41	43	44	46	47	48	48	48	47	47	48	48	49	51	53	53	53	54	55	55	57	58	59	61	61	62	61	61	60	59	57	54	49	44	42	39	34	30	27	19	12	8	7	7	7	7	7	7	7	6	6	6	7	7	6	6	6	5	5	5	5	5	6	5	5	5	5	5	5	5	5	5	4	4	4	4	4	4	4	4	4	4	4	5	5	5	5	5	3	1	0	0	0	0	0	0	0	0	0	0	0	0	0	0	0	0	0	0	0	0	0	0	0	0	0	0	0	0	0	0	0	0	0	0	0	0	0	0	0	0	0	0	0	0	0	0	0	0	0	0	0	0	0	0	0	0	0	0	0	0	0	0	0	0	0	0	0	0	0	0	0	0	0	0	0	0	0	0	0	0	0	0	0	0	0	0	0	0	0	0	0	0	0	0	0	0	0	0	0	0	0	0	0	0	0	0	0	0	0	0	0	0	0	0	0	0	0	0	0	0	0	0	0	0	0	0	0	0	0	0	0	0	0	0	0	0	0	0	0	0	0	0	0	0	0	0	0	0	0	0	0	0	0	0	0	0	0	0	0	0	0	0	0	0	0	0	0	0	0	0	0	0	0	0	0	0	0	0	0	0	0	0	0	0	0	0	0	0	0	0	0	0	0	0	0	0	0	0	0	0	0	0	0	0	0	0	0	0	0	0	0	0	0	0	0	0	0	0	0	0	0	0	0	0	0	0	0	0	0	0	0	0	0	0	0	0	0	0	0	0	0	1	1	1	1	1	1	1	1	1	2	2	2	2	2	2	1	2	2	2	2	2	2	1	1	2	2	1	0	0	0	0	0	0	0	0	1	1	1	1	0	0	0	0	0	0	0	1	1	0	0	0	1	1	1	0	0	0	0	0	0	0	0	0	0	0	1	1	1	0	0	0	0	0	0	0	0	0	0	0	0	0	0	0	0	0	0	0	0	0	0	0	0	0	0
727	729	731	733	733	733	732	731	731	730	730	730	730	729	727	725	722	720	717	715	712	709	707	703	700	696	693	689	685	682	679	677	675	672	670	668	665	662	659	656	653	651	649	647	645	644	642	640	639	638	638	636	632	626	622	618	614	609	605	600	595	591	588	586	584	582	581	581	581	583	585	584	580	576	570	565	561	557	552	546	540	531	523	520	516	511	506	501	498	495	493	490	487	484	480	476	472	469	466	462	457	452	449	445	440	433	427	423	419	414	409	407	403	398	394	391	389	386	382	378	375	371	367	362	358	354	351	347	341	335	333	332	331	330	327	323	322	322	321	320	319	318	317	314	311	309	307	306	303	296	290	287	285	283	278	275	273	271	270	271	277	279	279	278	276	276	275	275	275	275	275	278	281	280	278	275	275	276	278	279	278	276	273	271	268	266	263	260	258	257	253	249	246	244	241	238	237	236	234	232	229	227	225	222	219	217	216	215	212	207	204	203	203	202	201	199	198	197	196	194	192	190	188	185	182	181	179	176	171	167	166	164	162	158	153	149	147	146	144	142	141	139	137	136	134	132	130	128	126	124	122	121	118	115	112	110	108	107	105	103	102	102	101	101	100	99	100	100	100	98	96	95	93	91	90	87	83	81	80	79	77	76	74	72	70	69	68	67	65	64	62	62	61	59	57	57	57	56	55	55	54	54	55	53	52	51	50	50	49	47	46	45	43	42	42	43	43	44	45	47	48	48	48	49	49	50	51	51	50	49	50	50	50	49	49	47	47	49	50	51	53	55	57	57	57	57	57	58	58	57	58	58	60	62	63	65	67	68	67	66	67	68	67	67	66	63	61	60	60	60	59	54	51	51	51	50	48	47	45	43	41	38	33	29	26	24	23	23	22	21	23	24	25	25	22	19	18	18	18	19	24	25	23	19	16	12	9	9	9	8	7	7	7	7	7	7	7	7	7	7	7	7	6	6	7	7	7	7	6	6	6	6	6	6	6	6	6	6	6	6	6	6	6	6	6	6	6	6	6	5	5	5	5	5	5	5	5	5	5	5	5	5	5	5	5	4	4	4	4	4	4	4	4	4	4	4	4	4	5	4	2	2	3	4	4	4	4	3	2	2	3	4	4	4	4	4	4	4	5	5	6	7	7	6	6	7	7	6	7	7	7	6	6	6	6	7	6	6	6	6	6	6	6	6	6	6	6	6	6	6	7	6	6	5	5	5	6	6	6	6	6	6	6	6	6	6	6	7	7	7	7	7	7	7	7	8	8	8	9	11	16	19	20	20	20	21	24	26	27	28	30	32	34	36	39	41	42	43	44	45	45	45	44	43	44	46	46	46	47	49	49	51	53	54	55	56	56	58	60	62	63	63	62	61	59	56	53	48	44	41	38	34	30	26	20	13	7	7	7	7	7	7	7	7	6	6	6	6	6	6	6	6	5	5	5	5	6	6	5	5	5	5	5	5	5	5	5	3	2	1	2	2	2	2	2	3	3	3	3	4	3	4	4	3	1	0	0	0	0	0	0	0	0	0	0	0	0	0	0	0	0	0	0	0	0	0	0	0	0	0	0	0	0	0	0	0	0	0	0	0	0	0	0	0	0	0	0	0	0	0	0	0	0	0	0	0	0	0	0	0	0	0	0	0	0	0	0	0	0	0	0	0	0	0	0	0	0	0	0	0	0	0	0	0	0	0	0	0	0	0	0	0	0	0	0	0	0	0	0	0	0	0	0	0	0	0	0	0	0	0	0	0	0	0	0	0	0	0	0	0	0	0	0	0	0	0	0	0	0	0	0	0	0	0	0	0	0	0	0	0	0	0	0	0	0	0	0	0	0	0	0	0	0	0	0	0	0	0	0	0	0	0	0	0	0	0	0	0	0	0	0	0	0	0	0	0	0	0	0	0	0	0	0	0	0	0	0	0	0	0	0	0	0	0	0	0	0	0	0	0	0	0	0	0	0	0	0	0	0	0	0	0	0	0	0	0	0	0	0	0	0	0	0	0	0	0	0	0	0	0	0	0	0	0	0	0	0	0	0	0	1	1	1	1	1	2	2	2	2	2	1	1	2	2	2	2	3	3	3	2	2	2	2	3	3	3	3	3	2	1	2	2	2	1	0	0	0	0	0	0	1	1	1	1	1	1	1	1	0	0	0	0	1	1	0	0	1	1	1	1	1	0	0	0	0	0	1	1	0	0	0	1	1	1	0	0	0	0	0	0	0	0	0	0	0	0	0	0	0	0	0	0	0	0	0	0	0	0	0	0
729	731	733	734	735	735	734	733	732	732	732	732	731	731	729	726	724	721	718	716	713	710	707	704	700	697	693	690	687	684	681	678	675	673	670	667	664	661	658	655	652	649	647	645	644	642	641	639	637	637	635	632	627	622	618	614	610	606	602	598	594	590	586	583	581	580	579	578	578	581	583	581	578	573	567	562	558	554	550	545	537	528	521	519	515	509	504	500	496	492	489	487	483	480	477	473	470	467	464	460	455	452	449	445	439	434	428	424	420	414	410	407	405	400	395	392	389	386	381	377	374	372	368	364	359	355	352	348	344	337	331	328	327	326	323	320	319	319	319	319	317	317	317	314	312	310	307	305	304	299	292	288	287	285	282	277	274	272	269	268	269	272	273	272	273	275	274	272	271	271	272	274	276	277	275	274	274	275	277	278	277	275	272	270	267	264	261	259	258	256	253	250	247	245	243	241	239	237	235	233	230	228	227	224	221	219	218	217	214	209	206	205	205	204	204	202	201	201	200	197	195	192	190	187	185	183	181	178	173	169	166	165	165	161	156	152	149	147	144	143	142	141	140	138	136	134	132	131	130	126	123	122	120	116	113	111	109	108	107	106	104	104	104	103	102	102	101	102	102	100	98	97	95	93	91	88	85	83	81	80	78	77	75	73	71	70	70	69	67	65	63	63	62	61	60	59	58	58	57	56	56	56	56	56	54	52	51	51	49	48	47	44	43	42	42	43	43	44	44	46	47	48	48	47	48	49	50	51	50	48	48	48	47	46	45	45	45	47	48	49	51	53	56	57	56	55	55	55	55	54	55	56	57	59	61	63	65	65	65	65	65	66	66	65	63	62	60	59	58	58	57	54	50	50	50	48	47	46	45	44	43	42	37	31	29	27	25	24	24	22	22	23	24	25	24	22	20	20	21	22	26	26	25	20	17	14	10	9	9	8	7	7	7	7	7	7	7	7	7	7	7	7	7	7	7	7	7	7	7	7	6	6	6	6	6	6	6	7	7	7	6	6	6	6	6	6	6	6	6	5	5	5	5	5	5	5	5	5	5	5	5	5	5	5	5	5	4	4	4	4	4	4	4	4	4	3	4	4	4	4	2	2	3	4	4	4	4	3	2	2	3	4	4	4	4	4	4	4	5	5	6	6	7	6	6	6	6	6	6	7	7	7	6	6	6	6	6	6	6	6	6	6	6	6	6	6	6	6	6	6	7	6	6	6	5	6	6	6	6	6	6	6	6	6	6	6	6	7	7	7	7	7	7	7	7	7	7	7	9	10	12	16	19	20	20	21	22	24	25	26	28	30	32	35	38	40	41	42	42	43	43	43	41	40	41	44	46	45	45	44	44	46	50	53	54	55	55	56	58	60	62	63	61	60	59	56	51	47	43	40	37	33	30	26	21	14	8	7	7	7	7	8	8	7	7	6	6	6	6	6	6	6	5	5	5	5	6	5	5	5	5	5	5	5	5	5	4	3	0	0	0	0	0	0	1	1	1	1	1	1	1	2	2	1	0	0	0	0	0	0	0	0	0	0	0	0	0	0	0	0	0	0	0	0	0	0	0	0	0	0	0	0	0	0	0	0	0	0	0	0	0	0	0	0	0	0	0	0	0	0	0	0	0	0	0	0	0	0	0	0	0	0	0	0	0	0	0	0	0	0	0	0	0	0	0	0	0	0	0	0	0	0	0	0	0	0	0	0	0	0	0	0	0	0	0	0	0	0	0	0	0	0	0	0	0	0	0	0	0	0	0	0	0	0	0	0	0	0	0	0	0	0	0	0	0	0	0	0	0	0	0	0	0	0	0	0	0	0	0	0	0	0	0	0	0	0	0	0	0	0	0	0	0	0	0	0	0	0	0	0	0	0	0	0	0	0	0	0	0	0	0	0	0	0	0	0	0	0	0	0	0	0	0	0	0	0	0	0	0	0	0	0	0	0	0	0	0	0	0	0	0	0	0	0	0	0	0	0	0	0	0	0	0	0	0	0	0	0	0	0	0	0	0	0	0	0	0	0	0	0	0	0	0	0	0	1	1	1	2	2	2	2	2	2	3	3	4	4	3	2	2	2	2	3	4	4	4	4	4	3	3	3	3	3	3	4	4	4	3	3	3	4	3	2	1	1	1	1	1	1	1	1	1	1	1	1	1	1	1	1	1	1	1	1	1	1	1	1	1	2	1	1	1	1	1	1	1	1	0	0	0	0	1	1	0	0	0	0	0	0	0	0	0	0	0	0	0	0	0	0	0	0	0	0	0	0	0	0	0	0
730	732	734	736	736	737	736	735	735	734	734	734	733	732	731	728	725	722	719	717	714	710	707	704	701	697	694	690	687	684	681	678	675	672	669	666	663	660	657	654	651	649	646	644	642	641	639	638	636	634	632	628	623	619	614	610	607	603	598	595	592	589	585	581	579	578	576	575	575	578	580	578	575	570	565	559	555	552	548	543	534	526	521	518	514	509	504	500	496	490	487	484	481	477	474	471	468	465	461	457	453	451	448	443	438	434	429	425	420	416	411	409	406	402	397	393	390	385	379	376	373	371	368	364	359	355	352	348	343	337	331	327	324	322	318	316	314	314	316	316	313	314	315	313	311	310	307	304	303	299	294	290	288	287	284	279	276	274	272	268	265	264	266	268	272	273	272	270	269	269	270	272	274	274	273	274	274	275	276	276	276	274	272	269	266	263	260	259	258	255	253	251	249	247	245	243	241	239	236	234	232	229	228	226	223	219	217	216	215	211	209	208	207	206	205	204	203	203	202	200	198	195	192	190	188	186	183	178	174	169	165	165	166	164	161	157	153	148	144	143	143	143	143	141	137	135	134	133	132	128	124	122	120	118	115	113	111	110	110	109	108	108	108	107	106	105	104	104	103	102	100	98	96	95	93	90	87	85	83	81	79	78	77	75	73	72	72	71	69	67	65	64	64	63	61	60	60	59	58	57	57	57	57	57	55	53	51	50	49	47	46	44	42	42	42	43	43	43	44	45	46	47	48	47	47	48	49	49	48	47	46	45	44	43	43	44	44	44	45	47	49	51	53	54	53	52	52	52	52	52	52	52	53	56	59	61	62	63	62	62	62	64	64	63	61	60	59	58	56	56	56	54	50	48	47	46	46	45	44	43	43	42	39	33	31	30	28	26	25	23	22	22	22	24	26	26	23	22	22	23	24	25	23	19	16	13	10	9	9	8	7	7	7	7	7	7	7	7	7	7	7	7	7	7	7	7	7	7	7	7	6	6	7	7	7	7	7	7	7	7	6	6	6	6	6	6	6	6	6	5	5	5	5	5	5	5	5	5	5	5	5	5	5	5	5	4	4	4	4	4	4	4	4	4	3	3	4	4	4	3	2	2	3	4	4	4	4	2	2	2	3	4	4	4	4	4	4	4	5	5	6	6	6	6	6	6	6	6	6	7	7	7	7	6	6	6	6	6	7	6	6	6	6	6	6	6	6	6	6	6	7	6	6	6	6	6	6	6	6	6	6	6	6	6	6	6	6	7	7	7	7	7	7	7	7	7	7	7	8	7	7	11	14	17	17	18	20	21	22	24	26	28	31	35	37	38	39	40	40	41	41	40	39	37	38	42	44	43	42	40	40	41	44	48	51	53	54	55	57	58	59	60	59	58	58	55	50	45	42	39	36	33	31	27	22	16	11	7	7	7	8	8	8	7	7	6	6	6	6	6	5	5	5	5	5	5	5	5	5	5	5	5	5	5	5	5	4	2	0	0	0	0	0	0	0	0	0	0	0	0	0	0	0	0	0	0	0	0	0	0	0	0	0	0	0	0	0	0	0	0	0	0	0	0	0	0	0	0	0	0	0	0	0	0	0	0	0	0	0	0	0	0	0	0	0	0	0	0	0	0	0	0	0	0	0	0	0	0	0	0	0	0	0	0	0	0	0	0	0	0	0	0	0	0	0	0	0	0	0	0	0	0	0	0	0	0	0	0	0	0	0	0	0	0	0	0	0	0	0	0	0	0	0	0	0	0	0	0	0	0	0	0	0	0	0	0	0	0	0	0	0	0	0	0	0	0	0	0	0	0	0	0	0	0	0	0	0	0	0	0	0	0	0	0	0	0	0	0	0	0	0	0	0	0	0	0	0	0	0	0	0	0	0	0	0	0	0	0	0	0	0	0	0	0	0	0	0	0	0	0	0	0	0	0	0	0	0	0	0	0	0	0	0	0	0	0	0	0	0	0	0	0	0	0	0	0	0	0	0	0	0	0	0	0	0	0	0	0	0	0	0	0	0	0	0	0	0	0	0	0	0	0	0	0	1	2	2	2	3	3	3	3	3	4	4	4	5	5	4	3	2	2	3	4	5	5	5	5	5	5	5	5	5	5	5	5	5	5	4	4	5	5	4	3	2	2	1	1	1	1	1	1	1	1	1	1	1	1	1	1	1	1	1	1	1	1	2	2	3	3	3	2	2	2	1	1	1	1	1	1	0	0	0	0	0	0	0	0	0	0	0	0	0	0	0	0	0	0	0	0	0	0	0	0	0	0	0	0	0	0
732	734	736	737	738	739	738	738	737	736	736	736	734	733	731	728	726	723	720	717	714	711	708	704	701	697	694	691	688	685	681	678	676	672	669	666	663	660	657	654	652	649	646	643	641	639	637	636	634	631	628	624	620	616	612	608	604	600	596	592	590	588	584	580	577	576	574	572	572	574	576	576	572	568	563	557	553	549	545	540	533	527	523	519	515	510	505	500	495	490	486	483	480	476	472	469	466	462	459	456	452	449	446	440	435	432	428	424	420	415	411	409	406	401	397	392	388	383	378	376	373	370	367	364	360	355	353	348	342	337	332	327	323	320	317	314	312	311	311	309	308	308	310	310	309	308	305	304	302	299	295	292	289	288	285	281	277	275	272	267	264	262	263	266	270	270	269	267	267	268	270	271	272	272	272	273	274	274	274	274	273	272	270	268	266	264	262	260	258	255	254	252	250	248	246	244	242	240	238	236	233	231	229	228	225	220	217	216	216	213	211	210	208	206	205	204	203	203	202	201	199	196	193	192	190	188	184	178	173	169	167	167	167	165	163	161	157	150	146	145	145	145	145	142	139	136	135	133	131	128	124	122	120	118	116	114	112	112	111	111	111	111	111	111	110	109	108	106	105	103	102	100	98	98	97	93	89	87	85	83	81	80	79	78	77	75	74	73	71	69	67	66	65	64	63	62	61	60	59	58	57	57	58	58	56	53	51	50	49	47	46	44	43	42	42	43	44	43	43	44	45	47	47	47	47	47	47	47	46	45	44	44	44	43	44	44	43	42	43	46	48	48	49	49	49	48	49	49	49	49	49	49	49	51	54	56	57	58	59	59	59	61	62	61	60	59	58	56	55	54	54	53	51	50	49	49	49	48	44	42	42	41	39	36	34	33	30	28	26	25	25	24	23	24	26	27	26	23	22	22	21	19	18	16	15	13	10	9	9	8	7	7	7	7	7	7	7	7	7	7	7	7	7	7	7	7	7	7	7	7	7	7	7	7	7	7	7	7	7	7	6	6	6	6	7	6	6	6	5	5	5	5	5	5	5	5	5	5	5	5	5	5	5	5	4	4	4	4	4	4	4	4	4	4	4	4	4	4	4	3	2	2	3	4	4	3	3	2	2	2	3	4	4	4	3	4	4	4	5	5	5	6	6	6	6	6	6	6	6	6	6	6	6	6	6	6	6	7	7	7	7	6	6	6	6	6	6	6	6	6	6	6	6	6	6	6	6	6	6	6	6	6	6	6	6	6	6	6	6	7	7	7	7	7	7	7	7	7	7	6	7	9	11	13	15	16	18	19	20	22	24	27	30	34	35	36	37	38	38	38	37	37	37	36	36	39	40	40	38	37	37	38	40	44	47	49	52	53	55	55	55	56	57	56	55	52	48	44	41	38	35	33	30	27	22	18	13	8	7	7	7	8	8	7	7	6	6	5	5	5	5	5	5	5	5	5	5	5	5	5	5	5	5	5	5	5	4	2	0	0	0	0	0	0	0	0	0	0	0	0	0	0	0	0	0	0	0	0	0	0	0	0	0	0	0	0	0	0	0	0	0	0	0	0	0	0	0	0	0	0	0	0	0	0	0	0	0	0	0	0	0	0	0	0	0	0	0	0	0	0	0	0	0	0	0	0	0	0	0	0	0	0	0	0	0	0	0	0	0	0	0	0	0	0	0	0	0	0	0	0	0	0	0	0	0	0	0	0	0	0	0	0	0	0	0	0	0	0	0	0	0	0	0	0	0	0	0	0	0	0	0	0	0	0	0	0	0	0	0	0	0	0	0	0	0	0	0	0	0	0	0	0	0	0	0	0	0	0	0	0	0	0	0	0	0	0	0	0	0	0	0	0	0	0	0	0	0	0	0	0	0	0	0	0	0	0	0	0	0	0	0	0	0	0	0	0	0	0	0	0	0	0	0	0	0	0	0	0	0	0	0	0	0	0	0	0	0	0	0	0	0	0	0	0	0	0	0	0	0	0	0	0	0	0	0	0	0	0	0	0	0	0	0	0	0	0	0	0	0	0	0	0	0	1	1	2	2	3	3	3	4	4	5	5	6	7	7	7	6	4	3	3	3	5	6	7	7	7	7	8	8	8	8	8	7	7	7	7	6	7	7	6	4	3	3	3	2	2	2	1	1	1	1	1	1	1	1	1	1	1	2	2	2	1	2	2	3	4	5	5	4	3	3	3	3	3	2	2	2	2	1	1	0	0	1	1	1	0	0	0	0	0	0	0	0	0	0	0	0	0	0	0	0	0	0	0	0	0	0	0
733	735	738	739	740	740	740	740	739	739	738	737	736	734	732	729	726	723	721	717	714	711	708	704	701	698	695	692	688	685	682	679	676	673	670	667	664	661	658	655	652	649	646	643	640	637	635	633	631	628	624	620	617	613	610	606	603	599	594	591	588	585	582	579	576	573	571	569	569	570	573	572	569	566	561	555	550	546	542	537	532	527	523	519	515	511	505	499	495	490	486	483	479	476	472	468	464	460	457	454	450	446	442	436	431	428	425	421	417	413	410	407	403	399	394	390	385	381	378	376	373	370	367	364	360	356	354	349	342	338	335	331	327	323	318	315	312	308	306	304	303	303	304	305	305	305	304	303	301	299	296	294	291	288	286	282	279	276	272	268	264	260	260	262	265	266	265	263	261	265	270	270	270	270	271	273	273	273	272	270	269	268	268	266	264	264	262	260	258	257	255	254	252	249	247	244	242	241	239	238	235	232	230	228	225	221	219	217	216	213	211	210	209	207	205	205	204	203	202	201	199	196	193	192	191	189	185	180	174	171	170	170	167	165	164	163	158	151	149	148	147	147	145	142	139	137	135	133	130	127	125	123	121	119	117	115	114	114	114	113	113	113	114	114	113	112	111	109	107	105	104	102	101	100	100	97	91	89	88	86	84	83	82	81	79	77	76	75	74	71	69	67	66	65	64	63	62	61	60	59	58	57	57	58	57	54	52	51	50	49	47	45	43	42	41	43	44	44	43	43	44	46	46	46	46	46	46	45	44	44	43	43	43	44	44	43	42	41	42	44	45	46	45	45	45	46	46	47	47	47	47	46	46	48	50	51	51	53	54	55	56	58	59	59	57	56	56	55	53	52	52	52	51	51	52	52	50	50	47	43	42	41	40	38	36	35	33	30	28	27	27	26	26	26	28	29	27	24	21	19	17	15	14	15	16	14	11	9	9	8	7	7	7	7	7	7	7	7	7	7	7	7	7	7	7	7	7	7	7	7	7	7	7	7	7	7	7	7	7	7	7	6	6	7	7	7	6	5	5	5	5	5	5	5	5	5	5	5	5	5	5	5	5	5	4	4	4	4	4	4	4	4	4	4	4	4	4	4	4	3	2	2	4	4	3	3	2	2	2	2	2	3	3	3	3	3	4	4	5	5	5	5	6	6	6	6	6	6	6	6	6	6	6	6	6	6	6	6	7	7	7	7	7	7	6	6	6	6	6	6	6	6	6	6	6	6	6	6	6	6	6	6	6	6	6	6	6	6	6	6	6	6	7	7	7	7	7	6	6	6	6	7	9	11	16	17	17	17	19	21	23	26	28	31	33	34	35	36	36	35	35	36	36	35	34	36	37	36	34	34	35	35	37	40	43	47	50	52	52	51	50	51	52	52	51	48	45	42	39	36	34	31	28	25	22	18	13	7	6	7	7	7	7	7	6	6	5	6	6	5	5	5	5	5	5	5	5	5	5	5	5	5	5	5	5	5	3	1	0	0	0	0	0	0	0	0	0	0	0	0	0	0	0	0	0	0	0	0	0	0	0	0	0	0	0	0	0	0	0	0	0	0	0	0	0	0	0	0	0	0	0	0	0	0	0	0	0	0	0	0	0	0	0	0	0	0	0	0	0	0	0	0	0	0	0	0	0	0	0	0	0	0	0	0	0	0	0	0	0	0	0	0	0	0	0	0	0	0	0	0	0	0	0	0	0	0	0	0	0	0	0	0	0	0	0	0	0	0	0	0	0	0	0	0	0	0	0	0	0	0	0	0	0	0	0	0	0	0	0	0	0	0	0	0	0	0	0	0	0	0	0	0	0	0	0	0	0	0	0	0	0	0	0	0	0	0	0	0	0	0	0	0	0	0	0	0	0	0	0	0	0	0	0	0	0	0	0	0	0	0	0	0	0	0	0	0	0	0	0	0	0	0	0	0	0	0	0	0	0	0	0	0	0	0	0	0	0	0	0	0	0	0	0	0	0	0	0	0	0	0	0	0	0	0	0	0	0	0	0	0	0	0	0	0	0	0	0	0	0	0	0	0	1	1	2	2	2	3	5	5	7	8	8	9	9	10	10	9	9	8	7	6	5	6	8	8	8	9	10	10	11	11	11	11	11	11	10	10	9	10	10	8	5	5	5	5	5	4	3	2	2	2	2	1	1	2	2	2	2	2	2	2	2	3	3	3	5	6	7	7	5	5	5	5	5	5	4	4	3	3	3	3	3	2	2	2	2	2	1	1	1	0	0	0	0	0	0	0	0	0	0	0	0	0	0	0	0	0	0	0
735	737	739	741	742	742	743	743	742	741	740	739	737	734	732	729	727	724	721	718	714	711	708	705	702	698	695	692	689	685	682	679	676	673	670	667	664	661	658	655	652	649	646	642	639	636	633	631	628	625	622	618	614	611	608	605	602	598	594	590	586	583	580	578	574	570	568	566	565	566	568	568	566	563	558	552	546	543	539	535	532	527	523	519	515	510	504	498	495	491	487	483	479	475	471	467	463	458	455	451	447	442	438	433	428	424	422	418	414	410	407	404	401	396	392	388	383	379	377	375	373	370	367	364	360	356	354	349	342	339	337	334	331	326	319	315	311	307	305	302	300	299	299	300	301	302	301	301	300	299	298	296	293	289	286	283	280	276	272	268	264	260	257	257	260	262	261	259	258	260	266	268	269	270	271	271	272	271	270	267	266	265	266	265	264	263	262	260	259	257	255	253	251	249	246	245	243	242	241	239	236	233	230	228	224	220	219	217	215	213	210	209	209	208	207	207	207	205	202	200	199	197	194	192	191	189	186	182	177	174	174	172	168	165	164	164	162	156	154	154	150	147	144	141	139	138	135	132	130	128	126	124	122	121	120	118	117	117	117	116	115	115	115	115	114	113	112	111	110	108	106	104	102	102	101	99	95	93	91	90	88	87	85	83	81	79	78	78	76	74	71	68	67	67	65	64	63	62	60	60	59	58	57	57	57	55	53	52	52	50	48	45	44	42	42	43	45	43	42	42	43	44	45	45	46	46	45	43	43	43	43	42	42	43	43	42	40	39	40	42	43	43	43	43	43	43	44	44	44	44	44	43	44	46	48	47	47	49	51	52	53	55	55	55	54	53	53	53	52	50	51	51	49	49	50	49	47	47	46	43	42	40	39	38	37	37	35	33	31	30	29	29	29	29	31	31	29	26	22	17	14	13	13	13	14	13	11	9	9	8	7	7	7	7	7	7	7	7	7	7	7	7	7	7	7	7	7	7	7	7	7	7	7	7	7	7	7	7	7	7	7	6	6	6	6	6	6	6	5	5	5	5	5	5	5	5	5	5	5	5	5	5	5	5	4	4	4	4	4	4	4	4	4	4	4	4	4	4	4	3	2	2	4	4	3	3	3	2	2	2	2	3	3	3	3	3	4	4	5	4	4	5	6	6	6	6	6	6	6	6	6	5	6	7	7	6	6	5	6	6	6	7	7	7	7	7	6	6	6	6	6	6	6	6	6	6	6	6	6	6	6	6	6	6	6	6	6	6	6	6	6	6	6	6	6	6	6	6	6	6	6	6	7	10	16	17	16	15	16	19	22	24	26	28	30	32	32	31	32	33	33	35	35	33	33	34	35	34	31	31	33	34	35	37	40	45	49	50	50	49	47	47	48	48	47	45	42	40	37	35	32	29	26	24	21	17	13	8	6	6	7	7	7	7	6	6	5	6	6	5	5	5	5	5	5	5	5	5	5	5	5	5	5	5	5	4	3	1	0	0	0	0	0	0	0	0	0	0	0	0	0	0	0	0	0	0	0	0	0	0	0	0	0	0	0	0	0	0	0	0	0	0	0	0	0	0	0	0	0	0	0	0	0	0	0	0	0	0	0	0	0	0	0	0	0	0	0	0	0	0	0	0	0	0	0	0	0	0	0	0	0	0	0	0	0	0	0	0	0	0	0	0	0	0	0	0	0	0	0	0	0	0	0	0	0	0	0	0	0	0	0	0	0	0	0	0	0	0	0	0	0	0	0	0	0	0	0	0	0	0	0	0	0	0	0	0	0	0	0	0	0	0	0	0	0	0	0	0	0	0	0	0	0	0	0	0	0	0	0	0	0	0	0	0	0	0	0	0	0	0	0	0	0	0	0	0	0	0	0	0	0	0	0	0	0	0	0	0	0	0	0	0	0	0	0	0	0	0	0	0	0	0	0	0	0	0	0	0	0	0	0	0	0	0	0	0	0	0	0	0	0	0	0	0	0	0	0	0	0	0	0	0	0	0	0	0	0	0	0	0	0	0	0	0	0	0	0	0	0	0	0	1	1	2	3	3	3	5	9	11	12	13	14	14	14	14	13	12	12	12	12	11	10	11	11	12	12	12	13	14	15	15	15	16	16	15	14	13	12	13	13	11	8	8	9	9	8	7	5	4	4	3	3	3	3	4	3	3	3	3	3	3	3	4	5	7	8	9	10	10	9	8	8	8	8	8	8	7	6	5	5	5	5	4	4	3	3	3	3	3	2	1	1	1	0	0	0	0	0	0	0	0	0	0	0	0	0	0	0	0
