0	0	0	0	0	0	0	0	0	0	0	0	0	0	0	0	0	0	0	0	0	0	0	0	0	0	0	0	0	0	0	0	0	0	0	0	0	0	0	0	0	0	0	0	0	0	0	0	0	0	0	0	0	0	0	0	0	0	0	0	0	0	0	0	0	0	0	0	0	0	0	0	0	0	0	0	0	0	0	0	0	0	0	0	0	0	0	0	0	0	0	0	0	0	0	0	0	0	0	0	1	1	1	2	3	5	7	8	7	8	12	15	17	16	16	16	17	18	19	20	21	22	22	20	17	16	18	21	22	19	17	16	15	17	20	21	19	18	18	21	21	15	7	7	7	7	7	7	7	7	7	7	7	7	7	7	7	7	7	7	7	7	7	7	7	7	7	7	7	7	7	7	7	7	7	8	9	11	12	11	11	11	11	11	11	11	12	18	20	22	24	26	27	27	28	28	29	29	29	30	30	31	32	33	33	34	35	36	37	38	39	40	40	43	44	45	45	46	46	47	47	47	47	47	48	48	49	51	52	54	55	56	57	60	65	67	69	71	74	76	78	79	82	83	84	83	81	80	79	79	79	78	77	78	78	79	81	83	85	88	89	87	86	85	83	83	85	86	86	89	92	93	95	98	98	98	100	102	104	105	107	110	112	113	115	119	130	134	134	134	134	136	136	136	136	137	137	137	137	138	139	151	160	160	160	160	160	160	160	160	160	160	160	160	160	160	162	168	170	170	172	177	180	180	182	184	186	189	192	195	197	199	201	203	205	208	211	215	218	221	223	227	229	232	234	237	240	242	244	246	247	249	250	251	254	257	260	264	267	270	271	274	278	281	284	288	292	295	300	307	311	313	315	320	327	333	338	342	345	348	352	355	357	361	364	368	371	374	378	381	385	388	391	393	396	399	402	404	407	410	412	414	414	416	417	419	420	421	421	422	423	424	425	425	425	424	424	423	423	423	422	421	421	421	421	421	421	421	421	421	421	421	421	421	421	420	419	417	416	416	415	415	413	411	410	409	410	410	410	409	409	409	410	411	412	412	413	413	414	415	416	417	417	416	414	411	409	407	405	403	401	399	396	392	389	387	386	386	387	386	384	384	383	383	384	385	383	382	380	378	376	375	373	370	367	365	361	358	356	353	351	348	345	342	339	335	330	328	327	328	329	330	331	333	336	339	341	342	343	344	345	346	347	348	347	347	345	343	342	342	344	346	348	349	350	351	350	350	350	349	347	346	346	346	347	348	350	352	353	354	356	358	359	360	360	361	361	362	364	366	367	369	371	372	375	377	378	379	382	384	386	387	387	388	388	389	390	389	386	385	385	386	388	389	388	388	388	387	386	386	386	386	385	382	379	376	373	371	370	369	369	369	367	367	366	366	366	366	368	369	370	370	371	370	369	369	370	372	374	375	376	377	379	380	379	378	378	378	376	376	376	376	376	376	375	373	374	374	376	378	381	383	383	384	388	394	397	398	397	398	401	405	408	408	406	405	406	408	407	406	407	408	408	407	407	407	408	407	407	407	408	409	407	403	404	410	413	414	413	410	408	408	409	406	403	401	400	399	398	397	398	399	399	398	399	399	399	399	399	399	399	399	399	399	399	398	397	395	391	387	387	390	392	391	386	384	383	381	376	371	371	370	370	370	370	368	366	359	356	359	361	361	360	356	355	356	356	353	351	350	348	347	344	340	336	333	331	329	327	327	328	327	326	325	325	325	324	325	325	324	324	324	324	323	322	319	316	318	319	318	317	315	313	310	309	306	303	300	295	291	287	288	289	285	285	288	292	292	294	299	301	306	311	312	314	315	321	327	333	335	334	334	336	340	344	345	344	343	343	343	342	345	350	352	351	351	351	350	348	348	350	352	353	352	351	351	352	354	356	351	341	339	340	340	340	341	340	339	339	339	339	339	340	342	342	340	339	339	339	339	340	341	341	339	338	337	334	331	329	331	332	331	330	329	328	328	325	321	318	315	313	312	311	311	311	309	307	305	304	306	311	313	313	315	317	319	321	323	326	328	328	328	328	328	328	328	329	331	331	329	327	326	322	318	319	320	320	319	310	301	299	298	299	302	306	316	320	322	322	321	319	318	318	319	318	315	314	316	319	321	324	327	329	331	331	330	330	332	334	334	332	328	324	323	323	320	318	316	313	309	304	302	300	297	294	289	284	281	277	274	270	265	261	258	257	255	253	250	249	249	247	246	244	238	234	232	232	231	228	224	222	222	221	219	216	210	206	202	200	200	200	200	200	200	200	200	200	199	201	208
0	0	0	0	0	0	0	0	0	0	0	0	0	0	0	0	0	0	0	0	0	0	0	0	0	0	0	0	0	0	0	0	0	0	0	0	0	0	0	0	0	0	0	0	0	0	0	0	0	0	0	0	0	0	0	0	0	0	0	0	0	0	0	0	0	0	0	0	0	0	0	0	0	0	0	0	0	0	0	0	0	0	0	0	0	0	0	0	0	0	0	0	0	0	0	0	0	0	0	1	1	2	2	3	7	12	14	15	15	15	18	21	20	18	18	18	17	18	19	20	22	23	22	21	20	18	18	20	21	21	19	16	17	20	22	20	17	16	17	21	22	15	7	7	7	7	7	7	7	7	7	7	7	7	7	7	7	7	7	7	7	7	7	7	7	7	7	7	7	7	7	7	7	7	8	8	9	11	11	11	11	11	11	11	11	11	13	15	16	18	21	24	26	26	27	27	28	28	28	29	29	30	31	32	32	33	34	35	36	37	38	39	39	42	44	44	44	45	45	46	46	46	47	47	47	48	49	50	50	51	52	52	53	55	59	61	61	62	65	69	74	77	79	80	80	79	78	76	76	76	75	75	75	75	75	76	77	79	81	84	86	85	84	83	80	80	82	85	86	89	92	94	95	95	94	95	97	100	103	105	107	110	112	113	113	118	130	134	134	134	135	136	136	136	136	137	137	137	137	138	138	149	160	160	160	160	160	160	160	160	160	160	160	160	160	160	162	169	172	171	173	176	179	181	183	186	188	191	193	196	198	200	202	204	206	209	212	216	219	222	225	228	232	235	237	240	243	244	246	248	249	251	252	253	255	258	262	267	270	272	274	277	280	284	287	289	293	296	302	309	313	316	318	323	330	336	340	344	347	350	353	356	359	363	366	369	372	375	379	383	386	390	393	395	398	402	405	407	410	413	416	418	419	419	421	422	423	424	425	427	428	430	430	430	430	429	428	428	427	427	426	426	426	426	426	425	425	425	425	425	424	424	425	425	425	423	422	420	419	418	418	417	416	414	413	412	413	413	413	412	412	412	413	415	416	416	416	416	416	417	418	418	417	416	414	411	409	407	405	403	400	398	396	393	390	389	388	388	388	387	385	384	384	384	385	385	384	382	380	378	376	374	372	370	368	365	362	359	356	354	351	349	346	343	339	335	331	329	329	330	331	332	334	336	338	341	343	345	346	347	348	349	350	350	350	349	348	346	345	345	346	348	350	352	353	353	353	354	354	353	351	349	348	348	349	350	352	354	355	356	358	360	361	362	363	364	365	366	367	368	369	371	371	372	374	376	378	379	382	385	386	387	387	388	389	391	391	390	388	386	386	389	391	392	391	390	390	390	390	389	389	388	386	384	380	378	377	375	373	371	371	370	370	369	369	369	369	370	372	373	374	375	375	374	372	372	373	376	377	378	378	379	382	384	384	383	382	382	380	380	380	380	380	380	378	376	377	378	379	381	383	384	386	389	395	399	401	402	402	402	404	408	411	412	410	408	408	409	406	406	408	410	411	414	414	413	414	412	411	411	412	413	414	412	410	413	416	418	419	413	407	407	407	405	403	402	400	399	397	397	398	398	398	398	398	398	398	398	398	398	398	397	397	397	397	396	392	387	385	384	385	386	388	386	383	381	380	377	372	370	370	370	370	370	368	365	363	358	355	358	359	359	357	353	352	353	352	349	348	347	345	344	341	338	335	332	329	326	325	325	325	325	324	322	320	319	319	319	320	321	322	322	322	322	320	317	315	316	316	315	313	312	311	309	307	304	301	299	296	292	289	288	286	283	283	288	291	292	294	301	304	306	310	311	314	319	322	327	331	334	332	332	334	337	341	343	343	343	342	341	341	343	347	349	349	349	348	347	346	346	346	348	350	349	349	350	352	352	352	346	340	340	341	342	340	339	339	340	341	341	341	341	342	342	342	341	341	342	341	340	339	339	339	339	338	336	334	330	327	329	331	330	328	327	326	325	322	317	314	312	311	310	309	308	307	306	304	304	304	305	307	309	309	312	315	319	320	322	324	326	327	327	327	329	329	329	329	330	330	328	326	324	319	314	315	319	320	316	307	301	298	297	298	300	304	314	318	318	320	321	320	319	319	319	319	315	311	311	311	315	320	323	326	327	328	327	328	328	327	327	324	322	322	323	321	318	316	312	308	305	302	300	298	294	289	284	280	277	274	271	267	263	259	255	250	249	249	248	248	247	240	236	235	232	230	230	232	232	230	224	219	218	217	214	209	206	202	200	200	200	200	200	200	200	200	200	199	199	199	204
0	0	0	0	0	0	0	0	0	0	0	0	0	0	0	0	0	0	0	0	0	0	0	0	0	0	0	0	0	0	0	0	0	0	0	0	0	0	0	0	0	0	0	0	0	0	0	0	0	0	0	0	0	0	0	0	0	0	0	0	0	0	0	0	0	0	0	0	0	0	0	0	0	0	0	0	0	0	0	0	0	0	0	0	0	0	0	0	0	0	0	0	0	0	0	0	0	1	1	1	2	2	3	5	11	15	17	19	19	20	22	23	23	23	22	20	19	19	20	19	20	22	21	20	19	17	17	17	18	18	17	16	17	19	18	17	16	15	16	20	22	16	9	7	7	7	7	7	7	7	7	7	7	7	7	7	7	7	7	7	7	7	7	7	7	7	7	7	7	7	7	7	7	7	8	9	10	11	12	11	11	11	11	11	11	12	13	13	14	16	18	22	25	25	26	26	26	27	27	27	28	29	30	31	31	32	33	34	35	36	37	38	39	41	43	43	43	44	44	44	45	46	46	46	47	47	48	49	49	50	50	50	50	51	53	54	55	57	58	61	68	74	76	76	75	74	73	71	71	71	71	71	72	72	73	73	74	76	78	81	83	83	85	83	79	79	80	84	86	88	92	93	93	93	91	93	96	99	102	104	106	109	111	112	113	115	124	134	135	135	135	136	136	136	136	136	137	137	137	137	138	145	160	160	160	160	160	160	160	160	160	160	160	160	160	160	163	170	172	173	175	177	179	181	184	187	189	191	194	197	199	201	203	205	208	211	214	217	220	223	226	230	234	237	240	242	244	246	247	249	251	253	254	255	257	260	264	269	272	274	276	279	282	286	288	291	293	298	305	311	315	318	320	326	333	338	342	345	348	351	354	357	360	364	367	370	373	376	380	384	387	390	393	397	401	405	408	411	414	417	421	423	424	424	424	425	426	427	429	431	432	434	435	436	436	435	434	433	432	432	431	431	431	431	430	430	429	429	429	428	426	426	427	428	428	426	424	423	422	421	420	420	419	417	416	415	416	416	416	415	415	415	417	418	419	419	419	420	420	420	420	419	418	416	414	411	409	407	405	403	400	399	397	395	392	391	390	389	389	387	386	386	385	386	386	385	383	381	379	377	375	373	371	369	367	365	362	360	357	354	352	349	347	344	340	336	332	331	331	332	333	334	336	338	341	343	345	347	348	350	351	352	352	352	352	351	350	348	347	347	348	350	352	354	356	356	357	357	356	356	354	352	351	350	351	352	354	356	357	359	360	362	363	364	366	367	368	369	370	370	371	372	371	371	374	376	377	379	382	385	387	388	388	388	389	391	392	390	390	390	388	390	391	391	391	391	391	392	392	392	391	390	388	386	383	381	380	379	377	375	373	372	372	372	372	372	373	374	375	376	376	378	378	376	375	376	378	379	381	381	381	382	384	386	387	387	386	385	384	383	384	385	385	385	383	381	379	380	381	382	384	386	389	395	399	402	403	404	405	406	409	411	413	414	413	411	411	410	407	407	410	416	419	422	420	417	416	415	414	415	416	415	413	413	412	412	417	422	421	416	413	415	414	409	406	405	404	401	397	397	396	395	396	396	395	392	391	391	391	390	389	388	384	386	390	388	385	381	378	380	380	380	381	381	381	379	377	373	371	370	370	370	370	370	368	365	362	357	356	357	357	356	354	352	350	347	344	343	344	343	342	341	339	337	333	330	326	324	322	323	323	322	321	319	316	315	315	314	315	317	319	319	319	318	316	313	312	313	313	311	310	310	309	307	305	301	298	296	293	289	289	288	285	280	282	287	289	290	294	300	304	306	307	309	314	319	322	326	330	332	330	330	331	333	337	340	342	342	341	340	340	341	343	345	346	346	345	345	344	342	342	345	346	346	348	350	352	347	339	336	341	344	344	344	343	339	339	340	343	344	343	344	343	340	339	340	342	343	343	343	342	341	340	339	337	335	333	330	327	327	329	327	325	324	323	321	317	314	311	308	307	306	303	303	301	299	299	301	302	303	304	306	307	311	316	319	320	321	321	323	325	326	326	328	329	328	327	327	328	327	325	322	316	311	310	313	316	312	309	305	301	299	299	299	301	310	314	316	320	320	319	319	319	319	319	318	317	314	312	315	319	321	322	323	324	325	326	325	324	323	322	322	321	320	318	315	312	308	304	302	299	298	295	290	283	280	277	274	271	267	263	260	257	251	243	242	245	245	243	239	234	231	232	230	227	229	232	231	230	225	216	214	212	209	205	202	199	199	200	200	200	200	199	199	199	199	198	198	200	203
0	0	0	0	0	0	0	0	0	0	0	0	0	0	0	0	0	0	0	0	0	0	0	0	0	0	0	0	0	0	0	0	0	0	0	0	0	0	0	0	0	0	0	0	0	0	0	0	0	0	0	0	0	0	0	0	0	0	0	0	0	0	0	0	0	0	0	0	0	0	0	0	0	0	0	0	0	0	0	0	0	0	0	0	0	0	0	0	0	0	0	0	0	0	0	0	1	1	1	2	4	5	8	13	16	18	19	18	17	17	21	23	27	29	25	18	17	18	19	18	18	19	18	17	17	17	17	17	18	18	17	17	17	17	16	16	16	16	16	18	20	17	13	10	11	13	11	9	7	7	7	7	7	7	7	7	7	7	7	7	7	7	7	7	7	7	7	7	7	7	7	7	7	7	7	8	10	11	12	12	11	11	11	11	11	11	11	11	12	13	15	20	24	25	25	25	25	26	26	26	27	28	29	29	31	32	32	33	34	35	36	37	38	40	42	42	42	43	43	44	45	45	46	46	46	47	48	48	49	49	49	49	49	50	51	52	53	54	55	57	61	69	72	72	72	72	71	70	70	70	68	68	69	70	72	72	73	77	81	83	84	83	83	81	78	78	79	83	88	89	91	91	91	91	90	92	96	100	102	103	105	108	110	112	113	116	121	132	136	135	135	136	136	137	136	137	137	137	137	138	138	143	160	160	160	160	160	160	160	160	160	160	159	159	160	160	162	170	173	173	175	178	179	181	184	187	189	192	194	197	200	202	204	207	210	213	215	218	221	224	227	231	235	239	242	244	246	248	249	251	253	255	257	259	260	263	266	270	273	275	277	280	284	288	290	292	295	300	307	313	317	320	323	328	335	340	343	346	348	351	354	358	362	365	368	371	374	377	380	383	388	392	395	400	407	410	413	416	419	422	425	427	428	428	429	429	429	431	432	434	436	438	440	441	441	440	439	438	437	437	436	436	435	434	434	433	433	432	431	430	429	429	430	431	430	428	427	426	425	424	423	423	422	421	420	419	419	419	419	419	418	419	420	421	422	422	423	423	423	423	422	421	419	417	414	412	410	408	406	403	401	399	397	396	394	392	390	389	388	387	387	387	387	386	385	384	383	381	379	377	374	372	370	368	366	364	362	360	357	355	352	350	347	344	340	336	333	333	333	334	335	337	338	340	342	345	347	348	351	352	354	355	355	355	354	353	351	350	349	349	350	353	355	357	359	360	360	360	359	359	358	356	354	353	353	354	356	357	359	360	362	364	365	366	368	370	372	373	373	373	374	375	373	373	375	377	378	380	384	386	388	389	388	387	387	389	390	390	392	392	388	388	388	388	388	390	391	392	393	391	391	391	391	389	386	384	383	383	382	379	377	376	375	375	375	374	375	376	378	378	379	381	380	378	377	379	380	381	383	384	385	386	387	388	389	389	389	388	387	388	390	392	391	391	389	387	385	384	384	385	386	387	389	397	402	404	406	407	408	411	413	414	414	416	418	421	420	415	412	413	418	421	424	424	423	420	417	417	419	419	416	413	412	411	411	415	421	423	420	414	413	414	416	412	407	406	406	405	400	399	399	391	385	384	382	379	378	379	379	377	376	377	381	381	383	382	382	379	375	376	377	378	378	378	378	376	374	373	372	371	371	371	370	369	368	367	363	356	356	354	351	350	350	349	347	342	339	339	339	338	338	338	337	334	330	326	323	321	320	321	321	320	318	316	314	313	311	309	310	312	315	315	315	315	313	310	310	310	309	308	308	307	306	305	302	299	295	292	289	287	288	287	285	281	281	284	285	287	292	300	304	306	306	307	312	317	320	323	326	328	327	327	329	331	333	336	338	339	339	339	339	340	340	342	343	342	341	342	342	341	341	342	341	342	346	349	347	337	333	333	336	343	344	341	339	337	337	337	341	343	343	342	342	338	336	336	339	342	342	342	342	340	338	336	333	331	330	329	326	325	324	323	321	321	319	317	314	311	309	306	303	301	297	296	296	293	292	295	298	300	302	301	302	310	316	317	318	319	319	319	322	323	325	327	328	327	325	324	325	325	324	319	311	311	309	308	310	311	310	307	304	304	302	298	300	306	310	313	316	316	315	318	319	318	317	318	320	319	318	318	320	320	321	320	321	322	323	323	323	323	323	321	319	316	314	311	308	305	301	299	297	295	292	287	281	279	277	272	268	263	259	256	252	245	240	240	242	241	238	236	232	229	227	226	227	230	230	228	228	224	213	210	208	205	202	199	198	199	199	200	200	200	199	199	199	199	197	197	201	203
0	0	0	0	0	0	0	0	0	0	0	0	0	0	0	0	0	0	0	0	0	0	0	0	0	0	0	0	0	0	0	0	0	0	0	0	0	0	0	0	0	0	0	0	0	0	0	0	0	0	0	0	0	0	0	0	0	0	0	0	0	0	0	0	0	0	0	0	0	0	0	0	0	0	0	0	0	0	0	0	0	0	0	0	0	0	0	0	0	0	0	0	0	1	1	1	2	3	4	7	9	11	13	17	19	20	18	16	15	15	16	17	21	25	22	18	17	18	18	17	17	17	17	17	18	18	18	20	23	25	20	17	17	17	16	17	17	16	16	17	19	18	17	19	20	24	25	20	14	9	7	7	7	7	7	7	7	7	7	7	7	7	7	7	7	7	7	7	7	7	7	7	7	7	7	8	9	11	11	11	11	11	11	11	11	11	10	10	10	10	12	16	22	24	25	25	25	25	25	25	26	27	27	28	30	30	31	32	33	34	35	36	37	39	41	41	41	42	43	44	44	45	45	45	46	47	48	49	49	49	49	48	48	49	49	50	50	52	54	55	56	62	67	69	70	70	70	69	70	69	67	67	68	70	71	72	73	79	83	85	87	86	81	78	78	78	79	85	89	88	88	88	89	90	89	91	97	101	103	103	105	107	109	111	114	117	121	130	136	136	136	136	136	136	137	137	137	137	137	138	138	140	158	160	160	159	159	158	157	157	156	155	153	155	160	160	163	171	173	174	176	178	180	182	184	187	189	192	195	198	200	203	206	210	213	215	217	219	222	225	228	232	236	240	243	246	248	249	250	252	254	257	259	261	263	265	268	271	274	275	278	281	286	289	292	294	298	303	309	314	318	322	325	330	335	340	344	347	349	352	354	358	362	366	369	372	375	378	380	384	390	395	399	407	413	415	418	421	424	426	429	431	433	434	434	434	434	435	436	437	440	442	443	444	444	443	443	443	442	442	441	441	439	438	437	437	436	435	434	433	433	433	433	433	433	431	430	430	429	428	427	426	425	425	424	423	423	423	422	422	421	422	423	424	425	425	426	426	426	426	425	423	421	418	415	413	410	409	407	404	402	399	398	396	395	393	391	389	388	387	387	387	386	385	384	383	382	380	378	376	373	371	368	367	365	363	361	359	357	355	352	349	347	343	340	336	335	335	335	336	337	338	340	341	344	346	348	350	353	355	356	357	358	357	356	355	353	352	351	352	353	355	357	360	361	363	363	363	362	362	361	359	357	356	355	356	357	358	360	362	364	366	367	368	370	373	375	376	376	376	377	378	377	377	379	380	380	382	385	387	388	390	388	386	386	387	387	387	389	389	387	387	387	387	388	388	388	389	389	389	388	389	393	394	391	388	386	386	386	384	382	381	380	379	378	377	377	379	380	381	383	384	384	381	380	382	382	382	385	387	389	390	391	392	392	392	392	392	391	394	398	399	397	395	393	392	392	389	387	388	389	390	393	399	403	407	409	411	413	415	417	417	418	422	427	429	428	424	421	421	422	423	424	424	423	418	415	418	426	428	420	414	414	415	416	421	424	424	423	418	415	414	416	413	409	407	407	406	402	400	400	392	381	379	377	375	374	377	379	379	375	375	381	380	377	374	378	378	377	376	377	376	375	373	373	373	372	372	372	371	372	371	369	368	368	367	363	357	355	350	347	348	348	347	344	340	338	335	334	333	333	334	334	332	327	323	321	320	319	319	318	316	314	314	313	311	306	303	305	308	309	310	311	312	310	308	307	307	306	305	305	305	304	303	300	297	293	290	288	287	287	286	283	281	281	283	284	286	291	300	304	306	306	305	307	313	318	322	323	323	323	324	326	328	329	331	333	334	335	336	336	337	337	338	337	337	337	339	340	340	340	339	337	339	343	343	336	333	333	333	333	336	336	334	333	333	333	333	336	341	341	340	339	337	335	335	336	338	339	340	339	337	335	332	330	328	327	326	325	322	320	319	319	318	316	314	312	310	308	305	301	298	295	292	292	291	291	292	294	298	300	296	295	308	315	316	316	316	318	318	317	315	319	323	327	325	323	322	322	321	318	310	308	312	311	308	309	309	307	305	305	304	301	298	300	305	308	309	310	310	310	315	316	315	313	315	319	319	318	319	320	320	320	318	318	319	320	320	321	321	320	318	316	313	310	308	305	302	299	296	294	292	288	284	280	278	275	270	265	261	257	253	247	240	239	239	240	239	237	233	229	227	226	227	227	226	225	224	224	220	211	207	205	202	200	199	199	199	199	200	200	200	200	200	200	198	196	196	200	201
0	0	0	0	0	0	0	0	0	0	0	0	0	0	0	0	0	0	0	0	0	0	0	0	0	0	0	0	0	0	0	0	0	0	0	0	0	0	0	0	0	0	0	0	0	0	0	0	0	0	0	0	0	0	0	0	0	0	0	0	0	0	0	0	0	0	0	0	0	0	0	0	0	0	0	0	0	0	0	0	0	0	1	1	1	1	1	1	1	1	1	1	3	4	4	4	6	9	11	12	14	15	17	20	20	20	20	17	15	15	14	15	16	19	19	18	19	19	19	19	19	19	19	19	19	20	23	29	30	29	24	18	17	17	16	16	16	17	16	17	19	20	20	21	23	26	27	25	21	14	10	9	12	8	7	7	7	7	7	7	7	7	7	7	7	7	7	7	7	7	7	7	7	7	7	8	9	11	11	11	11	11	11	11	11	11	11	11	10	10	11	16	21	24	25	25	25	25	25	25	24	25	27	28	28	29	30	31	32	33	34	35	36	38	39	40	40	41	42	43	44	44	44	45	46	46	48	49	49	49	49	49	49	49	49	49	49	51	54	55	55	56	59	62	64	65	65	66	67	67	66	68	70	70	71	72	73	80	84	87	89	87	80	78	78	79	82	87	90	88	87	87	88	89	89	92	99	103	104	105	106	107	109	113	116	118	121	127	134	136	136	136	136	137	137	137	137	137	138	137	138	138	146	152	155	154	153	152	151	151	151	151	151	154	159	160	163	171	174	175	176	178	180	182	185	188	190	193	195	198	201	204	207	211	214	216	218	221	223	226	228	232	236	240	244	247	249	250	251	253	256	259	261	263	265	267	270	273	275	276	279	282	286	291	294	297	300	305	310	314	319	324	328	332	336	340	343	346	349	352	354	358	362	367	370	373	377	380	382	387	394	399	404	413	417	419	423	425	427	430	433	436	438	439	439	439	439	440	441	442	444	446	447	448	447	447	447	447	446	446	446	446	444	443	442	441	440	439	438	437	437	437	437	436	436	435	434	434	433	432	431	429	428	428	428	427	427	426	426	425	424	425	426	428	429	429	430	430	429	428	427	426	423	420	417	414	412	409	407	405	403	401	398	396	395	393	391	389	388	387	386	385	384	383	383	382	382	380	378	376	373	370	367	366	364	362	360	358	356	354	351	348	346	343	340	338	337	337	337	338	339	340	342	343	345	348	350	353	355	357	358	359	360	360	358	356	355	354	354	354	355	357	360	362	363	365	366	365	364	363	363	362	360	358	357	357	358	360	363	364	366	368	370	372	374	376	378	379	378	378	379	380	379	379	380	382	383	385	387	388	388	391	389	386	386	387	387	387	387	388	388	389	389	392	393	393	391	389	388	388	388	389	395	396	395	393	390	389	390	389	387	386	385	383	382	381	381	382	384	385	386	387	388	387	387	387	387	388	389	390	392	393	394	395	396	397	398	398	399	403	405	404	401	398	396	396	395	393	390	389	390	393	396	401	406	409	412	414	416	417	419	421	424	429	433	434	433	430	424	421	420	420	420	422	421	418	418	423	430	431	428	424	420	420	421	423	424	425	426	424	421	418	416	413	411	409	407	406	402	400	398	390	381	379	375	374	374	376	376	375	370	372	377	377	374	372	377	377	376	376	376	375	372	370	369	370	370	369	369	371	372	370	367	366	365	364	362	358	355	350	348	348	347	346	343	340	336	332	330	330	329	329	330	328	325	322	319	317	316	315	314	312	312	312	310	307	302	298	297	301	303	305	308	309	307	305	304	303	302	302	302	302	302	300	298	295	292	290	288	287	285	283	281	280	281	282	284	286	291	299	302	305	305	304	304	307	313	318	321	321	321	322	323	325	325	327	328	330	331	332	333	334	334	334	333	332	334	335	337	339	338	336	335	335	337	335	333	333	333	333	333	333	332	332	331	332	332	332	334	338	340	338	335	334	335	335	334	334	335	336	336	334	332	329	328	326	325	324	322	320	317	317	316	316	314	312	310	308	305	302	298	294	289	287	290	292	293	292	293	295	295	294	293	303	312	314	315	315	314	312	309	308	313	315	320	317	316	317	317	316	310	307	309	311	310	308	307	306	303	301	301	299	298	298	302	305	306	306	307	307	308	311	313	312	310	311	314	315	316	316	317	318	317	316	316	317	317	318	318	318	317	315	312	309	307	305	302	299	296	293	292	289	286	283	279	276	272	266	262	259	255	252	247	240	239	239	239	238	236	231	227	225	225	226	225	223	222	221	219	214	208	205	203	201	200	200	200	200	199	199	199	200	200	200	200	198	195	196	196	196
0	0	0	0	0	0	0	0	0	0	0	0	0	0	0	0	0	0	0	0	0	0	0	0	0	0	0	0	0	0	0	0	0	0	0	0	0	0	0	0	0	0	0	0	0	0	0	0	0	0	0	0	0	0	0	0	0	0	0	0	0	0	0	0	0	0	0	0	0	0	0	0	0	0	0	0	0	0	0	1	1	1	3	5	6	4	3	2	2	2	3	5	9	12	11	9	11	14	15	15	17	19	21	22	21	22	25	23	17	15	14	15	17	20	20	20	20	21	21	21	21	21	21	21	21	21	23	27	27	29	25	18	17	16	16	16	16	16	16	17	18	19	20	21	23	25	26	25	23	17	14	14	21	17	13	9	7	7	7	7	7	7	7	7	7	7	7	7	7	7	7	7	7	7	8	9	10	11	11	11	11	11	11	11	11	11	11	11	11	11	12	16	21	24	25	25	25	25	25	24	23	25	26	27	27	28	29	30	31	32	33	34	35	37	38	39	39	40	42	43	43	43	44	45	45	46	47	48	49	49	49	52	53	50	50	50	49	50	53	55	55	55	56	57	58	59	60	62	63	64	66	72	73	70	71	71	73	80	85	89	90	88	80	78	79	81	85	88	89	88	87	87	87	87	89	94	99	103	106	107	107	108	110	114	116	119	122	125	129	133	136	137	137	137	137	137	137	137	137	137	138	138	139	145	151	151	151	151	151	151	151	151	151	155	160	160	161	167	175	177	177	179	181	183	185	188	191	193	195	198	201	204	208	212	215	217	220	222	223	226	228	231	235	239	243	247	249	251	252	255	258	261	263	265	268	271	274	275	277	279	281	283	287	292	295	298	302	307	311	316	320	325	329	333	336	340	342	345	349	352	354	358	363	368	372	375	379	383	386	391	397	402	408	414	418	421	425	428	430	432	436	440	443	444	444	444	444	445	445	447	449	450	451	451	451	451	451	451	450	450	450	449	448	447	446	445	445	444	443	441	441	441	440	440	439	438	438	437	436	435	434	432	431	431	431	431	431	430	429	428	428	428	430	431	433	433	434	434	433	431	429	427	425	422	419	416	413	410	408	406	404	402	399	396	394	392	391	389	388	386	385	384	382	381	381	381	381	380	378	376	373	369	367	364	362	360	358	357	355	353	350	348	345	343	341	339	338	339	339	340	341	343	344	345	347	350	352	355	357	359	361	362	362	362	360	359	358	357	357	357	358	360	362	364	366	367	368	368	367	366	365	364	363	361	360	360	361	363	366	367	368	371	374	376	377	378	380	381	381	381	382	382	380	379	381	383	386	388	390	389	389	392	389	386	387	387	388	389	391	392	392	393	395	398	400	398	397	395	393	391	389	389	394	397	397	396	394	393	392	392	391	390	389	388	386	385	385	386	388	389	389	390	392	392	392	392	392	393	393	393	394	396	397	398	400	401	404	407	408	410	410	409	406	401	398	397	397	394	392	390	391	394	397	405	413	413	415	417	418	419	421	424	428	433	435	436	434	427	420	420	420	422	424	427	430	430	429	429	431	432	433	432	428	424	422	422	422	423	424	423	422	420	416	413	411	410	408	406	401	398	394	385	381	378	374	373	375	376	374	372	368	369	372	372	369	369	372	374	374	374	373	372	370	368	367	367	367	367	367	369	370	369	366	364	363	362	361	358	356	353	350	349	347	345	342	339	334	329	327	328	327	326	326	325	323	320	316	313	312	311	309	309	309	309	307	302	296	292	293	297	299	302	304	304	303	302	300	299	299	299	299	300	299	297	295	293	291	289	286	284	283	281	278	277	278	280	284	286	291	297	301	303	304	304	302	303	306	310	315	318	319	320	321	322	323	324	325	326	327	328	329	330	332	332	330	330	331	331	332	335	335	334	334	334	333	333	333	333	333	333	333	332	332	331	332	332	332	331	333	337	337	334	329	329	334	334	329	329	332	333	332	330	328	327	325	324	322	321	318	316	315	314	314	313	311	309	307	304	301	298	292	287	286	287	289	292	293	293	293	295	295	294	295	301	306	309	311	309	305	304	305	306	311	311	309	309	310	310	311	312	311	310	310	310	308	306	303	301	298	297	296	295	295	297	302	305	304	305	305	306	306	308	310	310	309	308	310	311	312	313	313	314	313	312	313	313	314	315	315	315	313	310	307	305	304	302	299	296	292	290	289	286	284	281	278	273	265	261	260	257	254	252	247	240	241	243	240	238	234	230	226	224	223	224	224	223	221	219	216	209	202	199	199	200	200	200	200	200	200	198	196	198	200	200	198	196	196	197	195	194
0	0	0	0	0	0	0	0	0	0	0	0	0	0	0	0	0	0	0	0	0	0	0	0	0	0	0	0	0	0	0	0	0	0	0	0	0	0	0	0	0	0	0	0	0	0	0	0	0	0	0	0	0	0	0	0	0	0	0	0	0	0	0	0	0	0	0	0	0	0	0	0	0	0	0	0	0	0	1	1	2	4	12	15	15	11	10	10	9	9	10	12	13	13	12	10	12	15	17	18	20	22	24	25	24	25	27	26	21	17	17	17	19	24	23	21	21	21	21	21	21	21	21	21	21	21	21	22	24	25	21	17	16	16	16	16	16	16	16	17	17	17	18	20	20	23	26	28	27	23	19	19	24	24	24	19	12	8	7	7	7	7	7	7	7	7	7	7	7	7	7	7	7	7	8	9	10	11	11	11	10	11	11	11	11	11	11	10	11	12	13	17	22	24	25	24	24	24	24	24	24	25	25	25	26	27	28	29	30	31	32	33	34	36	37	38	39	40	41	42	43	43	43	44	45	46	47	48	48	48	49	54	56	52	50	49	49	50	52	54	55	55	56	56	57	58	59	60	61	62	64	71	72	70	71	72	75	84	87	89	91	88	80	79	80	84	86	86	86	85	85	86	86	86	90	96	99	102	107	108	107	108	111	114	116	118	122	124	125	128	132	134	135	135	136	137	138	137	137	137	137	137	140	145	150	151	151	151	151	151	151	151	151	156	160	160	160	163	173	177	177	179	181	183	186	189	191	193	195	198	201	205	209	213	216	218	220	222	224	226	228	230	234	238	242	245	249	251	253	256	259	262	264	268	271	274	277	278	279	281	283	285	288	292	296	299	303	307	312	317	322	326	330	333	337	340	343	346	350	353	356	360	366	370	374	378	382	386	389	393	398	404	409	414	418	422	428	432	434	436	439	442	446	447	448	448	449	450	451	452	453	455	455	455	455	455	455	455	454	454	454	453	452	450	449	448	448	448	446	445	444	444	444	443	443	442	441	440	439	438	436	436	434	434	434	434	434	433	433	432	432	432	433	434	436	437	438	437	436	433	431	429	426	423	421	418	415	412	409	407	405	402	399	397	394	392	390	389	387	386	384	382	381	380	379	380	380	379	377	375	371	368	365	363	361	359	357	355	353	351	349	347	345	342	341	339	340	341	342	343	344	345	346	347	349	352	355	357	359	361	363	364	365	365	363	362	360	360	359	360	361	362	364	366	368	370	371	371	370	369	368	367	365	364	363	363	364	366	368	370	371	374	377	379	380	380	382	383	384	384	384	384	382	381	382	384	387	388	389	388	387	388	387	387	388	389	390	393	395	397	398	399	401	402	402	401	401	402	401	400	397	394	396	397	397	397	396	395	394	394	393	393	392	391	390	389	388	390	391	393	393	394	395	395	395	394	395	395	394	395	398	400	401	402	403	404	407	411	413	414	415	416	414	407	400	398	397	395	393	392	393	396	400	411	417	417	418	420	421	423	425	428	430	434	436	436	435	430	428	430	433	434	436	437	437	437	436	434	431	432	434	435	434	431	426	423	422	422	423	422	421	419	416	412	409	407	406	404	400	397	392	385	381	377	374	373	374	374	370	366	364	362	362	366	367	367	368	369	370	370	370	369	367	365	364	364	365	365	364	365	365	365	362	361	361	361	360	358	355	353	351	349	346	343	340	336	332	328	326	326	325	323	322	322	321	318	314	311	311	308	305	305	305	304	303	296	290	291	293	293	296	299	300	300	299	298	296	295	296	296	295	296	295	294	293	291	289	287	283	281	281	279	276	276	276	279	283	286	290	295	299	302	303	304	303	302	305	308	311	315	316	317	318	319	320	322	323	323	323	323	324	326	328	330	329	328	328	328	329	331	332	333	334	333	331	331	332	333	333	332	332	332	332	330	329	329	330	329	330	334	333	329	326	323	325	326	325	327	329	330	329	327	325	324	322	320	319	317	314	313	312	310	309	310	308	305	304	301	298	293	286	285	287	288	289	290	290	291	293	295	297	298	301	305	307	309	307	303	303	303	304	305	307	306	306	306	307	307	306	308	311	311	308	306	303	301	300	297	295	295	293	292	293	296	300	302	302	302	302	302	302	304	307	308	307	306	308	309	309	310	311	311	310	309	309	310	310	310	310	310	308	306	303	302	300	298	295	292	289	287	285	283	281	278	273	268	260	258	258	256	254	252	246	240	241	243	241	237	232	229	227	224	222	223	224	223	220	216	211	205	198	197	198	200	200	200	200	200	198	196	194	194	196	196	195	194	197	198	196	193
0	0	0	0	0	0	0	0	0	0	0	0	0	0	0	0	0	0	0	0	0	0	0	0	0	0	0	0	0	0	0	0	0	0	0	0	0	0	0	0	0	0	0	0	0	0	0	0	0	0	0	0	0	0	0	0	0	0	0	0	0	0	0	0	0	0	0	0	0	0	0	0	0	0	0	0	1	1	1	2	3	9	19	22	23	25	29	26	22	20	16	14	14	12	10	9	13	16	18	20	23	25	27	27	27	26	26	23	20	19	18	18	20	25	27	22	21	21	21	21	21	21	21	21	21	21	21	22	23	22	18	17	16	16	16	16	16	16	17	17	17	18	19	19	21	24	30	36	39	37	30	26	28	27	28	28	26	21	13	8	7	7	7	7	7	7	7	7	7	7	7	7	7	8	9	9	10	11	11	11	10	10	11	11	11	11	11	10	11	13	16	19	22	24	24	24	23	23	23	24	26	26	24	24	24	25	27	28	29	30	31	32	33	34	36	38	38	39	39	40	42	42	43	44	44	45	46	47	48	48	49	55	56	52	48	48	49	50	52	54	54	55	56	56	57	58	59	60	61	62	63	66	69	69	70	73	81	85	86	88	88	86	82	82	83	84	84	84	85	84	84	85	86	87	91	93	94	100	107	107	106	107	110	114	116	118	120	122	123	125	130	133	135	134	133	135	137	137	137	137	137	137	139	144	150	151	151	151	151	151	151	151	153	158	161	160	161	162	171	176	178	179	181	183	185	188	190	192	195	199	203	206	210	214	217	219	220	222	224	226	229	231	234	238	241	244	248	250	253	256	259	263	266	270	274	277	279	280	282	284	285	287	290	293	297	300	304	308	312	317	323	327	330	332	336	340	343	347	350	354	358	362	367	372	376	380	384	388	391	394	398	404	411	415	419	426	436	438	440	441	443	446	448	450	452	453	454	455	456	457	458	459	459	459	459	459	459	459	459	459	458	457	456	455	453	452	451	451	450	449	448	448	448	447	446	445	444	443	443	441	440	440	438	437	436	437	437	437	437	436	437	437	436	437	439	440	441	439	437	435	432	430	427	425	422	419	416	413	410	407	405	402	399	397	394	392	390	388	387	385	383	381	380	378	377	378	378	377	375	373	370	366	364	361	359	357	355	353	351	350	348	345	343	341	340	340	341	343	344	346	347	348	348	349	351	354	356	359	361	363	365	366	367	367	366	364	363	362	362	362	363	364	365	368	370	372	373	373	373	372	371	370	368	367	366	366	367	369	371	372	374	376	379	381	382	383	384	386	387	387	386	386	386	385	385	385	386	387	388	387	386	386	387	389	390	392	394	397	399	401	402	404	405	405	404	404	404	405	406	405	404	403	401	398	398	398	397	396	395	394	394	394	394	393	393	393	393	393	394	395	396	397	397	398	398	398	397	396	396	399	402	405	406	406	407	408	410	415	419	420	421	421	419	414	406	400	399	396	393	392	393	397	404	414	418	420	421	423	426	428	430	430	430	433	436	436	436	436	437	437	437	437	437	437	437	437	438	436	433	433	435	436	437	436	432	426	423	422	422	422	421	418	415	412	408	404	403	401	398	395	390	384	382	378	374	372	370	369	365	362	361	359	357	362	365	365	365	365	366	367	366	365	364	362	361	361	362	362	361	360	361	361	359	359	360	360	358	356	354	351	349	347	344	341	338	333	330	327	326	325	322	319	318	317	317	315	312	309	307	303	299	299	301	301	300	295	290	292	292	291	293	296	297	295	294	293	291	293	294	293	292	292	292	291	290	289	286	283	280	278	278	277	275	275	275	278	282	284	288	293	298	301	302	303	303	301	302	307	310	312	313	314	315	316	317	318	319	319	319	319	320	321	322	325	326	325	324	325	329	331	332	332	332	331	330	330	331	331	331	331	331	331	331	329	326	325	326	327	329	331	328	325	324	321	316	317	322	325	326	325	325	323	322	321	319	318	316	312	308	308	306	303	303	305	301	300	300	299	294	286	285	286	286	286	287	286	285	285	289	293	298	299	302	306	308	308	305	303	303	303	304	305	305	305	305	305	306	306	304	306	309	309	306	303	300	299	298	297	296	296	292	291	293	295	298	300	300	300	299	299	298	299	301	302	302	304	306	306	306	307	308	308	307	307	306	306	306	305	305	304	303	302	299	298	296	294	292	288	286	283	281	279	277	273	266	264	259	257	256	255	254	251	242	240	241	241	239	235	231	229	227	223	221	222	223	222	217	212	207	201	197	198	200	200	200	200	199	198	196	194	193	193	193	193	193	194	197	197	195	193
0	0	0	0	0	0	0	0	0	0	0	0	0	0	0	0	0	0	0	0	0	0	0	0	0	0	0	0	0	0	0	0	0	0	0	0	0	0	0	0	0	0	0	0	0	0	0	0	0	0	0	0	0	0	0	0	0	0	0	0	0	0	0	0	0	0	0	0	0	0	0	0	0	0	1	2	2	2	3	3	5	14	22	25	32	37	39	38	32	25	22	19	17	15	14	13	17	19	21	23	26	29	32	32	32	29	27	21	18	18	18	19	21	29	31	25	21	22	22	23	24	22	22	22	22	22	22	25	27	23	18	17	16	16	16	16	17	16	17	17	20	22	25	25	27	30	33	39	43	42	37	33	32	31	30	30	30	29	22	14	12	11	8	7	8	8	7	7	7	7	7	8	8	9	9	9	10	11	11	11	11	11	11	12	13	13	12	14	17	16	19	21	22	23	23	23	22	22	22	23	24	24	23	23	23	24	25	27	28	29	30	31	32	33	35	37	37	38	38	40	41	42	42	43	44	45	46	46	47	48	49	52	53	51	49	49	50	50	52	54	54	54	55	56	57	58	59	60	61	62	63	64	65	66	67	72	81	85	84	84	85	84	84	84	85	84	82	84	89	88	86	86	87	89	92	90	92	97	104	105	104	104	108	112	115	118	120	120	120	122	130	135	136	134	130	131	136	137	137	137	137	137	138	142	149	151	151	151	151	151	151	152	156	161	161	160	161	164	171	176	178	180	182	183	186	188	191	193	196	200	204	206	209	212	216	218	220	222	225	227	230	233	236	239	242	245	248	251	253	256	260	264	268	272	275	278	280	282	283	285	287	289	292	295	298	302	305	309	313	318	324	327	329	331	336	340	343	347	350	354	358	363	367	371	376	380	385	390	394	397	402	410	418	423	428	436	441	443	445	447	449	451	453	456	458	459	460	461	461	461	462	463	463	463	462	462	463	463	463	463	463	462	461	459	458	457	456	455	455	453	452	452	451	451	449	448	448	447	447	446	445	444	443	441	440	440	440	440	440	441	441	441	441	441	443	443	443	441	439	436	433	431	428	426	423	420	417	414	411	407	405	402	399	397	394	392	390	388	386	384	382	380	378	376	375	375	375	374	373	370	367	364	362	360	358	356	354	352	350	348	346	344	342	341	341	342	344	345	347	349	350	351	351	352	353	355	358	360	362	365	367	368	369	369	368	366	365	364	363	364	365	366	368	370	372	374	374	375	375	374	373	372	371	370	369	369	369	371	373	375	376	378	381	383	385	386	387	388	389	390	391	391	391	390	388	386	385	387	389	389	387	389	391	393	394	396	398	401	404	405	406	407	408	407	407	407	408	408	408	408	407	405	403	400	401	401	400	398	396	395	396	396	395	395	395	395	395	395	396	398	399	399	400	401	401	400	399	399	401	403	406	409	410	410	411	412	415	421	425	425	425	425	424	420	414	406	403	400	396	393	393	402	412	417	420	421	424	426	428	429	429	429	427	426	432	436	437	438	438	438	437	437	437	437	437	437	438	437	434	433	435	437	438	439	437	434	426	423	422	422	421	418	415	412	409	405	403	401	398	394	389	384	383	380	376	373	371	372	370	365	363	362	357	361	362	361	361	362	364	364	364	362	361	359	357	357	358	358	357	357	358	358	358	357	358	357	356	354	351	349	347	345	342	340	336	332	329	326	325	322	319	317	315	314	314	313	309	306	303	299	297	297	298	298	298	295	290	290	291	290	290	292	292	290	288	286	286	289	289	288	288	288	289	289	288	286	284	281	278	276	276	274	272	272	273	276	280	283	286	291	296	299	300	301	302	301	299	302	307	309	309	310	311	312	313	313	314	314	314	316	318	318	317	317	319	320	320	321	326	330	331	330	329	328	329	329	329	330	330	330	330	330	329	326	323	323	325	328	329	327	324	323	322	319	314	314	320	323	322	321	321	320	319	318	316	314	310	305	304	303	302	301	301	301	298	297	298	295	291	287	287	287	286	283	281	280	280	280	284	288	293	297	300	305	306	305	303	303	303	304	305	305	305	305	305	305	306	307	305	306	308	307	305	303	300	299	296	294	295	293	290	291	293	295	297	298	298	297	296	295	294	294	295	297	299	300	301	302	302	303	304	304	304	303	302	302	301	301	300	300	299	298	296	293	291	290	288	285	282	279	277	275	274	270	264	261	258	257	256	254	252	246	239	241	242	237	235	233	231	229	226	223	220	219	220	219	214	209	204	199	199	200	200	200	200	199	198	196	194	193	193	193	194	194	195	195	196	196	195	192
0	0	0	0	0	0	0	0	0	0	0	0	0	0	0	0	0	0	0	0	0	0	0	0	0	0	0	0	0	0	0	0	0	0	0	0	0	0	0	0	0	0	0	0	0	0	0	0	0	0	0	0	0	0	0	0	0	0	0	0	0	0	0	0	0	0	0	0	0	0	0	0	1	2	6	8	5	5	5	5	8	16	25	33	39	41	41	41	39	31	26	23	22	22	23	23	22	22	24	26	28	32	36	38	38	34	30	24	19	19	21	23	28	36	36	33	27	29	31	31	29	27	27	27	27	28	31	35	35	31	24	18	17	16	16	17	17	17	17	19	26	31	33	34	34	33	34	38	44	42	37	33	33	34	33	32	31	29	25	20	17	17	15	13	10	10	8	7	7	7	7	9	9	9	9	9	11	12	11	11	12	12	12	12	14	14	15	20	22	21	22	22	22	22	22	22	22	22	23	24	25	24	23	23	23	23	24	26	27	28	30	31	31	33	34	35	36	37	38	39	41	41	42	43	44	44	45	46	47	47	48	48	49	51	49	49	50	51	52	54	54	54	55	56	57	58	59	60	61	62	63	63	64	65	66	69	76	80	80	80	82	84	85	86	87	84	83	89	94	93	90	88	90	92	91	90	94	96	100	102	103	104	108	111	115	118	120	119	119	120	128	135	135	133	130	129	133	137	137	137	137	137	137	140	148	151	151	151	151	151	152	155	159	161	161	160	162	166	172	176	178	181	183	185	187	190	192	194	196	200	204	206	208	211	215	218	220	223	226	229	231	235	238	242	245	247	250	252	255	258	262	265	268	272	276	278	281	282	284	286	288	291	294	297	301	304	307	311	315	319	324	327	328	331	335	339	343	346	350	354	358	362	366	371	376	380	386	392	396	401	411	420	426	430	435	441	445	447	449	452	454	457	460	462	464	465	466	466	466	466	466	467	466	466	466	466	466	467	468	468	467	467	466	464	463	462	462	461	460	458	457	456	455	454	453	452	452	451	451	450	449	448	447	446	445	444	443	443	444	445	445	445	445	446	446	446	446	443	440	437	434	432	429	427	424	421	418	414	411	408	405	402	399	396	394	391	389	387	385	383	381	379	376	375	373	372	372	371	369	367	364	361	360	359	357	355	353	352	350	347	345	343	342	342	343	345	347	349	351	353	354	354	354	355	356	357	359	361	364	366	369	370	371	371	370	368	367	366	366	366	368	369	370	372	374	375	376	377	376	375	375	375	374	373	372	372	371	373	376	376	377	380	383	385	386	388	389	390	389	391	394	395	394	393	389	386	385	386	389	389	390	393	396	398	400	401	403	406	407	408	409	410	410	410	410	411	411	411	411	411	410	408	406	404	404	404	403	402	400	399	399	399	397	397	397	397	396	397	399	400	401	401	402	402	403	403	403	403	405	407	410	412	413	414	415	417	419	423	427	427	427	428	426	424	422	415	409	405	401	396	398	412	418	421	422	424	427	429	429	428	426	424	424	429	436	437	438	438	437	437	437	437	437	437	437	437	438	437	435	435	436	437	439	440	440	441	434	424	422	422	422	419	416	414	413	408	403	400	398	395	392	387	384	381	378	374	376	379	378	373	370	368	363	361	362	359	358	359	360	362	362	360	357	355	356	356	355	355	355	353	353	354	354	355	355	354	353	351	349	346	345	343	341	339	335	331	328	325	323	320	317	315	313	312	312	310	306	303	301	298	297	296	296	297	296	294	290	288	288	288	288	288	287	285	283	282	281	283	283	284	285	286	287	287	286	285	282	279	276	275	274	270	268	269	272	274	278	281	285	289	294	296	298	299	301	302	300	299	303	306	306	305	305	307	309	309	310	310	310	312	316	316	315	313	314	316	316	317	323	328	328	327	326	326	327	328	329	329	330	329	328	326	323	321	321	323	325	329	328	324	321	320	321	318	313	314	317	319	318	318	318	316	315	313	309	306	303	301	301	301	301	301	301	301	300	298	297	293	289	286	287	285	282	279	277	274	275	277	279	284	289	295	301	305	305	304	304	306	305	305	305	305	305	305	305	306	308	310	308	306	306	305	303	302	300	298	294	291	288	284	286	290	292	293	294	295	296	295	294	292	290	289	290	294	296	296	296	297	299	300	301	301	300	299	297	296	296	296	296	296	296	295	292	290	288	286	284	281	278	275	272	270	268	264	261	262	260	257	254	251	248	241	237	239	240	236	233	231	230	227	224	223	220	218	217	215	211	207	203	199	199	200	200	200	199	198	195	194	193	193	195	197	198	199	199	197	195	194	193	189
0	0	0	0	0	0	0	0	0	0	0	0	0	0	0	0	0	0	0	0	0	0	0	0	0	0	0	0	0	0	0	0	0	0	0	0	0	0	0	0	0	0	0	0	0	0	0	0	0	0	0	0	0	0	0	0	0	0	0	0	0	0	0	0	0	0	0	0	0	0	0	1	2	7	13	15	14	13	13	11	14	24	35	40	41	41	41	41	41	38	33	26	24	24	24	25	25	26	27	29	32	35	38	39	40	38	36	32	27	28	31	36	40	41	41	40	39	38	39	38	36	35	34	34	36	39	41	40	39	37	35	28	22	18	17	17	16	17	17	23	30	33	35	38	38	36	35	36	40	38	35	33	33	34	35	34	32	31	28	25	23	25	29	28	22	15	9	7	7	7	8	9	9	9	9	9	10	11	11	11	11	11	11	12	13	13	17	22	22	22	22	22	22	22	22	22	22	23	26	28	28	24	23	23	23	23	24	25	26	28	29	30	31	32	34	35	36	37	38	39	40	41	42	43	43	44	44	45	46	47	47	47	48	50	50	49	49	51	53	54	54	54	55	56	57	58	58	59	61	62	63	64	64	65	67	68	70	73	74	76	78	82	85	87	88	87	87	92	95	94	91	89	94	96	94	91	92	93	96	100	103	109	113	115	116	118	120	119	119	119	123	132	134	132	130	132	132	136	137	137	137	137	137	139	146	151	151	151	151	150	152	157	160	160	160	160	161	165	172	176	178	181	183	186	188	191	194	196	198	202	206	208	210	213	215	217	220	223	226	229	233	236	240	243	246	249	252	255	257	260	264	266	269	272	276	279	281	283	285	287	289	292	296	300	303	306	309	313	317	320	325	327	328	331	335	339	343	346	350	354	358	361	366	372	378	383	389	394	399	410	419	425	430	434	439	444	447	450	453	456	459	462	465	467	469	470	471	471	471	470	471	471	470	470	469	470	470	470	471	472	472	471	471	470	469	468	467	466	464	463	461	460	459	458	457	456	456	456	455	454	453	452	451	450	449	448	447	447	447	448	449	449	449	449	449	449	447	445	442	439	436	432	430	427	424	420	417	414	410	407	404	402	399	396	393	391	388	386	384	382	380	377	375	373	372	371	369	368	366	364	362	360	359	358	357	355	353	351	349	347	345	344	344	345	347	348	350	351	354	355	356	357	357	358	359	360	361	363	366	368	370	372	373	373	372	370	369	368	368	369	370	371	372	374	375	376	378	378	378	378	377	377	376	375	375	374	374	375	377	378	380	383	386	387	387	389	391	390	387	387	392	395	396	395	390	386	386	387	388	389	392	397	400	402	403	405	407	409	410	411	412	412	412	412	413	413	413	413	413	413	412	411	409	407	407	407	406	405	405	404	404	402	400	399	399	399	398	399	401	401	402	403	404	404	405	406	407	408	409	411	413	415	416	417	419	421	423	425	427	428	429	431	430	428	426	422	416	411	408	404	411	418	421	423	425	427	430	429	427	425	423	424	430	436	437	437	437	437	437	437	437	437	437	437	437	437	437	437	437	438	439	439	439	441	444	445	442	430	423	422	422	420	416	415	415	411	406	403	398	396	395	389	383	382	380	375	378	380	379	374	372	371	367	364	362	358	357	358	357	358	358	356	352	351	354	356	354	351	349	349	348	348	349	351	351	351	351	349	347	345	343	341	339	337	334	330	327	324	321	317	314	312	311	309	308	306	303	301	298	296	295	294	294	295	294	291	288	286	286	286	286	285	284	282	281	280	278	277	278	282	284	285	285	285	283	282	279	277	275	274	272	269	266	268	270	272	275	280	284	288	291	294	295	296	297	299	298	296	298	300	301	300	298	298	300	302	304	304	304	305	309	311	311	311	311	313	313	313	318	325	325	324	325	325	325	326	327	327	326	325	323	321	318	318	319	321	322	324	324	321	319	318	319	317	313	313	314	315	314	313	311	308	304	303	302	302	302	301	301	301	301	301	301	300	297	298	296	288	283	283	283	281	279	277	275	273	272	275	279	283	289	295	302	307	305	305	309	311	309	306	305	305	305	305	305	305	307	309	307	306	304	300	299	298	297	295	291	287	282	281	284	287	290	291	292	293	293	292	291	290	288	286	285	288	292	293	293	294	295	297	298	298	296	295	293	292	292	292	293	293	292	291	289	287	285	283	281	279	276	272	268	264	263	260	260	260	258	255	252	249	247	240	237	237	238	236	233	230	227	222	220	219	219	218	215	212	208	206	203	199	198	198	198	198	198	196	195	196	196	197	199	200	200	200	199	196	194	191	188	186
0	0	0	0	0	0	0	0	0	0	0	0	0	0	0	0	0	0	0	0	0	0	0	0	0	0	0	0	0	0	0	0	0	0	0	0	0	0	0	0	0	0	0	0	0	0	0	0	0	0	0	0	0	0	0	0	0	0	0	0	0	0	0	0	0	0	0	0	0	0	1	2	5	12	16	18	18	20	21	19	27	37	40	41	41	41	41	41	41	40	39	33	26	25	24	26	27	28	30	33	34	36	38	40	41	41	40	39	37	38	39	42	46	46	45	45	45	44	43	41	39	39	39	40	43	45	45	44	42	40	40	39	32	25	20	18	17	17	19	26	31	35	38	40	40	39	38	38	37	37	37	35	33	33	35	35	35	33	30	27	26	31	34	34	34	21	11	9	8	8	9	9	9	9	9	9	9	10	10	10	10	10	11	11	12	12	16	21	22	22	22	22	22	22	22	22	22	24	26	27	26	23	23	23	23	23	23	24	26	27	28	29	30	32	33	34	35	37	38	39	39	40	41	42	42	43	43	44	45	46	46	47	48	49	50	49	49	50	53	54	54	54	55	55	56	57	58	59	61	61	62	63	64	66	67	68	70	71	72	73	74	77	81	85	87	88	88	91	93	91	89	91	97	99	100	97	93	94	97	100	107	115	119	120	119	119	121	121	119	119	120	125	127	127	129	139	134	136	137	137	137	137	137	138	145	150	151	151	150	149	152	158	160	160	160	160	160	163	170	175	178	181	184	187	190	192	195	197	200	204	208	210	213	215	217	219	221	223	226	229	233	237	240	243	247	250	254	257	260	263	265	267	270	272	276	279	282	285	287	289	292	294	298	302	305	309	312	315	318	322	326	328	329	331	335	341	345	348	352	356	361	364	369	376	382	387	392	397	403	413	420	426	431	436	440	447	453	456	458	460	463	466	469	472	473	474	475	476	476	475	475	475	474	473	473	473	473	474	475	476	476	476	475	475	475	474	472	471	469	468	466	465	463	462	461	460	460	460	460	459	458	456	455	454	454	453	452	451	451	451	452	453	453	452	452	451	448	445	442	439	436	433	430	427	423	418	416	413	409	405	403	401	398	395	393	390	387	385	383	381	379	377	375	373	372	370	368	366	365	363	361	359	358	357	356	354	352	350	348	346	346	346	346	347	349	351	352	354	356	357	359	360	361	362	363	363	364	365	367	370	372	374	374	374	374	373	372	371	371	372	373	374	374	375	376	377	379	380	380	380	379	379	378	377	377	377	377	378	379	381	383	387	389	389	389	392	393	388	385	386	390	395	398	395	388	387	389	390	390	392	396	400	403	404	405	407	409	411	412	413	414	414	415	415	415	416	416	415	416	415	414	413	411	410	410	409	409	409	408	408	407	405	403	402	402	401	401	403	404	404	404	405	407	407	408	409	411	412	414	416	417	419	420	422	423	425	426	427	428	429	430	432	433	432	431	427	424	420	415	413	416	419	422	425	428	430	431	428	424	423	423	429	436	437	437	437	437	437	438	438	438	437	438	438	438	438	438	438	440	440	440	440	440	443	446	447	446	438	427	424	423	422	418	415	415	412	411	409	403	398	396	389	382	381	381	380	381	381	379	375	373	373	371	369	363	357	355	355	355	354	352	349	346	346	352	353	349	344	343	343	343	344	346	347	348	347	347	345	344	344	342	339	337	335	332	329	326	323	319	316	313	310	308	306	305	302	300	297	292	289	287	289	293	293	291	288	286	284	284	284	284	283	282	280	279	277	274	271	271	276	283	283	283	281	279	278	277	275	273	272	270	268	266	267	268	270	274	279	283	286	289	291	292	293	294	295	295	294	292	290	292	294	294	294	295	296	298	298	298	298	300	302	302	304	305	310	312	312	312	318	320	321	324	324	323	323	323	323	322	321	320	316	313	314	315	317	318	318	319	318	317	317	317	314	310	310	311	310	308	304	302	301	301	301	301	301	301	301	301	301	301	301	301	295	291	293	289	279	276	278	278	276	276	275	272	271	272	276	279	284	290	295	300	302	302	308	312	312	309	306	305	305	305	306	307	306	305	305	304	304	300	297	296	294	293	291	286	282	280	280	283	285	287	288	290	290	290	289	288	288	287	286	285	286	288	290	290	291	292	293	294	293	292	290	289	288	287	288	289	289	289	288	286	285	283	281	279	277	274	271	267	263	261	260	258	256	254	253	250	248	246	242	238	236	235	234	232	230	226	219	216	216	218	217	214	209	206	204	201	198	197	197	197	197	197	197	199	200	201	200	201	200	199	198	196	194	190	186	183	182
0	0	0	0	0	0	0	0	0	0	0	0	0	0	0	0	0	0	0	0	0	0	0	0	0	0	0	0	0	0	0	0	0	0	0	0	0	0	0	0	0	0	0	0	0	0	0	0	0	0	0	0	0	0	0	0	0	0	0	0	0	0	0	0	0	0	0	0	1	1	2	4	7	15	19	20	22	24	27	33	39	41	41	41	41	41	41	41	41	40	40	37	30	27	26	26	28	30	33	35	36	37	39	41	43	43	43	41	40	41	42	44	48	48	48	48	48	49	49	46	44	43	44	45	48	49	49	47	46	44	44	43	41	37	31	30	27	23	24	27	29	36	39	42	43	41	40	41	38	38	39	39	38	33	33	36	38	37	32	27	27	33	35	35	35	26	17	15	10	9	9	9	9	9	9	9	9	9	9	9	9	10	10	10	11	11	15	19	21	22	22	22	22	22	22	22	22	22	23	24	24	23	23	23	23	23	24	24	25	26	27	28	30	31	33	34	35	36	37	38	39	40	40	41	41	42	43	44	45	45	46	47	47	48	50	50	49	49	51	52	53	53	54	55	55	56	57	59	60	61	62	63	64	66	67	68	69	70	71	72	72	73	75	77	79	84	87	87	87	85	87	92	97	100	103	102	98	99	100	102	109	117	120	122	121	121	122	122	119	118	120	123	124	125	128	133	133	134	136	137	137	137	137	138	145	150	151	151	150	149	152	158	160	160	160	160	160	162	169	175	179	181	184	188	191	194	196	199	201	205	209	212	215	217	219	220	222	224	226	230	234	237	240	243	247	251	255	259	262	264	266	269	272	274	276	279	283	286	289	292	295	297	300	304	308	311	314	317	320	323	327	329	330	332	337	344	348	351	353	358	364	368	373	380	386	390	395	400	406	415	421	427	433	438	444	453	459	462	464	466	468	470	473	476	478	479	479	480	480	480	479	478	477	476	476	476	476	477	478	479	480	480	480	480	479	478	477	475	474	473	471	469	468	466	465	464	464	464	464	464	462	461	460	459	458	457	456	455	455	455	456	456	457	456	454	452	449	446	442	439	436	432	429	425	421	418	415	412	408	404	402	399	397	394	392	390	387	384	382	380	378	377	375	373	371	369	366	364	363	362	361	359	358	356	355	352	350	348	347	347	347	348	348	349	352	353	355	356	358	359	361	363	364	365	366	367	367	368	370	372	374	375	376	376	375	375	374	374	374	375	376	376	377	377	378	379	380	381	382	382	381	381	380	380	380	380	380	381	382	384	386	389	391	392	392	393	391	386	385	386	389	397	399	395	391	394	396	397	395	398	402	404	405	406	408	409	410	412	414	416	417	417	417	418	419	419	418	418	418	418	416	415	414	413	412	412	412	412	411	410	409	407	406	405	404	404	405	406	407	407	407	409	410	410	411	412	415	416	417	419	421	422	424	425	427	429	429	430	431	432	433	434	435	435	435	433	430	429	428	424	418	421	424	427	430	431	431	426	424	424	427	435	437	437	437	437	437	437	438	438	437	437	438	438	438	439	440	443	445	445	444	443	443	446	448	449	448	445	439	434	428	424	421	418	418	417	415	413	409	403	397	392	384	382	382	382	383	383	380	377	375	374	372	370	365	357	353	352	350	346	342	341	340	342	345	345	342	340	337	336	338	341	343	344	344	343	343	341	341	341	340	337	335	334	331	327	323	320	317	315	312	308	305	304	302	300	296	291	285	283	283	285	289	289	287	285	284	282	281	281	281	279	278	277	274	271	268	267	268	270	277	278	277	275	275	275	274	273	273	271	269	267	266	266	267	267	270	277	280	283	287	290	291	291	292	293	293	291	289	286	287	290	292	292	293	293	295	295	294	294	293	295	297	297	298	304	309	311	310	312	314	318	323	323	322	320	319	319	319	318	316	312	309	309	310	311	311	311	312	313	314	315	314	310	306	307	307	305	302	301	300	301	301	302	302	301	301	301	301	301	301	301	296	289	288	287	280	274	275	275	274	273	273	272	268	268	272	276	279	285	291	295	298	298	304	311	312	309	306	305	306	306	306	308	309	307	305	304	303	302	298	296	293	290	290	287	282	278	277	278	280	282	284	285	286	286	286	285	285	284	284	283	283	283	284	286	287	288	288	289	289	289	288	286	285	284	284	285	286	286	286	285	284	282	280	278	276	275	272	269	266	263	261	259	255	252	252	251	249	247	245	242	237	233	232	232	231	230	225	219	216	217	219	218	211	205	205	203	200	198	197	197	199	200	200	202	202	201	201	200	199	198	197	195	194	191	189	185	181	180
0	0	0	0	0	0	0	0	0	0	0	0	0	0	0	0	0	0	0	0	0	0	0	0	0	0	0	0	0	0	0	0	0	0	0	0	0	0	0	0	0	0	0	0	0	0	0	0	0	0	0	0	0	0	0	0	0	0	0	0	0	0	0	0	0	0	0	1	1	2	5	9	13	19	23	23	26	31	37	40	41	41	41	41	41	41	41	40	40	40	39	36	33	31	30	29	30	32	35	36	37	39	41	43	44	45	44	43	42	43	44	46	50	52	51	51	52	53	52	51	50	51	51	52	53	53	52	51	50	49	48	46	44	41	43	47	46	39	31	29	30	36	39	44	46	43	42	43	42	42	42	43	42	35	32	35	40	39	34	30	32	34	34	35	34	29	26	21	11	9	9	9	9	9	9	9	9	9	9	9	9	9	10	10	10	10	13	17	17	19	22	23	22	22	22	22	22	22	22	23	23	23	23	23	23	23	24	25	25	25	26	28	29	30	32	34	36	36	36	38	39	39	40	40	40	41	42	43	44	45	46	46	47	47	49	50	50	49	49	51	52	53	54	55	55	56	57	59	60	61	62	63	64	65	67	68	69	70	70	70	71	71	72	74	75	77	80	81	81	82	88	92	97	101	104	105	103	102	102	104	109	117	121	122	122	122	121	118	116	118	121	123	124	124	125	129	131	133	135	136	137	137	137	138	145	150	150	150	150	150	152	158	160	160	160	160	160	163	171	176	179	182	185	189	192	195	197	200	203	206	210	213	216	219	221	223	224	226	228	231	235	237	240	244	248	252	256	260	262	265	268	272	276	278	279	281	284	288	291	295	298	300	303	307	310	313	315	318	321	324	327	331	333	335	340	346	351	353	355	359	365	370	376	383	389	394	398	403	410	417	422	428	436	442	450	459	463	467	470	472	474	474	476	479	481	482	483	484	484	484	483	482	481	480	479	479	479	480	481	482	483	484	484	484	484	483	481	480	478	477	475	474	472	471	469	468	468	468	468	468	467	466	465	464	463	461	460	460	459	459	459	460	459	458	456	453	450	446	442	439	435	431	428	424	420	417	414	411	407	404	401	399	396	394	391	389	386	384	381	379	378	376	374	373	371	369	366	364	363	362	361	360	359	357	355	352	350	349	348	349	349	349	350	351	353	355	357	358	360	362	363	365	367	368	370	370	370	371	372	374	376	377	378	378	378	377	376	376	376	377	378	379	379	380	380	381	382	383	383	383	383	383	382	382	383	382	382	383	385	387	389	391	393	393	394	393	388	387	388	388	392	400	400	400	400	401	401	402	402	404	405	406	407	409	410	411	412	414	417	419	419	420	420	421	422	422	421	421	421	420	419	417	416	416	415	415	415	415	414	413	411	409	408	408	407	407	407	408	409	410	411	412	413	413	414	416	418	419	419	421	423	424	425	426	430	431	432	433	435	436	437	437	436	436	435	435	435	435	434	431	422	422	426	429	431	432	429	425	424	425	432	437	437	437	437	437	437	437	436	435	435	436	437	438	440	443	446	449	450	450	450	448	448	449	450	450	449	448	446	443	438	432	428	423	422	422	420	417	413	408	399	393	388	385	387	388	386	385	382	380	378	375	373	370	366	360	355	351	346	342	337	335	336	338	339	340	337	334	331	331	333	337	339	338	338	339	338	338	338	338	337	335	333	331	326	320	317	315	315	314	312	307	304	302	299	296	292	287	282	281	281	283	284	284	283	281	280	279	278	278	277	276	274	271	266	264	262	260	262	264	266	267	267	268	272	274	272	271	271	270	267	264	264	266	266	266	267	273	275	277	283	287	289	290	291	290	289	287	286	285	284	287	289	290	289	289	290	290	289	288	288	291	295	295	296	301	303	304	304	304	306	311	317	319	320	319	317	316	315	313	311	308	306	306	306	304	302	303	304	306	309	308	307	305	303	303	304	302	301	300	301	301	302	302	302	301	301	301	301	301	301	296	288	285	285	280	273	270	269	269	270	271	271	268	266	267	272	278	284	288	292	296	297	298	305	312	310	306	305	306	306	306	308	310	310	308	305	305	304	302	299	295	290	288	287	284	279	275	273	274	276	278	279	280	281	282	283	283	282	281	279	279	279	280	281	282	284	286	286	285	284	284	283	282	281	280	280	281	282	283	283	282	281	279	277	275	274	273	270	268	266	263	261	259	253	250	250	249	247	244	242	239	235	232	231	230	230	229	225	219	216	217	219	218	211	205	203	201	199	199	198	198	200	202	203	203	201	200	199	198	197	196	195	193	191	190	189	186	181	179
0	0	0	0	0	0	0	0	0	0	0	0	0	0	0	0	0	0	0	0	0	0	0	0	0	0	0	0	0	0	0	0	0	0	0	0	0	0	0	0	0	0	0	0	0	0	0	0	0	0	0	0	0	0	0	0	0	0	0	0	0	0	0	0	0	0	1	1	2	4	10	14	17	21	23	26	33	38	41	41	41	41	41	41	41	41	40	40	40	40	38	36	34	33	32	32	33	35	36	38	40	42	43	44	45	46	46	45	44	45	46	49	53	53	52	51	53	53	52	51	54	55	53	53	54	55	55	54	53	53	51	50	48	49	51	52	53	51	45	40	38	38	40	46	48	46	44	45	46	48	47	46	45	39	37	40	41	37	33	34	40	38	35	35	33	31	29	26	20	15	13	12	11	9	9	9	9	9	9	9	10	10	10	10	10	11	14	15	15	16	22	26	27	25	23	22	22	22	22	23	23	23	23	23	23	23	24	25	25	25	25	27	28	29	31	34	36	36	36	38	39	39	39	40	40	41	42	42	43	44	45	46	47	47	48	49	50	49	48	50	52	53	54	54	55	56	57	59	60	61	62	63	64	65	66	67	68	68	67	67	68	69	71	73	74	75	76	78	80	83	88	92	97	100	103	105	104	102	102	104	109	115	119	121	121	119	116	113	114	118	122	124	122	122	125	128	131	133	134	136	137	137	137	138	145	150	149	148	148	150	152	158	160	160	160	160	160	164	173	177	180	183	186	189	193	195	198	201	204	207	210	214	217	219	222	224	226	228	231	233	236	239	241	245	249	253	257	260	263	267	271	276	280	281	282	284	286	290	293	297	300	303	306	310	312	315	317	320	323	326	329	333	335	337	341	348	353	355	356	360	367	373	380	387	394	399	403	408	414	419	425	433	442	448	455	462	466	470	474	476	477	478	479	481	482	483	484	484	485	486	486	485	484	484	483	482	482	482	483	484	486	487	487	488	488	487	486	484	482	481	480	478	477	475	473	472	472	472	472	472	472	470	469	468	467	466	465	465	464	463	463	463	461	459	456	453	450	446	442	438	434	430	426	423	419	416	414	410	407	404	401	399	396	393	391	388	386	383	381	379	377	376	374	372	370	369	367	365	364	363	362	361	360	359	356	354	352	350	350	350	350	351	352	353	355	357	359	360	362	364	366	368	370	371	372	373	373	373	374	376	377	379	380	380	380	379	378	378	378	379	380	381	382	382	383	384	385	385	385	385	385	384	385	386	386	384	384	385	386	389	391	393	394	394	394	394	392	394	396	396	398	401	402	403	404	404	405	405	406	407	407	408	409	411	412	413	415	417	420	421	422	423	423	424	424	425	424	424	423	423	421	420	419	419	419	418	418	417	416	415	413	411	411	410	410	410	410	411	412	413	414	415	416	417	417	419	422	423	422	422	424	425	425	426	428	433	435	436	437	437	437	437	437	436	436	436	437	437	436	432	427	425	427	430	431	430	427	425	425	427	435	437	437	437	437	438	438	437	435	434	435	436	438	440	444	447	449	450	450	451	451	450	450	451	451	450	450	448	447	445	443	440	436	431	427	426	424	421	418	413	404	396	391	392	394	392	388	385	383	381	379	376	373	370	366	361	356	352	348	344	338	334	333	333	333	332	332	331	329	328	328	329	331	331	332	333	333	334	335	335	334	332	330	326	319	314	313	313	314	313	311	307	305	301	295	292	288	283	280	277	276	278	280	280	279	278	277	276	275	275	274	273	271	265	258	259	258	254	254	258	259	262	264	265	270	273	268	266	266	265	263	263	263	265	265	263	265	270	272	272	275	282	287	288	288	287	285	285	284	283	281	280	284	286	286	286	286	285	283	283	284	285	289	292	295	298	298	299	299	300	304	308	311	314	316	316	315	313	311	309	308	306	304	303	302	298	296	297	300	300	300	301	302	300	299	299	301	301	301	301	301	302	302	302	301	301	301	301	301	301	297	288	284	283	284	278	271	268	265	264	265	267	266	264	265	267	273	281	287	289	293	297	297	300	308	311	309	307	307	306	305	305	307	308	307	305	303	302	302	300	297	293	289	286	283	279	274	270	269	270	272	276	277	277	278	280	281	281	280	278	277	277	277	278	279	279	280	283	283	281	280	279	279	278	277	276	277	277	279	280	279	278	277	275	274	273	271	270	268	267	264	262	261	260	256	251	248	245	242	239	238	236	234	232	231	230	229	227	223	218	217	217	218	217	213	203	200	199	200	201	201	201	202	202	201	201	200	198	197	195	194	193	192	191	189	188	187	185	183	179
0	0	0	0	0	0	0	0	0	0	0	0	0	0	0	0	0	0	0	0	0	0	0	0	0	0	0	0	0	0	0	0	0	0	0	0	0	0	0	0	0	0	0	0	0	0	0	0	0	0	0	0	0	0	0	0	0	0	0	0	0	0	0	0	0	0	2	2	3	9	16	19	21	22	25	34	40	41	41	41	41	41	41	41	41	41	40	40	40	40	40	37	35	34	34	35	37	39	39	41	44	46	46	46	48	49	49	49	47	47	49	51	52	51	51	50	51	51	50	50	52	53	51	51	51	52	54	55	54	55	54	53	54	55	53	54	56	55	55	51	44	41	42	49	51	49	47	48	51	52	49	48	47	46	45	46	44	40	38	41	44	43	39	37	36	33	31	29	27	26	25	23	19	13	10	10	9	9	10	10	10	10	10	10	10	14	21	16	15	16	23	29	32	30	24	21	21	22	23	25	24	23	23	23	23	23	24	25	25	25	25	26	27	28	31	34	36	35	34	36	38	38	39	39	40	40	41	42	43	43	44	45	46	47	47	49	50	49	48	49	52	56	55	54	55	56	57	58	60	60	61	62	63	63	64	66	66	66	65	64	64	67	70	72	74	75	76	78	80	85	89	92	97	100	102	104	103	102	102	104	108	113	116	119	117	112	108	109	111	115	120	122	121	122	126	129	132	134	136	136	137	137	137	139	146	151	150	148	147	148	151	158	160	160	160	160	160	165	175	179	182	185	187	190	193	196	199	201	205	208	211	214	217	220	222	225	228	231	234	236	238	240	243	247	252	255	258	261	265	269	274	279	282	284	285	286	289	292	296	299	302	305	309	312	314	316	319	323	326	329	331	334	336	338	342	349	354	356	358	363	370	378	385	392	399	404	408	412	417	423	431	439	446	451	458	465	469	473	476	479	480	480	481	482	482	481	481	482	484	485	485	486	487	486	486	486	485	485	485	487	488	489	490	490	490	490	489	488	487	485	484	483	482	480	478	477	477	477	476	476	475	474	472	471	471	470	470	469	468	467	466	464	462	460	456	453	449	445	441	438	433	428	424	421	418	415	413	409	406	403	401	398	396	393	391	388	385	383	380	378	377	375	374	371	370	368	367	365	364	363	363	362	361	360	358	355	353	352	352	352	352	352	353	355	357	359	360	362	364	366	369	371	372	374	374	375	375	375	376	378	379	381	382	382	382	381	380	380	380	381	382	383	384	384	385	386	386	386	387	387	387	387	388	389	389	387	386	386	387	390	392	394	394	394	394	395	396	397	398	399	401	403	405	406	407	407	408	408	409	409	409	410	411	412	413	415	417	419	422	424	425	425	426	427	427	428	428	427	427	426	425	423	423	422	422	422	421	420	418	416	414	413	413	413	413	413	414	414	414	415	417	418	419	420	421	423	425	426	425	423	423	424	425	424	425	430	434	437	437	437	437	437	437	437	437	437	438	437	436	432	429	426	428	430	430	427	425	425	425	428	436	437	437	437	437	438	438	438	436	436	437	438	439	443	447	449	450	450	450	451	451	450	451	450	451	451	451	449	448	446	445	442	440	436	431	428	425	422	420	416	409	402	397	397	396	394	390	386	382	381	379	376	373	370	366	362	357	353	350	347	342	336	331	328	328	329	329	328	327	326	326	325	325	327	328	329	330	331	332	331	330	329	327	322	315	313	313	314	314	313	310	307	305	301	295	290	286	282	278	274	271	273	276	276	277	277	276	274	272	272	272	271	266	257	254	255	254	252	250	249	251	255	258	258	261	265	263	262	261	260	259	260	262	262	259	258	261	265	269	270	271	278	283	284	283	283	283	283	282	281	278	276	278	281	283	284	284	283	280	278	278	278	281	286	294	295	296	296	296	297	303	308	309	311	312	312	311	309	307	306	306	304	301	298	295	292	292	293	295	294	294	297	297	296	296	297	299	301	301	301	302	302	301	301	301	301	301	301	301	299	289	284	283	282	283	278	274	268	262	261	261	264	264	263	266	268	276	283	286	289	292	295	296	305	313	313	311	309	308	306	304	303	305	306	303	301	299	299	297	295	293	290	287	283	278	273	269	266	265	266	268	273	276	276	278	280	280	280	278	276	275	275	275	276	276	276	276	278	276	275	275	275	274	273	272	272	273	273	275	276	276	275	273	272	271	269	268	265	264	263	262	260	259	259	257	253	248	242	236	234	234	234	234	232	231	229	226	224	222	218	217	216	217	215	212	203	200	201	202	204	204	203	202	200	199	199	198	196	194	192	190	190	189	188	186	185	184	185	185	182
0	0	0	0	0	0	0	0	0	0	0	0	0	0	0	0	0	0	0	0	0	0	0	0	0	0	0	0	0	0	0	0	0	0	0	0	0	0	0	0	0	0	0	0	0	0	0	0	0	0	0	0	0	0	0	0	0	0	0	0	0	0	0	0	0	1	2	4	7	14	18	22	24	26	29	37	41	41	41	41	41	41	41	41	41	41	41	41	41	42	42	40	37	37	36	37	41	44	44	45	47	49	49	50	51	51	51	51	50	50	50	51	52	51	50	52	53	52	52	52	52	53	53	52	51	51	51	51	52	54	53	53	56	55	53	55	56	56	57	54	48	44	45	49	50	48	49	52	53	52	50	48	48	49	49	48	47	47	46	46	46	46	45	42	40	38	36	35	32	31	31	29	25	18	15	13	11	11	11	12	11	11	11	12	16	24	27	18	15	18	23	26	28	25	21	19	19	23	26	28	27	24	23	23	23	23	24	25	25	25	26	26	26	27	29	34	37	35	34	36	36	37	38	39	40	40	40	41	42	43	44	44	45	46	47	47	49	51	50	48	53	61	60	55	55	56	57	58	59	60	61	61	61	62	63	64	64	63	62	63	64	67	70	73	75	77	78	78	80	86	91	94	98	100	102	102	102	102	102	104	107	110	112	110	108	106	106	108	109	112	118	120	121	124	128	130	133	136	137	137	137	137	137	140	147	152	154	154	152	150	152	158	160	160	160	160	160	165	176	181	183	186	188	190	193	196	199	201	204	208	211	215	218	221	223	226	229	233	237	239	242	244	247	251	254	258	260	263	268	273	277	281	284	286	288	289	292	295	298	301	304	308	311	314	316	319	322	326	329	331	333	335	337	339	344	350	354	357	359	366	375	383	389	396	402	407	411	416	421	428	437	444	449	454	461	467	470	474	478	480	481	481	481	480	479	478	477	478	480	481	483	485	487	488	488	489	488	488	488	488	489	490	491	492	492	492	491	491	490	489	488	487	485	484	482	481	481	481	480	479	478	477	475	474	474	473	473	472	470	469	467	465	463	460	456	452	448	444	441	437	432	427	423	420	417	414	412	408	405	402	400	398	395	393	390	388	385	383	381	379	377	375	373	371	369	368	367	365	365	365	364	363	362	361	359	356	355	354	354	354	354	354	355	357	359	360	362	364	366	369	371	373	375	376	376	377	377	377	378	380	381	382	383	383	383	382	382	382	383	383	384	385	385	386	386	386	386	386	389	390	390	390	391	392	392	391	392	392	390	391	392	394	394	393	395	397	398	399	400	401	403	405	407	409	410	410	411	412	412	412	412	413	413	414	416	417	419	421	424	426	427	428	429	430	430	431	431	431	430	429	428	427	426	425	425	425	423	422	419	418	416	416	416	415	415	416	417	417	417	417	419	421	422	424	425	425	427	428	428	424	422	424	424	424	424	424	428	435	437	438	438	437	437	437	437	437	436	436	434	433	431	428	428	430	428	425	425	426	426	428	435	437	437	437	438	438	438	438	438	438	438	439	441	445	449	450	450	450	450	451	451	450	450	450	451	451	451	450	449	447	445	442	440	437	432	429	425	421	419	416	411	406	398	397	397	395	392	387	383	381	379	376	373	370	367	363	359	355	351	348	345	340	332	326	326	326	325	323	322	323	322	321	322	324	325	326	327	328	328	328	326	325	324	320	315	313	313	313	313	311	309	306	304	301	296	292	288	284	279	275	271	271	274	274	275	274	272	270	269	269	269	266	257	252	253	253	252	250	248	245	246	248	250	252	251	255	256	257	257	256	254	255	257	256	253	254	258	261	264	267	269	273	278	279	279	279	279	280	280	279	276	274	275	277	279	281	281	278	275	273	273	274	276	283	289	290	291	292	293	293	299	303	306	308	308	307	306	305	303	303	302	300	296	292	287	286	290	291	290	287	289	293	295	294	294	298	300	301	301	301	301	301	301	301	301	301	301	301	300	293	285	286	285	283	282	279	276	268	260	257	257	259	260	266	267	269	277	280	285	288	291	293	297	308	315	315	313	310	308	306	302	299	303	302	299	298	296	295	292	291	289	287	283	278	273	269	266	263	262	263	265	270	273	274	276	278	278	278	276	274	272	272	271	270	269	269	270	270	269	269	270	269	268	268	268	268	269	269	271	272	272	271	270	269	268	266	263	261	259	259	259	257	255	255	255	252	244	236	234	233	232	232	233	231	228	227	224	222	220	219	217	216	215	213	210	205	203	203	205	205	205	203	200	199	198	196	195	193	191	189	187	185	184	182	181	181	181	182	183	182
0	0	0	0	0	0	0	0	0	0	0	0	0	0	0	0	0	0	0	0	0	0	0	0	0	0	0	0	0	0	0	0	0	0	0	0	0	0	0	0	0	0	0	0	0	0	0	0	0	0	0	0	0	0	0	0	0	0	0	0	0	0	0	0	1	1	3	7	13	17	19	22	27	30	32	36	39	40	41	41	41	41	41	41	41	41	41	41	42	46	47	44	41	40	39	40	45	49	50	49	49	50	51	51	51	51	51	51	51	51	51	53	56	54	55	58	61	60	60	60	60	61	62	61	60	60	58	53	51	51	51	51	52	52	52	55	57	58	59	54	49	46	46	48	48	48	51	53	52	51	49	48	49	51	51	50	49	49	49	48	47	47	46	45	45	43	43	43	39	35	34	33	29	20	17	16	15	15	15	18	18	15	15	20	26	28	25	19	18	21	24	25	25	22	20	20	19	20	24	27	27	25	23	23	23	23	24	25	25	25	25	25	25	26	30	36	41	41	40	36	34	35	37	39	40	40	40	41	42	42	43	44	45	45	46	46	48	51	51	50	54	61	61	55	54	55	57	58	59	60	60	60	60	61	62	62	61	61	61	63	65	68	72	74	76	78	79	80	81	85	92	97	98	99	100	100	100	100	100	102	104	105	103	102	103	104	106	108	109	112	117	121	123	126	128	130	133	136	138	138	137	137	137	141	147	153	157	158	159	156	155	159	160	160	160	160	160	167	177	181	184	186	188	191	194	196	199	201	204	207	211	215	218	221	224	227	230	235	239	243	246	249	252	254	257	260	263	267	271	275	279	283	286	288	291	293	295	298	300	303	306	310	313	316	318	321	325	328	330	332	334	336	337	341	346	351	355	359	364	372	383	390	396	404	407	410	415	421	427	434	441	449	454	458	463	468	471	475	478	480	480	480	479	477	475	474	473	474	476	478	480	482	485	488	489	491	491	491	490	490	490	490	491	492	492	492	493	493	492	491	490	488	487	485	484	483	483	483	482	481	480	479	477	476	476	475	474	473	471	469	467	465	462	459	455	451	447	443	439	435	431	426	422	419	416	413	411	408	405	402	399	397	395	392	390	387	385	384	382	380	378	376	374	371	369	368	367	366	366	366	365	364	363	362	360	358	357	356	356	357	357	357	358	359	361	362	363	365	368	370	373	375	376	378	379	380	380	381	382	383	383	384	385	385	385	385	385	385	386	385	386	386	387	387	387	387	387	388	390	392	392	392	394	394	393	394	396	396	393	392	393	394	394	395	396	399	400	401	402	404	406	408	410	411	412	413	413	414	415	415	415	415	416	417	418	419	421	423	426	428	430	431	432	433	434	434	434	434	434	433	431	430	429	428	428	427	425	423	421	419	419	419	418	418	418	419	420	420	420	420	421	423	425	427	427	427	428	429	429	426	423	424	424	424	423	424	426	433	437	439	439	438	437	437	437	435	435	435	434	433	431	427	426	426	425	424	426	427	427	427	433	437	437	437	437	438	438	438	438	438	438	440	444	447	449	450	450	450	450	451	451	451	450	451	450	451	451	451	450	448	445	442	439	436	432	429	425	420	418	415	412	407	398	396	398	396	392	388	384	382	379	376	373	370	366	363	359	355	351	348	345	342	337	328	324	323	320	317	317	317	317	318	319	321	322	322	323	323	324	324	323	321	320	318	316	314	313	312	311	309	307	304	302	300	297	293	290	286	282	277	271	269	271	270	267	265	264	265	264	264	264	262	252	250	250	250	248	246	245	243	243	244	245	248	249	250	250	250	251	251	250	249	250	250	250	252	255	257	261	265	268	270	273	274	275	275	276	276	276	275	273	272	273	275	276	277	274	272	271	271	270	271	273	281	286	286	287	287	288	288	293	296	300	302	302	302	302	301	299	298	296	293	290	287	283	282	285	286	284	280	282	288	291	291	292	297	300	301	301	301	301	301	301	301	301	301	301	300	296	288	285	286	285	283	282	279	273	264	257	253	252	252	253	260	263	269	276	278	281	286	290	292	295	309	315	314	311	307	306	304	300	298	298	297	295	294	292	290	288	286	284	282	279	275	270	266	263	260	258	260	264	268	270	272	274	275	275	275	273	271	269	268	266	264	262	263	264	264	264	265	265	264	263	264	264	264	265	266	267	268	268	268	267	266	265	263	261	259	257	255	255	253	251	250	251	246	236	233	236	235	233	232	232	228	224	224	222	221	220	219	217	215	212	209	207	205	204	204	204	204	203	201	198	197	195	192	191	190	188	185	183	180	178	178	178	178	178	178	179	179
0	0	0	0	0	0	0	0	0	0	0	0	0	0	0	0	0	0	0	0	0	0	0	0	0	0	0	0	0	0	0	0	0	0	0	0	0	0	0	0	0	0	0	0	0	0	0	0	0	0	0	0	0	0	0	0	0	0	0	0	0	0	0	0	1	2	4	11	18	19	20	22	29	33	32	32	34	37	39	40	41	41	41	41	41	41	41	41	43	47	48	47	44	42	40	43	49	51	52	50	50	51	51	50	50	50	50	50	51	51	52	58	61	62	63	65	66	63	62	62	62	62	63	63	63	68	72	66	56	52	50	50	50	50	50	53	55	60	58	53	50	47	47	48	48	49	52	53	54	53	51	49	51	53	53	52	51	51	51	50	49	47	46	46	47	46	46	46	43	41	41	43	39	28	21	19	18	19	21	22	22	20	23	28	30	28	25	24	25	25	25	25	25	23	21	21	21	20	20	22	25	25	24	24	24	23	25	28	27	25	25	25	25	25	27	35	44	46	43	36	32	35	37	38	39	39	39	40	41	42	42	43	43	44	44	45	47	51	52	51	55	57	56	53	53	55	56	57	58	59	59	59	59	60	60	60	59	60	61	63	66	70	73	75	77	79	80	81	82	84	90	96	97	97	96	95	95	95	97	98	100	100	100	101	103	105	107	108	110	113	116	120	124	127	129	131	134	136	139	139	138	137	137	140	148	154	158	159	160	159	157	159	160	160	160	160	161	168	177	180	183	186	189	192	195	198	200	203	205	209	213	217	220	223	226	229	232	237	242	246	250	253	256	257	259	263	267	271	274	277	281	284	288	291	293	296	298	301	303	305	308	311	314	317	320	323	326	329	331	334	336	338	340	344	348	354	360	366	370	379	389	398	407	412	414	417	422	426	431	436	444	452	457	461	465	468	471	474	476	477	476	476	474	472	471	471	470	471	472	474	476	477	481	487	489	491	492	492	491	489	489	488	488	489	489	491	492	492	492	491	489	487	486	484	484	483	483	482	481	480	479	479	478	477	476	475	474	473	471	470	467	465	461	458	453	449	445	441	437	433	429	425	422	419	416	412	410	407	405	402	399	397	394	392	389	387	386	384	382	381	379	377	374	371	369	368	367	367	367	368	367	366	365	365	364	362	360	359	359	359	359	359	360	361	363	364	365	367	369	371	374	376	378	379	381	382	383	384	385	385	385	386	386	386	386	387	388	389	389	387	387	388	388	389	389	391	392	393	393	394	394	394	395	394	394	394	394	394	393	394	395	395	396	397	398	400	402	403	405	407	408	410	412	413	415	416	416	416	417	417	418	419	420	420	420	420	422	425	427	429	432	434	435	436	437	437	437	436	436	435	434	433	432	432	431	429	427	424	423	422	422	421	421	421	421	422	423	423	423	423	423	425	428	428	429	429	430	429	429	427	424	424	424	424	424	425	429	432	434	435	436	436	437	437	436	434	435	437	435	434	432	427	424	424	425	426	427	427	427	427	430	435	437	437	437	437	438	438	438	438	438	441	445	447	449	450	450	450	450	451	452	451	451	450	450	450	451	451	450	448	446	443	439	434	431	428	423	419	417	415	412	407	398	397	398	395	392	388	385	383	379	375	372	369	366	362	358	355	351	348	346	344	340	336	327	324	322	317	314	315	314	315	316	318	319	319	319	320	320	319	318	317	316	315	314	312	311	310	308	306	304	303	301	298	296	293	290	286	282	278	273	268	266	261	258	255	253	259	259	261	262	259	251	247	247	247	245	243	241	240	241	243	244	247	249	248	247	245	244	245	247	247	247	247	248	251	253	255	260	265	267	270	272	273	273	273	274	272	271	270	270	270	270	271	272	271	269	268	269	268	267	268	273	279	282	284	285	286	287	287	286	288	292	295	297	298	298	297	295	293	290	288	286	284	281	279	280	280	278	277	278	284	289	290	290	293	296	298	299	300	301	301	301	301	301	301	300	298	293	288	286	286	284	282	281	277	267	260	254	250	248	248	249	253	258	267	274	275	277	282	288	291	293	304	312	310	305	304	305	303	300	298	295	293	292	290	288	285	283	281	280	278	276	273	266	260	258	256	255	258	262	267	269	271	272	272	272	271	270	268	266	264	262	260	259	260	260	259	259	260	260	260	260	261	262	261	261	262	264	265	266	265	264	264	263	261	260	257	255	253	253	251	248	246	244	237	232	233	236	235	234	233	230	224	221	221	221	221	219	217	215	211	207	204	204	203	203	202	202	202	201	198	196	194	191	188	188	187	185	182	180	177	176	178	177	176	176	177	178	177
0	0	0	0	0	0	0	0	0	0	0	0	0	0	0	0	0	0	0	0	0	0	0	0	0	0	0	0	0	0	0	0	0	0	0	0	0	0	0	0	0	0	0	0	0	0	0	0	0	0	0	0	0	0	0	0	0	0	0	0	0	0	0	1	2	3	6	15	20	21	23	24	30	34	32	31	33	34	35	39	42	41	41	41	41	41	41	42	45	48	48	48	47	46	45	47	51	52	51	50	50	50	50	50	51	54	53	54	53	52	57	64	65	67	68	70	69	64	62	63	62	63	63	63	63	68	75	76	72	59	54	52	51	50	50	51	52	56	55	54	52	49	47	48	49	50	53	55	56	54	52	50	53	55	54	54	54	52	52	51	50	49	48	47	48	48	47	46	45	45	47	49	48	39	27	23	23	28	29	25	22	26	31	31	30	27	26	26	28	28	28	27	26	25	23	22	22	22	21	21	24	25	26	26	25	25	27	32	31	29	27	26	25	25	26	36	45	46	45	40	35	34	37	37	38	38	39	40	40	41	41	41	42	42	43	44	46	50	52	52	53	51	51	52	53	53	54	55	56	57	57	57	58	58	58	58	59	60	61	64	67	71	73	75	77	79	80	82	83	84	87	91	93	92	91	92	93	94	95	97	98	99	101	102	104	106	108	110	112	114	116	119	124	128	132	135	135	137	140	142	139	137	137	140	150	155	158	159	160	160	158	158	160	160	160	161	165	172	178	180	183	186	189	192	196	199	202	205	208	212	215	219	222	225	228	231	235	240	245	249	253	257	260	261	263	266	271	274	276	279	282	285	289	293	296	298	301	303	305	307	310	312	315	319	322	325	328	331	334	337	339	340	342	347	352	358	366	371	376	385	396	405	412	416	420	423	428	431	434	438	446	453	458	462	466	469	470	472	473	472	471	468	465	465	466	466	467	467	467	468	470	473	477	482	486	489	490	490	489	487	486	484	484	484	484	486	488	489	488	487	485	483	482	481	480	478	478	477	477	477	478	478	477	476	476	475	474	473	471	469	467	463	460	456	452	447	443	439	434	431	428	425	422	419	415	412	410	407	404	402	399	397	394	391	389	387	386	385	383	381	379	376	374	371	369	368	368	369	369	370	370	369	368	368	368	366	364	362	361	361	361	361	362	363	365	366	367	369	370	372	374	377	379	381	383	384	385	385	387	388	388	388	388	387	386	388	390	391	390	389	389	390	390	391	393	395	396	396	396	396	396	396	396	395	395	395	394	394	395	395	396	397	398	399	401	402	404	405	407	409	411	412	414	415	417	418	419	419	419	420	421	422	423	423	422	422	424	426	427	429	433	436	438	440	440	440	440	439	439	438	437	436	436	435	434	431	428	426	425	425	424	424	423	423	424	425	425	426	426	426	426	427	429	430	430	430	430	428	426	425	424	424	424	424	425	428	429	430	430	430	430	434	438	439	437	433	435	438	437	435	433	426	424	425	426	427	428	428	428	428	428	430	435	437	437	437	437	437	438	438	438	442	446	447	449	450	450	450	450	451	452	452	451	451	450	450	451	451	450	448	445	442	437	431	427	426	422	417	415	414	411	408	403	400	398	395	392	389	385	382	378	374	371	368	365	361	358	355	351	348	346	344	340	338	332	327	326	323	319	318	316	312	312	314	316	316	316	317	316	315	314	313	311	310	308	307	306	305	304	302	301	300	297	295	293	292	288	284	281	278	274	268	261	256	253	250	247	252	256	259	259	256	249	245	246	246	244	242	240	240	241	242	243	245	246	246	244	242	241	241	244	244	244	244	246	248	250	253	259	264	266	269	272	272	272	272	270	266	267	269	268	268	267	266	267	268	268	268	268	266	265	266	273	277	279	282	285	286	286	286	283	281	282	288	293	294	293	292	291	288	285	283	281	280	277	275	273	274	275	274	274	278	283	288	289	291	294	295	296	297	298	300	301	301	301	299	296	295	295	292	288	285	282	279	278	273	265	256	250	247	245	245	245	248	254	262	272	274	274	279	285	289	291	295	301	300	300	301	302	301	299	296	292	289	288	286	283	281	279	277	276	275	273	270	261	255	253	252	253	256	259	263	267	269	270	269	268	267	266	264	263	261	260	257	255	256	256	255	255	256	256	255	256	258	259	258	257	258	260	261	262	262	261	261	260	259	257	256	253	252	252	249	247	243	235	231	231	234	234	233	232	231	225	221	219	218	218	216	214	212	208	205	204	202	202	202	201	201	200	200	198	196	195	193	188	185	186	185	182	180	178	176	176	177	176	175	175	176	177	176
0	0	0	0	0	0	0	0	0	0	0	0	0	0	0	0	0	0	0	0	0	0	0	0	0	0	0	0	0	0	0	0	0	0	0	0	0	0	0	0	0	0	0	0	0	0	0	0	0	0	0	0	0	0	0	0	0	0	0	0	0	0	1	1	2	5	10	17	20	23	25	26	29	35	35	32	32	32	33	37	42	43	42	41	41	41	42	44	48	49	49	49	49	49	48	49	51	51	50	50	50	51	52	53	56	61	63	63	64	63	66	67	69	71	73	73	71	66	63	63	62	63	63	63	65	71	76	78	76	66	63	60	56	54	51	51	51	52	52	52	52	50	49	50	51	54	58	59	56	52	51	51	52	54	54	54	54	53	51	51	51	52	51	49	49	51	48	47	46	48	51	52	51	44	31	29	31	34	33	28	24	29	31	28	27	27	27	27	29	30	30	30	29	28	26	24	23	26	31	30	27	27	28	28	27	26	27	30	32	32	30	29	29	28	31	38	43	44	43	43	41	37	36	37	37	37	38	38	39	39	40	41	41	42	43	44	45	48	51	50	49	49	50	51	52	52	53	53	54	55	55	56	56	56	57	58	59	60	63	65	68	71	73	75	78	79	81	82	83	84	85	86	88	89	90	92	94	95	97	98	99	100	101	103	105	107	109	111	113	115	117	119	122	128	136	138	138	140	142	143	140	137	137	141	150	153	156	159	160	160	159	159	161	162	164	170	175	178	179	181	183	186	189	193	196	200	203	207	210	214	217	221	225	228	231	235	239	243	248	252	257	262	265	267	269	271	273	276	278	281	284	287	291	294	297	300	303	306	308	310	311	313	316	320	324	327	330	333	336	338	340	342	345	350	355	362	369	374	380	388	399	409	414	419	422	427	432	435	439	443	448	453	458	462	465	467	468	467	467	466	464	461	459	460	461	461	461	461	462	463	465	467	470	473	478	482	483	484	483	482	481	480	480	480	480	479	479	480	478	478	479	478	477	476	474	472	471	471	472	474	475	475	475	475	474	474	473	472	470	468	465	461	457	454	450	446	441	437	433	430	428	425	422	419	415	412	409	407	404	401	399	396	394	391	389	387	386	385	383	381	379	377	374	372	371	370	370	372	373	373	373	372	372	372	372	370	367	365	364	364	363	363	364	365	367	368	369	370	371	373	375	377	380	382	384	386	387	387	388	389	389	389	389	388	389	391	392	392	391	391	392	393	393	395	396	397	398	398	398	397	398	398	398	398	398	397	397	397	397	398	399	400	400	402	403	404	406	408	410	411	412	414	415	417	419	420	421	422	422	423	424	425	426	426	425	426	427	428	430	432	436	438	440	442	443	443	443	443	442	441	441	440	438	437	435	432	430	429	428	427	426	426	426	426	427	428	428	428	429	429	429	430	432	432	431	431	430	426	424	424	424	424	424	425	427	430	431	430	429	429	429	433	437	439	437	434	435	438	438	436	432	426	427	427	427	427	427	428	428	429	429	429	432	436	437	437	437	437	438	438	438	441	445	446	448	450	450	450	450	451	452	453	452	452	451	451	450	450	449	447	443	439	434	427	424	424	421	417	415	413	410	407	405	401	398	395	392	389	385	382	378	374	371	367	364	361	357	354	351	347	345	343	340	337	333	330	328	327	323	320	317	309	305	310	312	312	312	312	312	312	311	309	307	305	304	303	301	301	300	298	296	294	290	287	286	285	283	281	279	277	273	266	257	253	248	245	245	246	250	252	251	249	247	244	244	245	244	241	239	239	241	243	243	243	244	242	238	234	235	239	242	242	241	242	244	245	248	251	256	261	264	267	270	270	269	268	264	262	264	267	267	267	266	264	264	267	267	266	266	266	266	266	270	273	273	275	283	285	285	284	281	279	280	282	285	287	288	288	286	284	282	280	277	274	272	270	268	269	271	271	270	272	276	280	285	289	292	293	295	295	295	294	296	296	296	294	293	294	295	293	289	284	277	275	275	271	262	255	250	245	242	243	243	245	250	257	267	271	273	277	282	285	288	290	293	295	296	298	298	297	295	292	288	286	284	282	279	277	275	274	273	271	269	266	258	251	250	248	249	254	257	259	263	265	266	266	264	263	262	261	260	259	257	254	252	252	252	252	252	252	252	251	252	255	256	255	255	257	257	257	258	258	258	258	258	256	255	254	253	251	250	247	243	236	231	230	232	234	233	230	227	224	221	221	217	214	210	206	206	205	203	203	203	201	201	201	199	199	199	198	196	194	194	192	186	182	182	181	179	177	175	173	173	173	173	173	174	174	174	175
0	0	0	0	0	0	0	0	0	0	0	0	0	0	0	0	0	0	0	0	0	0	0	0	0	0	0	0	0	0	0	0	0	0	0	0	0	0	0	0	0	0	0	0	0	0	0	0	0	0	0	0	0	0	0	0	0	0	0	0	1	1	1	2	4	8	12	16	21	25	25	26	28	36	38	35	32	32	32	32	37	44	43	41	41	42	45	49	51	50	50	50	50	50	50	50	51	50	50	50	52	53	55	57	61	65	67	68	69	67	68	70	72	74	76	78	76	71	65	64	65	67	68	68	73	76	77	77	73	71	74	73	71	67	58	55	55	53	52	51	51	51	51	51	52	61	66	63	55	51	51	51	51	51	51	52	52	51	50	50	51	52	52	50	49	49	47	46	47	51	54	54	53	49	39	37	37	36	34	30	27	28	31	29	29	30	30	30	31	31	31	31	31	30	30	28	26	31	37	37	33	28	29	28	28	28	27	27	27	28	27	28	31	35	37	40	41	43	40	41	44	42	38	36	36	36	37	38	38	39	40	40	41	41	42	43	44	46	48	48	48	48	49	50	51	51	52	52	53	54	55	55	56	56	57	58	60	62	64	66	69	71	72	75	77	79	81	82	83	84	85	85	86	88	90	93	95	96	98	99	99	100	101	103	105	107	109	111	114	116	118	120	122	126	136	140	142	142	144	143	140	137	137	143	150	152	154	157	159	160	161	162	163	163	167	174	178	179	180	181	183	186	189	193	197	201	204	208	212	217	219	222	226	229	233	238	242	247	252	256	261	267	271	272	273	273	275	277	280	283	287	290	292	296	299	302	305	308	311	312	313	315	317	322	325	328	331	335	338	340	342	344	348	353	359	366	371	376	383	390	401	411	416	420	425	431	436	439	443	447	450	454	458	461	463	464	464	462	460	458	457	455	455	456	456	456	456	457	458	460	461	462	465	466	469	472	475	475	473	474	475	474	475	475	474	472	472	471	469	470	470	469	469	469	469	469	468	468	468	470	471	471	472	472	472	472	471	470	468	466	463	459	456	452	449	445	441	436	432	430	427	424	421	418	415	412	409	406	404	401	399	397	394	392	390	387	386	385	383	382	380	378	376	374	372	372	373	374	375	375	375	375	375	375	374	372	370	367	366	366	365	365	365	367	368	370	371	372	373	374	376	378	381	383	385	387	388	388	388	390	390	390	390	391	392	393	394	394	394	394	395	396	397	398	399	400	400	401	400	400	399	400	401	401	401	400	400	399	399	400	401	402	403	404	405	407	408	410	411	413	414	416	418	419	421	422	424	424	424	425	426	427	428	428	428	428	429	431	434	436	438	440	442	444	445	446	446	446	445	445	444	443	441	439	436	433	432	431	431	430	429	429	429	430	431	431	431	431	431	431	432	433	435	434	432	430	427	425	424	424	424	424	424	426	430	435	433	430	429	429	429	430	431	433	438	438	432	435	437	436	429	427	429	428	427	427	427	428	429	430	430	429	430	434	437	437	437	437	437	438	437	438	441	444	446	448	450	450	450	450	451	451	449	448	449	450	449	449	447	445	441	438	434	428	425	424	421	418	415	413	409	406	404	400	397	395	393	389	385	381	377	374	370	367	364	361	357	354	350	348	345	343	340	337	333	331	329	327	323	318	314	303	300	304	305	305	305	304	305	306	306	305	303	302	301	300	298	297	295	292	289	287	285	283	280	279	279	278	277	275	272	264	256	251	247	246	244	243	245	246	247	246	245	243	242	242	241	238	237	238	241	243	243	243	242	238	231	227	226	233	238	240	241	241	241	243	246	250	254	258	262	265	267	266	265	264	260	259	261	264	265	265	264	263	262	264	264	263	266	267	266	266	269	269	268	268	271	276	280	278	275	273	275	278	279	280	282	283	282	280	279	276	271	268	266	266	265	266	267	266	266	266	269	271	277	279	288	290	292	292	290	290	290	289	289	291	293	293	293	292	288	279	272	273	272	267	258	254	249	243	240	241	243	244	248	254	262	268	272	276	279	283	286	288	290	292	293	294	293	292	290	287	285	283	281	278	276	274	273	271	269	268	265	262	255	248	246	243	242	251	254	257	260	261	262	262	260	259	259	258	257	257	254	250	248	249	250	250	249	248	248	247	249	251	252	252	253	254	255	254	255	255	256	256	255	254	251	250	251	250	247	243	236	231	230	230	232	232	230	226	223	220	219	217	213	211	206	203	205	203	201	200	200	200	200	200	198	196	197	196	194	194	193	187	177	173	174	173	173	172	171	171	171	170	170	171	171	171	171	173
0	0	0	0	0	0	0	0	0	0	0	0	0	0	0	0	0	0	0	0	0	0	0	0	0	0	0	0	0	0	0	0	0	0	0	0	0	0	0	0	0	0	0	0	0	0	0	0	0	0	0	0	0	0	0	0	0	0	0	0	1	2	2	3	7	10	14	17	24	27	27	28	29	35	38	34	32	32	32	31	32	39	45	44	44	47	51	54	53	51	50	51	52	51	51	51	50	50	50	51	54	57	58	60	63	65	68	70	70	68	68	72	75	78	79	80	80	76	74	74	74	76	79	79	79	78	78	77	76	79	80	80	78	76	72	64	61	59	56	52	51	51	51	52	60	68	69	67	58	53	53	54	53	51	51	51	51	50	50	50	50	51	51	50	48	47	45	45	49	52	54	54	53	49	44	42	41	40	37	35	33	32	32	32	32	34	35	34	34	38	40	37	35	34	34	34	33	35	38	39	36	29	28	27	28	28	28	27	27	27	27	27	29	36	40	42	43	44	44	44	47	46	41	36	36	36	37	37	38	38	39	40	40	41	42	43	43	44	45	47	48	48	48	49	50	50	51	52	53	54	55	56	57	58	58	59	61	63	65	67	69	71	72	74	77	79	80	82	83	83	84	85	87	88	91	93	95	96	97	98	98	98	100	102	104	106	109	111	114	116	119	121	123	126	137	143	145	144	144	144	140	137	138	145	151	152	153	157	159	161	163	164	164	164	168	174	177	179	180	181	183	186	189	194	198	202	207	212	218	222	221	223	227	231	236	241	245	250	255	259	265	271	274	275	276	277	278	280	282	285	288	291	294	297	301	304	308	311	313	315	316	317	320	324	327	330	333	336	339	341	343	346	351	357	363	370	375	380	386	394	404	413	418	423	429	435	439	441	445	449	451	454	456	459	460	461	460	457	455	453	451	450	451	451	452	452	452	452	454	457	457	458	459	460	462	464	466	465	462	464	466	466	467	468	466	464	464	464	463	463	463	463	464	465	466	466	465	465	465	466	466	467	467	468	469	469	469	468	466	463	460	458	455	452	448	444	439	435	431	428	426	423	420	417	414	411	408	406	403	401	399	397	394	392	390	388	386	385	383	382	380	378	377	375	374	374	375	376	377	377	377	377	377	376	375	373	370	369	368	368	367	366	366	368	369	371	373	374	375	376	378	380	382	384	386	388	388	386	386	390	391	391	392	393	394	395	396	396	396	397	398	398	399	400	401	402	403	403	403	403	402	403	404	404	404	403	403	402	402	402	403	404	405	407	408	409	410	412	413	415	417	419	420	422	423	425	426	427	427	427	428	428	430	430	429	429	430	433	436	438	440	442	444	447	448	449	449	449	449	448	447	446	445	442	438	435	434	434	434	433	432	432	433	433	434	434	434	433	433	433	434	436	440	439	435	429	425	425	425	425	425	425	425	428	433	437	435	432	429	429	429	429	430	431	440	439	434	435	435	432	427	426	428	428	427	427	428	428	429	430	431	430	430	432	435	437	437	437	437	437	437	437	439	442	444	445	448	448	448	447	445	443	442	441	441	445	448	447	445	443	440	436	433	428	424	423	420	417	415	412	408	405	402	398	396	394	392	389	385	381	377	373	369	366	363	360	356	353	350	347	345	342	340	338	334	331	330	328	323	317	310	299	297	300	301	301	300	296	296	297	296	297	299	299	298	297	295	293	290	286	285	285	283	281	276	276	277	276	276	273	268	261	255	250	248	248	245	242	243	245	246	245	243	240	240	240	238	236	238	239	240	240	240	240	239	234	228	225	224	229	234	237	240	239	239	240	243	247	251	256	260	262	263	262	261	261	260	260	263	265	265	264	263	262	260	259	260	261	264	266	266	265	266	266	264	262	261	263	268	269	267	268	270	273	274	276	277	279	279	277	275	270	265	264	263	263	262	261	262	263	263	262	261	262	268	270	275	281	282	284	283	286	287	285	285	286	289	291	291	287	279	268	269	270	267	259	255	253	249	242	238	240	241	241	246	252	259	266	270	273	276	279	282	285	287	289	289	289	289	287	285	284	283	280	277	274	272	271	270	268	266	264	261	257	251	245	242	239	238	243	248	254	258	259	259	258	256	255	256	256	255	253	250	248	246	247	248	248	245	245	245	245	246	248	249	249	249	250	252	252	252	252	252	248	245	244	242	241	242	245	243	238	231	229	229	230	231	229	226	223	221	220	216	210	206	206	205	205	205	202	198	197	197	197	198	199	198	196	196	194	192	189	183	174	170	170	170	169	169	169	169	169	168	167	166	167	167	167	168	170
0	0	0	0	0	0	0	0	0	0	0	0	0	0	0	0	0	0	0	0	0	0	0	0	0	0	0	0	0	0	0	0	0	0	0	0	0	0	0	0	0	0	0	0	0	0	0	0	0	0	0	0	0	0	0	0	0	0	0	0	1	2	3	5	9	12	15	19	25	29	29	29	30	31	33	32	32	32	32	32	32	35	45	47	51	53	54	53	51	50	50	52	54	53	52	51	50	50	52	54	57	59	61	62	62	64	69	72	71	70	70	72	76	82	83	81	79	76	75	75	75	76	82	83	79	77	82	83	81	82	82	81	80	80	78	70	63	61	59	55	52	51	52	58	68	71	72	71	65	59	61	61	60	57	55	55	53	52	51	51	50	50	50	50	49	48	47	46	50	53	53	53	52	49	47	46	44	43	42	40	38	36	36	36	36	37	37	37	37	45	48	46	46	43	40	39	38	38	40	39	34	28	26	26	27	28	28	27	27	28	28	29	31	37	42	44	46	46	46	46	45	43	41	37	36	36	36	37	38	38	39	39	40	40	41	42	42	43	44	46	48	48	48	48	49	50	51	53	54	55	56	57	58	59	60	60	62	63	65	67	69	71	72	74	77	79	80	81	82	83	84	85	86	88	90	92	94	95	96	96	96	97	98	100	103	106	108	111	114	116	119	121	123	127	139	143	146	146	145	145	141	137	138	145	151	152	153	157	161	163	165	165	165	165	168	172	175	178	180	180	182	186	189	194	199	203	208	215	222	224	223	224	230	235	239	243	247	252	257	261	267	273	277	278	280	282	284	285	285	287	290	293	297	300	303	306	310	313	315	317	319	321	323	327	330	332	335	337	340	342	346	351	356	361	367	373	378	384	391	400	410	417	421	427	433	437	440	442	445	448	450	452	453	455	456	456	455	453	451	449	448	447	447	447	447	448	448	448	449	452	453	455	456	457	458	458	459	457	456	456	458	459	461	462	459	457	456	458	458	458	459	460	461	463	463	462	461	460	461	462	463	464	464	464	465	466	466	465	464	461	459	456	454	451	447	442	438	434	430	427	424	421	418	415	412	410	407	405	402	400	399	397	395	393	391	389	387	386	384	382	380	379	377	376	376	376	377	378	379	379	379	379	378	377	376	374	371	370	369	369	369	368	368	369	371	373	375	376	377	379	380	382	384	386	388	389	388	387	388	391	392	392	393	394	396	397	398	398	398	399	400	401	402	403	404	405	406	406	407	407	408	407	407	407	406	406	406	405	405	405	406	407	408	410	411	411	412	414	416	417	419	420	422	424	426	428	429	430	430	430	430	431	432	433	432	432	433	436	439	441	443	445	448	450	452	452	452	452	452	451	450	449	448	446	441	438	437	437	437	437	436	435	436	436	437	436	436	436	435	435	436	438	441	441	439	432	427	426	426	426	426	426	427	429	433	436	435	431	429	429	429	429	429	429	433	436	435	433	428	426	426	426	427	427	428	428	428	428	428	430	431	430	430	431	434	436	437	437	437	437	437	437	438	440	442	443	443	443	442	441	440	439	439	439	439	443	446	445	442	440	437	434	430	425	422	421	419	416	413	410	406	403	400	397	394	393	391	387	384	381	376	371	368	365	362	358	355	351	348	346	344	342	340	338	334	331	329	327	323	318	311	303	299	300	300	300	299	293	291	292	291	293	296	296	295	294	293	290	285	282	281	281	279	276	275	278	277	276	274	270	265	260	256	250	248	247	242	240	242	243	244	243	241	239	239	240	239	236	239	239	236	235	236	236	235	232	229	226	225	228	231	233	235	236	237	239	241	244	248	253	257	259	258	257	257	256	258	262	266	267	267	265	263	259	254	254	256	259	262	264	264	263	263	262	260	258	260	262	265	267	266	267	270	271	271	272	274	275	275	273	269	265	262	262	262	260	258	257	257	259	262	262	261	260	262	263	265	268	268	270	272	278	281	280	279	278	282	286	282	274	267	264	267	266	259	254	253	250	247	240	236	240	239	239	242	247	255	262	267	269	271	274	276	280	283	285	286	285	284	283	281	280	278	276	273	270	270	269	267	265	262	259	256	251	246	241	238	236	236	239	243	248	253	255	256	255	253	252	252	253	252	250	248	246	245	244	245	243	240	241	242	242	242	244	245	246	245	245	247	249	249	247	244	239	236	236	238	238	237	238	237	234	230	228	229	229	229	226	223	220	219	216	210	204	202	203	205	206	204	200	197	195	195	196	196	198	198	196	193	191	185	175	171	170	169	169	169	168	168	168	168	168	166	163	162	163	165	166	167	168
0	0	0	0	0	0	0	0	0	0	0	0	0	0	0	0	0	0	0	0	0	0	0	0	0	0	0	0	0	0	0	0	0	0	0	0	0	0	0	0	0	0	0	0	0	0	0	0	0	0	0	0	0	0	0	0	0	0	0	0	1	2	4	7	11	14	17	22	26	30	31	31	31	31	32	32	32	32	32	32	32	33	41	47	56	56	53	51	50	50	50	52	56	55	51	50	50	52	55	58	60	61	62	62	62	63	69	73	73	72	71	72	77	83	84	82	79	74	72	72	72	73	77	77	74	79	86	87	84	83	82	81	79	78	79	72	63	62	61	58	56	54	54	63	70	72	73	72	70	69	70	71	70	68	66	64	61	58	57	54	53	51	50	50	50	50	50	49	50	51	52	52	51	49	49	49	47	45	43	42	40	40	41	41	41	40	39	38	39	47	48	47	47	47	46	45	43	43	43	41	34	29	28	27	28	28	28	27	27	28	29	30	34	38	44	46	47	47	47	44	40	39	40	39	37	37	37	38	38	39	39	39	40	40	40	41	42	43	44	46	48	48	48	48	49	51	52	54	55	56	57	58	59	60	60	61	62	64	65	67	69	71	72	74	76	78	80	80	81	82	83	85	86	87	89	91	92	93	93	94	95	96	98	100	102	105	108	111	114	116	118	121	123	126	136	143	146	147	147	146	141	137	137	142	150	152	154	157	161	164	166	166	166	166	167	168	170	173	177	179	182	186	189	193	198	202	207	215	222	225	226	228	233	237	242	245	248	253	258	263	269	275	279	282	284	286	288	289	289	290	293	296	299	302	305	308	311	314	316	319	323	325	328	330	333	335	337	339	342	346	351	356	360	365	370	376	381	389	396	405	414	420	424	430	435	437	439	440	442	444	446	448	449	450	450	450	449	449	447	446	444	442	442	442	442	443	443	443	444	446	448	450	452	453	453	452	452	451	451	451	452	454	455	456	456	454	454	454	454	455	455	456	458	459	460	459	457	456	456	458	459	460	460	460	461	462	463	463	461	459	457	455	452	449	446	441	436	432	429	426	423	420	417	414	411	409	406	404	402	400	398	396	394	392	390	389	388	387	384	382	381	380	379	379	379	379	379	380	380	380	380	380	380	378	377	374	372	372	372	371	370	370	370	371	372	374	376	378	380	381	383	384	387	390	392	391	390	390	391	392	393	393	394	396	397	399	400	400	401	401	402	403	404	405	407	408	409	410	411	413	413	412	411	410	409	409	408	408	407	407	408	409	411	412	413	413	414	416	418	419	421	422	424	426	428	430	432	432	433	433	434	434	435	436	436	437	438	440	442	444	447	449	452	454	455	456	456	456	455	454	453	452	451	450	446	443	441	441	441	440	439	439	439	440	440	439	439	438	437	437	437	439	440	441	441	438	429	426	426	426	426	426	428	430	433	435	433	430	429	429	429	430	429	429	431	431	429	428	427	428	428	428	428	428	428	428	428	428	428	429	430	431	430	431	432	435	437	437	437	437	437	437	437	439	441	442	442	440	439	439	439	439	439	439	440	441	442	440	439	437	435	432	428	423	420	420	418	415	411	407	404	400	397	395	393	390	388	385	382	379	375	371	368	364	360	356	353	349	346	344	343	340	338	336	333	330	327	325	322	318	314	307	303	300	299	299	298	292	291	291	291	291	293	294	293	291	289	286	281	279	277	276	274	272	274	276	274	273	270	266	263	259	255	252	248	242	235	235	237	239	242	241	239	238	238	237	234	233	235	234	231	231	232	232	231	230	228	226	225	226	228	226	226	230	233	238	240	242	247	251	253	254	255	255	255	254	255	261	266	268	267	265	257	252	251	250	250	251	257	259	261	261	260	259	256	254	257	260	263	266	266	267	268	269	269	269	271	272	272	269	264	262	261	261	260	257	255	255	254	256	260	262	261	260	260	260	261	262	263	266	266	269	270	269	267	267	268	271	270	267	261	260	261	257	253	251	248	246	243	235	233	238	237	237	240	245	252	259	263	265	267	270	272	275	278	281	282	281	280	279	277	275	273	271	270	268	267	266	264	261	258	256	252	248	243	239	234	233	235	238	242	246	250	251	252	252	250	249	249	249	248	246	245	244	242	241	238	235	233	234	234	237	240	241	242	242	242	242	243	243	242	238	236	234	233	232	236	238	238	237	235	231	228	229	231	229	228	224	220	218	215	209	206	203	200	200	199	200	199	197	195	194	194	194	194	195	194	191	188	181	173	170	170	169	169	168	168	168	168	169	168	167	163	160	158	158	161	163	164	164
