328	335	336	335	333	332	332	332	332	332	332	332	332	331	329	329	329	328	326	321	316	313	310	307	304	302	300	297	293	290	286	283	281	280	277	274	272	266	259	261	266	266	265	261	252	249	251	249	244	240	236	232	227	222	217	213	210	209	206	203	200	196	193	189	185	181	178	175	172	168	163	158	154	150	147	144	142	141	142	143	141	138	135	137	141	141	139	135	133	132	131	130	132	136	141	146	150	153	154	156	158	160	163	165	167	169	171	173	175	175	175	175	176	177	177	178	179	179	179	178	176	175	174	174	174	176	179	181	184	186	189	190	189	187	186	187	188	189	190	194	197	198	198	199	201	200	198	194	188	187	189	190	193	196	196	197	198	200	201	200	197	196	197	199	202	205	206	207	205	204	204	205	207	211	214	215	214	211	207	204	193	186	183	180	177	174	169	166	164	162	162	162	161	159	156	153	150	147	145	141	136	135	135	135	134	132	130	127	125	123	119	114	110	108	105	99	88	79	77	77	77	76	74	70	62	57	57	57	57	56	53	50	48	46	45	44	43	42	41	38	35	33	31	35	42	42	40	38	37	38	37	30	26	31	36	39	42	42	40	42	44	47	48	50	53	54	54	53	54	54	51	48	44	43	44	44	43	43	43	43	43	39	31	24	22	21	20	19	18	19	20	25	29	30	24	15	14	14	15	16	17	18	20	23	26	25	21	17	16	16	13	9	8	9	9	10	15	14	10	8	8	8	8	7	7	8	7	8	8	8	8	9	8	9	9	10	12	15	16	21	25	23	20	13	9	10	14	21	18	11	9	9	9	10	10	10	10	9	10	10	10	10	10	11	11	11	12	12	13	14	14	14	14	15	20	20	18	26	35	37	39	39	39	39	39	39	39	44	48	47	52	55	62	65	66	69	73	78	82	84	84	84	86	99	102	101	101	101	101	101	101	101	104	107	108	106	104	103	106	107	107	105	106	108	109	109	108	107	105	102	100	96	91	87	86	85	84	80	75	71	69	67	64	63	63	64	65	67	71	74	75	73	71	69	68	68	69	70	69	68	69	72	73	72	72	76	77	78	79	81	84	88	93	93	91	100	111	115	120	123	127	134	139	126	122	126	136	138	138	137	137	136	131	127	128	126	124	124	124	126	133	139	139	139	139	139	139	139	139	140	140	142	145	145	146	148	149	150	150	150	150	150	150	150	150	150	150	150	150	152	155	157	158	158	158	158	158	159	159	159	159	159	159	159	160	162	163	163	163	163	164	164	165	165	165	165	165	165	165	166	166	166	168	172	174	175	175	175	175	175	175	176	175	174	174	176	179	181	181	182	182	182	182	182	182	182	182	183	190	195	196	201	212	216	215	213	211	210	214	218	221	222	223	225	226	227	228	230	231	233	236	238	241	243	246	249	253	256	258	261	263	265	266	267	267	267	266	265	263	261	259	256	254	252	250	247	245	243	241	236	231	231	232	232	231	230	230	230	230	229	228	228	230	231	232	231	231	231	229	225	222	219	217	216	215	213	213	212	211	210	210	210	207	205	205	205	204	205	208	209	211	213	214	216	218	219	221	222	224	225	227	228	231	233	235	235	234	233	235	237	237	237	238	238	237	238	242	245	246	246	245	244	244	244	244	246	248	251	255	255	253	255	260	263	264	268	270	272	272	271	270	274	278	282	286	289	293	296	298	299	300	304	311	314	314	307	306	309	313	317	321	321	321	325	331	334	337	341	345	348	348	346	344	343	349	354	355	355	355	354	354	353	354	356	358	360	360	358	355	353	353	354	356	359	361	363	365	367	368	369	371	373	375	377	379	382	385	387	389	392	394	397	399	401	402	404	405	406	407	408	409	410	410	411	411	412	412	412	412	412	413	414	414	414	413	412	410	408	406	404	402	400	398	397	395	393	391	389	387	384	381	377	372	368	364	361	357	353	350	347	345	342	340	338	337	336	336	335	335	334	332	330	329
327	332	335	333	332	332	332	332	332	332	332	332	332	330	329	328	328	327	324	319	315	311	308	305	303	301	298	296	293	290	286	284	282	280	278	274	271	263	260	264	266	266	264	260	252	251	251	248	244	239	235	232	228	223	218	214	211	208	205	202	197	192	189	185	181	178	175	172	169	165	160	156	153	149	146	144	142	141	141	141	141	140	140	141	142	141	137	132	130	129	130	130	131	135	140	144	148	151	152	154	156	159	161	163	164	166	168	170	172	172	172	172	173	174	174	174	175	175	175	175	173	172	172	172	173	174	176	178	181	183	185	186	186	184	183	183	184	184	186	191	195	195	195	196	197	197	195	189	184	183	184	186	190	193	194	196	197	197	198	198	196	195	194	195	197	203	208	210	206	205	205	206	213	216	216	215	213	210	205	200	191	185	181	178	176	173	168	165	163	162	161	160	159	156	153	150	147	145	143	139	136	135	134	133	130	127	123	121	120	119	115	110	107	104	98	84	78	77	77	77	77	76	76	70	60	57	57	56	56	57	56	51	47	45	44	43	42	41	40	37	35	33	30	31	38	38	37	37	37	38	38	34	32	33	36	38	40	40	39	41	43	46	46	47	49	51	51	51	51	50	48	45	40	40	41	41	41	41	41	42	41	36	32	26	22	21	21	20	19	19	21	23	25	21	17	14	13	13	14	14	15	15	17	24	28	27	22	18	16	14	10	8	8	9	9	10	11	9	8	8	8	7	7	7	7	7	7	7	8	8	8	7	7	7	8	8	8	9	9	14	20	21	17	11	11	11	15	20	21	17	14	11	9	9	9	9	9	9	9	10	10	10	10	10	11	11	12	12	13	14	14	15	14	16	20	19	21	30	32	32	38	39	39	39	39	39	39	40	43	48	52	55	61	64	65	67	71	76	81	84	84	84	89	101	102	102	102	102	102	101	101	101	103	105	106	105	102	100	104	106	105	103	104	106	108	108	108	107	104	102	100	97	93	90	87	86	84	81	76	72	70	67	64	63	63	63	64	67	70	72	73	72	70	68	67	67	70	71	69	68	69	70	71	72	74	77	77	77	79	81	85	89	93	93	93	101	109	114	118	122	126	131	136	126	122	126	136	141	143	140	137	135	129	124	124	124	124	124	124	127	135	139	139	139	139	139	139	139	140	141	142	144	146	147	149	150	150	150	150	150	150	150	150	150	150	150	150	151	152	154	156	157	157	157	157	157	158	159	159	159	159	159	159	160	161	163	163	163	162	163	164	164	165	165	165	165	165	165	165	165	165	166	170	174	175	175	175	175	175	175	175	175	176	177	178	180	181	181	182	182	182	182	182	182	182	182	182	184	190	195	197	201	211	213	214	213	212	211	211	216	220	221	223	224	225	226	228	229	231	232	234	236	239	241	245	248	251	254	256	258	261	262	264	264	264	264	264	262	261	258	257	254	252	250	247	244	242	240	236	231	230	231	231	230	229	229	228	228	227	225	224	225	227	229	230	230	229	228	225	221	218	215	213	211	210	210	210	210	209	209	209	208	206	203	202	202	199	200	205	207	208	211	213	215	217	219	220	221	224	226	227	228	230	232	235	236	237	236	238	240	239	238	238	239	238	238	240	244	246	247	247	246	246	246	247	248	251	255	256	255	254	257	262	263	264	265	268	271	272	271	269	273	278	282	285	289	292	295	297	298	299	304	311	314	314	308	306	308	312	317	321	321	321	326	332	335	338	342	346	348	348	347	345	345	351	355	355	355	356	356	356	356	356	357	359	359	359	357	354	353	353	355	357	359	361	364	366	368	369	371	373	374	375	377	379	382	384	387	390	392	395	397	399	401	403	405	407	408	409	410	411	411	412	412	412	412	412	412	413	413	414	415	415	415	414	413	411	409	406	404	402	400	398	396	394	392	390	387	385	382	379	375	371	367	363	359	355	352	349	346	343	341	339	337	336	336	335	335	334	332	330	328	327
325	326	330	331	332	332	332	332	332	332	332	333	333	331	329	328	326	325	322	317	313	310	306	303	301	299	297	295	292	289	286	284	281	279	277	273	267	260	262	265	265	265	263	256	251	252	250	246	242	238	235	231	227	223	219	215	211	207	205	202	196	190	185	181	179	175	172	169	165	160	157	154	151	148	146	144	142	141	141	139	140	141	141	141	141	138	133	129	127	128	129	130	131	134	138	142	146	149	151	152	153	156	158	160	162	164	166	168	169	170	169	169	169	170	171	171	171	171	172	172	171	170	170	169	170	172	175	176	178	180	181	182	182	181	180	180	180	181	182	186	191	192	192	193	194	194	191	185	182	182	181	182	186	189	191	193	195	194	193	195	195	194	193	193	195	199	206	208	205	204	205	208	215	216	215	213	211	207	202	194	188	184	180	177	176	173	167	163	163	162	160	158	155	151	149	146	144	142	139	135	133	133	132	129	124	119	118	117	117	116	113	108	105	98	85	78	77	77	77	77	76	77	76	73	62	57	57	56	56	56	54	49	44	44	43	42	41	40	39	36	33	32	31	31	32	30	29	35	37	38	38	36	34	34	35	37	38	39	38	37	39	43	44	44	44	46	49	48	46	45	45	43	39	37	38	39	40	40	40	41	38	35	32	30	25	21	21	20	19	19	21	21	18	15	14	13	13	13	13	13	13	14	14	19	25	25	20	17	14	10	8	8	9	10	10	10	8	8	7	7	7	7	7	7	7	7	7	7	8	8	7	7	7	7	7	7	7	8	8	10	11	12	11	11	15	16	17	20	22	22	20	16	10	9	9	9	9	9	9	9	10	10	10	10	11	11	12	13	14	14	15	15	15	19	22	21	26	32	33	33	37	39	39	39	39	39	39	39	42	50	55	59	60	63	66	68	71	74	78	83	84	85	92	102	103	102	102	102	102	101	101	101	102	103	105	105	101	99	102	102	101	101	103	105	106	107	107	105	103	100	99	97	94	91	89	86	85	82	78	75	72	70	67	65	64	64	65	67	70	72	73	72	70	68	65	65	68	69	68	68	68	69	70	72	73	75	77	79	80	82	86	90	93	94	98	103	108	113	118	122	126	128	132	127	123	125	133	139	145	140	136	133	128	124	124	124	124	124	125	128	137	139	139	139	139	139	139	140	141	143	145	146	148	149	150	150	150	150	150	150	150	150	150	150	150	151	153	155	155	156	157	157	157	157	157	157	158	158	159	159	159	160	161	162	163	164	164	162	162	163	163	163	164	165	165	165	165	165	165	165	165	166	171	175	175	175	175	175	175	175	175	175	176	177	178	181	182	182	182	182	182	182	182	182	181	182	183	184	190	195	197	202	209	211	212	212	212	211	210	213	216	220	222	224	225	226	227	228	230	231	233	235	237	240	243	246	249	252	254	256	258	260	261	262	262	262	261	260	259	257	254	252	250	247	244	241	238	234	231	229	230	229	229	227	227	227	226	226	226	224	222	224	225	227	228	228	227	225	222	219	216	212	210	208	207	207	207	207	206	206	206	205	203	201	200	198	196	198	204	206	206	209	212	214	216	218	218	220	224	226	228	229	230	231	233	237	239	240	242	243	241	240	240	240	239	238	238	243	247	248	249	248	248	247	248	249	253	256	258	257	255	260	265	265	263	263	266	270	272	272	268	272	278	280	283	286	291	293	295	297	299	304	310	314	314	309	307	308	312	316	320	320	321	325	332	335	338	342	346	348	348	347	345	346	350	353	354	354	355	356	356	357	357	358	359	359	357	355	353	352	353	356	358	360	362	365	367	369	371	373	374	375	376	378	380	382	384	386	389	392	395	397	399	401	404	406	409	411	412	413	414	413	413	413	413	413	413	413	414	415	415	416	416	416	415	414	411	409	406	404	402	400	397	395	393	390	388	386	383	380	377	374	370	366	362	358	354	351	347	344	342	340	337	336	335	335	334	334	333	330	328	326	324
324	324	326	329	331	333	333	332	332	332	333	333	332	331	329	327	325	324	321	317	313	308	304	302	300	298	295	293	290	287	286	283	280	279	277	271	264	263	266	266	265	264	262	253	247	250	248	244	240	237	234	230	226	222	219	216	212	208	205	203	199	192	184	180	177	173	169	165	161	157	155	153	150	149	147	145	143	142	141	139	138	140	141	141	140	136	130	126	125	127	128	131	131	133	136	139	142	146	148	149	150	152	155	157	160	162	164	166	167	167	167	166	166	167	168	169	168	168	168	169	168	168	167	166	167	170	173	175	176	177	178	178	178	177	177	177	178	179	180	183	185	187	189	190	192	191	187	183	181	181	180	180	181	184	188	189	189	189	189	190	191	191	191	193	196	199	202	204	203	203	205	206	211	213	210	205	204	201	195	188	185	182	178	175	174	171	165	162	161	161	158	154	150	148	146	144	142	138	134	132	131	129	126	121	116	114	114	114	114	113	111	106	100	85	77	77	77	77	77	77	77	77	76	73	65	59	57	56	55	54	53	49	46	45	43	41	40	40	38	34	31	31	30	30	30	28	27	34	38	38	37	36	35	34	34	36	37	38	37	35	33	36	37	35	36	41	43	43	42	41	42	42	40	37	36	37	39	40	40	39	38	35	32	32	33	24	21	20	19	19	20	20	16	14	14	13	13	12	12	12	12	12	13	14	19	19	16	12	9	8	8	9	11	11	10	8	8	7	7	6	7	7	7	7	7	7	7	7	8	7	7	7	7	7	7	7	7	7	7	9	9	9	9	11	17	18	18	20	23	24	23	19	10	9	9	9	9	9	9	9	9	10	10	11	11	12	13	13	14	15	15	15	16	21	24	25	31	33	33	33	34	37	39	39	39	39	39	39	42	52	58	62	63	64	67	71	73	74	76	82	84	85	96	102	103	103	102	102	101	101	102	102	102	103	105	104	100	98	100	98	97	98	101	103	105	106	105	103	101	99	98	96	94	92	89	87	85	84	81	78	74	72	70	67	67	66	65	66	69	72	74	74	74	71	64	63	63	62	63	67	68	68	70	72	72	73	77	82	82	82	87	91	93	96	104	107	107	112	118	122	125	126	131	129	123	123	128	133	136	135	135	130	124	123	124	124	124	124	125	130	138	139	139	139	139	139	140	142	143	145	147	148	149	150	150	150	150	150	150	150	150	150	150	150	151	153	156	158	158	157	157	157	157	157	157	157	157	158	159	159	160	161	163	163	164	163	163	163	162	163	163	163	164	165	165	166	166	165	165	165	165	166	172	175	175	175	175	175	175	175	175	176	177	177	178	180	182	182	182	182	182	181	182	182	183	185	184	186	192	196	197	202	208	210	211	212	212	211	210	211	213	218	221	223	224	225	227	227	228	230	231	233	236	238	241	245	248	251	253	254	256	257	258	259	259	259	259	258	257	255	253	250	248	245	242	238	234	230	228	229	228	227	226	224	223	224	224	224	224	224	222	223	223	225	226	226	224	222	220	218	214	211	209	207	206	205	205	204	203	203	203	202	200	198	198	198	198	201	206	208	207	209	211	213	217	218	217	219	224	226	228	229	230	231	232	236	241	242	244	245	243	242	242	242	241	239	238	241	246	248	250	250	250	249	249	250	253	253	256	257	255	261	267	266	262	262	264	269	271	270	267	270	276	279	281	284	288	291	293	296	299	303	308	312	314	311	308	308	311	316	320	320	320	324	331	335	337	341	345	347	348	347	346	347	350	352	352	353	354	355	355	356	357	357	358	357	356	354	351	351	354	357	359	361	363	366	368	370	372	374	376	377	378	379	381	382	384	386	388	391	394	396	399	401	404	408	411	413	415	416	416	415	415	415	414	414	414	415	415	416	417	417	417	417	416	414	412	409	406	403	401	398	396	394	392	389	387	384	382	379	376	373	369	365	361	357	353	349	346	343	340	338	336	334	334	334	334	333	331	329	326	323	322
325	324	325	326	329	333	333	332	332	333	332	332	331	330	328	325	324	323	321	317	313	308	303	300	298	297	295	292	289	286	285	283	280	278	274	266	265	268	268	266	265	263	262	253	247	248	245	241	238	235	232	228	224	221	219	216	212	209	206	204	201	196	189	181	177	173	169	165	161	158	156	154	152	150	149	147	145	144	142	139	138	140	141	141	141	136	128	124	123	123	124	129	130	132	134	136	139	141	144	146	148	150	152	155	158	160	162	163	165	165	165	164	164	165	166	166	166	166	166	166	166	165	164	165	166	168	171	174	174	175	175	175	175	174	174	175	177	178	179	180	182	184	186	188	190	188	185	182	180	179	179	180	180	181	184	185	184	184	185	186	187	188	189	191	195	199	201	202	201	203	204	204	204	205	202	200	198	194	190	186	184	180	175	172	170	167	163	161	159	157	154	150	146	145	144	143	140	134	132	131	129	125	119	114	110	110	111	111	110	110	109	102	85	78	77	77	77	77	77	77	77	76	74	67	63	59	57	57	57	55	53	52	50	47	43	40	39	38	35	31	29	27	27	28	28	28	28	33	36	36	35	33	32	32	33	34	34	35	36	35	32	32	33	33	32	35	36	37	39	40	40	40	40	38	35	36	38	37	37	38	38	34	31	35	38	34	24	20	18	18	18	16	14	13	13	13	13	13	12	11	11	11	11	12	13	12	10	9	9	9	9	10	10	9	8	7	7	7	6	6	7	7	7	6	6	7	7	7	7	7	6	7	7	7	7	7	7	7	7	7	8	8	8	10	15	18	18	19	21	23	23	18	10	9	9	9	9	9	9	9	10	10	10	11	12	13	13	14	15	15	16	16	16	21	25	28	33	33	33	33	33	36	46	44	41	40	38	40	44	50	56	60	64	65	71	77	79	80	82	83	84	85	97	103	103	103	102	102	101	101	102	102	102	104	106	104	100	98	96	94	95	97	98	99	100	102	103	102	100	98	97	96	95	93	90	88	86	85	84	80	75	72	70	68	67	66	65	65	68	71	74	76	76	73	67	61	58	58	59	64	67	68	71	75	74	72	75	80	81	83	88	92	93	99	107	108	108	111	116	120	123	124	128	129	124	122	124	131	133	135	132	125	122	123	124	124	124	124	126	132	139	140	139	139	140	140	142	144	145	147	148	150	150	150	150	150	150	150	150	150	150	150	150	152	154	156	158	158	158	157	157	157	157	157	157	157	157	158	159	160	161	163	163	163	163	163	163	163	163	164	164	164	164	164	164	165	166	166	166	166	165	167	172	175	175	175	175	175	175	175	175	177	178	178	178	180	182	182	182	182	182	182	182	183	187	191	190	190	193	196	196	202	207	208	210	211	212	211	211	213	212	215	220	222	224	225	227	227	228	229	230	232	234	236	239	242	246	249	251	252	254	255	256	257	257	257	257	256	255	254	251	249	246	243	239	234	229	228	228	228	226	224	222	221	220	220	221	222	223	223	222	221	221	223	224	224	222	220	219	216	213	210	208	206	203	202	202	201	201	200	200	200	199	198	199	201	202	206	209	210	210	211	213	215	218	220	220	222	226	229	231	232	232	233	235	238	242	243	245	247	246	245	244	244	243	243	245	242	244	247	249	250	250	251	252	252	253	254	256	256	256	260	266	267	263	262	263	270	271	268	266	268	273	278	280	283	287	290	292	294	297	302	308	311	313	313	310	308	309	314	319	319	319	322	328	333	335	339	343	346	348	348	347	348	349	351	352	353	353	354	355	355	356	357	357	356	354	352	350	351	355	358	360	362	365	367	369	371	373	375	377	379	380	381	383	384	385	386	387	389	392	395	398	401	405	409	413	415	417	417	417	417	417	416	415	415	415	416	417	418	418	419	418	417	416	414	411	409	406	403	400	398	395	393	391	388	385	383	380	377	374	371	368	364	360	355	352	348	345	342	339	337	335	333	333	333	333	332	330	327	323	321	320
327	325	324	324	325	328	329	331	332	332	331	330	328	328	325	323	322	322	320	317	313	308	303	299	297	296	295	292	288	285	283	282	280	277	271	266	267	268	267	265	264	263	261	253	247	246	242	239	237	234	231	227	223	221	218	215	212	209	207	205	202	198	192	182	178	174	171	168	164	160	158	156	154	153	150	148	147	146	143	140	138	139	141	141	141	133	125	123	120	119	120	124	127	129	132	133	135	137	139	142	146	149	151	153	156	158	160	162	163	163	164	163	163	163	164	164	163	164	165	164	163	162	162	163	164	166	169	171	172	172	173	173	172	172	172	173	175	176	177	178	180	182	184	186	187	185	182	180	178	176	175	177	179	179	179	180	179	179	181	182	183	184	186	188	193	197	200	200	201	202	203	203	203	201	200	198	195	191	187	184	182	179	174	169	166	163	161	159	157	154	151	148	144	141	139	138	132	125	127	128	126	121	113	108	106	106	107	108	106	106	104	91	78	77	77	77	77	77	77	77	77	74	67	61	58	57	56	57	58	57	55	53	51	48	42	38	37	36	33	29	25	24	26	27	28	28	29	30	32	33	33	31	31	30	29	29	28	32	34	34	32	31	32	33	32	32	32	33	35	36	36	37	39	38	35	36	36	36	37	37	37	33	31	36	39	38	29	21	19	20	19	15	13	13	13	12	12	12	12	11	11	10	10	10	9	9	8	9	11	14	12	10	9	8	7	7	7	7	6	6	6	7	7	6	6	6	6	6	6	6	6	6	7	7	7	7	7	7	7	7	8	8	8	9	11	14	17	18	19	21	22	17	11	10	9	9	9	9	9	9	10	10	11	11	12	13	14	15	15	16	16	16	17	24	26	29	33	33	33	33	33	35	45	51	49	47	46	50	49	49	54	58	63	66	75	82	84	86	88	85	83	84	97	103	103	103	102	101	100	101	101	101	102	105	105	103	99	95	91	91	94	95	95	94	95	96	98	100	99	98	97	97	96	94	91	89	88	86	84	81	75	71	69	67	67	66	65	64	67	71	74	75	74	72	67	59	56	57	58	59	62	66	71	75	75	73	73	76	78	83	89	92	94	97	104	106	106	109	113	117	120	122	125	127	124	123	124	132	135	135	129	123	122	122	123	123	124	125	129	136	139	139	139	140	141	142	144	146	148	149	150	150	150	150	150	150	150	150	150	150	151	151	153	155	158	159	159	158	157	157	157	157	157	157	157	157	157	157	158	160	163	164	163	163	163	163	164	164	164	165	165	164	164	164	164	164	165	166	166	167	167	167	171	174	175	175	175	175	175	175	176	177	178	178	178	180	182	182	181	181	182	182	186	189	191	193	192	192	192	193	193	199	206	207	208	210	211	212	213	215	214	213	217	221	223	224	226	227	227	228	230	231	233	235	237	240	244	246	248	250	251	252	254	255	256	256	256	255	254	253	250	248	245	242	236	230	227	228	227	226	223	221	219	218	218	218	219	219	220	220	220	219	219	221	222	221	219	218	216	214	211	209	207	204	202	200	200	199	198	198	198	198	198	199	201	203	205	208	211	212	214	216	217	218	220	223	224	224	227	232	235	235	235	236	237	239	242	243	248	251	250	249	247	248	248	250	252	246	243	246	248	248	249	251	254	255	256	257	257	257	256	259	265	267	268	270	270	276	273	267	266	267	272	277	281	284	288	290	292	293	295	300	306	310	313	314	312	309	309	311	316	319	319	319	323	329	333	337	340	344	347	347	347	348	350	351	352	353	353	354	354	355	356	357	356	354	352	350	350	351	355	359	362	364	367	368	370	372	375	376	378	380	382	383	384	385	386	387	388	389	391	394	397	400	404	409	413	416	417	418	418	419	419	418	417	416	417	418	418	419	419	419	419	418	416	414	411	408	405	402	400	397	395	392	390	387	384	381	378	375	372	369	366	362	358	354	351	347	344	341	338	337	335	333	332	332	332	331	329	325	322	320	318
328	328	327	325	324	324	325	326	326	327	329	328	326	326	323	320	320	320	319	316	312	308	304	299	295	295	294	292	288	284	281	280	280	276	271	270	269	266	263	259	258	258	257	253	249	245	241	239	237	234	232	228	225	222	219	216	213	210	208	206	203	199	193	184	179	176	173	170	167	163	161	159	157	155	152	149	147	146	143	140	138	138	140	140	137	127	123	122	120	118	118	120	122	126	129	131	133	135	135	139	145	148	150	151	154	156	158	160	161	162	162	162	161	161	161	161	161	161	162	162	161	160	160	161	162	164	166	167	168	169	170	171	171	169	169	169	171	172	174	176	178	180	181	183	183	181	179	178	175	172	170	171	175	176	175	175	175	176	178	181	182	182	184	187	190	193	196	197	199	201	202	202	202	200	199	196	193	189	185	182	181	178	173	167	163	161	159	158	155	153	151	147	142	137	132	130	126	121	121	121	120	115	108	105	103	103	104	104	103	101	91	80	77	77	77	77	77	77	77	77	75	69	61	57	56	56	56	56	57	57	55	52	51	49	43	38	36	34	31	27	23	22	26	28	28	28	27	28	30	31	31	30	30	28	24	21	22	30	33	33	32	30	30	31	30	30	29	29	31	33	33	36	37	37	36	35	34	35	36	36	34	34	35	37	39	38	35	24	20	24	20	15	14	13	12	11	11	11	11	11	11	10	10	9	8	8	9	12	16	16	12	9	8	7	7	7	7	7	6	6	6	6	6	6	6	6	6	6	6	6	6	6	6	6	7	7	7	7	7	7	8	8	8	8	8	10	15	19	20	20	21	20	17	13	9	9	9	9	9	10	10	10	11	12	13	13	14	15	16	16	16	16	19	25	27	30	33	33	33	33	33	35	47	53	54	53	54	55	54	52	55	58	61	65	73	82	84	86	87	85	83	85	98	103	102	102	102	101	100	100	100	100	101	103	104	100	95	91	88	88	90	90	90	90	90	91	94	96	97	97	97	97	96	95	92	91	90	87	84	81	75	70	68	66	65	65	64	63	65	68	72	72	69	67	65	58	56	56	58	59	60	65	69	73	74	72	73	76	80	83	86	89	91	94	97	103	107	109	112	116	119	121	125	127	126	123	125	133	136	136	131	123	122	122	122	122	124	129	136	139	140	140	139	141	143	145	147	148	149	150	150	150	150	150	150	150	150	150	151	153	154	155	156	158	160	160	159	158	157	157	157	157	157	157	157	157	157	157	158	159	162	164	164	163	163	164	164	164	164	164	164	164	164	164	164	164	164	164	165	166	166	167	169	171	173	174	175	175	175	175	175	176	178	178	178	180	182	182	182	182	183	184	189	192	192	192	192	192	192	192	192	198	205	207	207	208	208	210	214	217	217	216	215	219	222	223	225	226	226	228	230	231	233	234	236	239	242	244	245	247	249	250	251	253	254	254	254	254	253	252	249	247	244	241	235	229	227	227	226	224	221	219	217	216	217	217	217	217	217	217	217	216	217	219	220	218	217	216	214	211	209	207	205	202	200	199	198	197	197	197	197	196	197	199	202	204	206	210	213	215	217	219	220	222	224	227	228	228	230	234	236	236	236	238	239	240	241	242	248	253	254	253	251	252	253	253	252	249	244	245	245	246	247	250	254	257	258	259	260	258	257	258	264	267	271	276	278	277	273	268	265	266	271	277	281	285	287	290	292	293	294	298	303	308	311	314	314	312	310	310	313	318	319	318	319	322	329	335	338	341	345	347	347	349	350	351	352	353	354	354	355	356	356	356	355	353	351	349	349	352	356	360	363	366	369	370	372	374	376	378	380	381	384	385	386	387	387	388	389	390	392	394	397	400	403	408	413	416	418	418	419	419	419	419	418	418	418	419	420	421	421	420	419	418	416	414	411	408	405	402	399	396	394	391	388	385	383	379	376	374	371	367	364	360	356	353	350	347	343	340	338	336	334	332	331	331	330	329	326	323	321	319	316
327	329	329	327	324	323	323	324	323	324	326	325	324	323	320	317	317	316	315	313	311	308	304	300	296	294	293	291	288	284	281	279	279	278	273	271	270	266	258	253	253	256	256	254	251	247	242	240	238	235	233	231	227	224	221	218	215	212	209	207	204	201	194	187	183	178	174	171	169	167	163	161	159	157	154	150	148	146	143	141	139	138	138	137	132	126	123	121	117	115	117	117	119	123	125	127	131	133	133	136	142	146	148	149	151	153	155	157	159	159	160	160	160	159	158	158	158	159	160	159	159	159	159	159	160	161	163	164	164	166	167	169	169	167	166	166	166	168	171	174	175	177	178	180	179	177	175	174	172	169	167	167	169	172	173	173	174	175	177	180	182	182	183	185	188	190	192	193	197	200	201	200	199	198	196	194	191	187	182	180	178	174	169	163	161	160	158	156	154	151	149	146	140	130	125	123	121	119	117	116	115	110	105	102	100	99	99	100	98	90	79	77	77	77	77	77	77	77	77	77	74	64	58	55	56	57	56	56	57	57	55	51	51	50	45	40	36	33	31	26	22	23	26	29	28	26	24	25	27	29	33	33	31	28	21	20	20	23	30	32	31	30	28	27	27	26	24	24	27	30	32	34	36	36	35	32	30	33	34	33	33	35	37	38	39	38	38	32	22	24	19	15	14	12	11	11	10	10	11	11	11	10	9	8	8	8	10	15	16	13	9	7	7	7	7	6	6	7	7	7	6	6	6	6	6	6	6	6	7	7	6	6	6	6	6	7	7	7	7	7	8	8	8	8	8	8	11	16	19	19	19	20	20	16	10	9	9	9	10	10	10	11	11	12	13	14	15	15	16	16	16	16	20	25	26	31	33	33	33	33	33	40	53	57	57	56	58	61	61	57	57	59	61	64	69	76	82	85	85	83	83	89	101	103	102	102	102	101	100	100	100	100	100	102	104	99	94	90	86	84	83	82	84	84	84	84	87	90	92	94	96	96	96	95	92	91	89	86	83	80	75	70	66	64	62	63	63	62	63	64	66	66	64	64	62	57	57	58	60	62	62	65	68	71	72	73	75	79	83	85	85	87	89	92	96	104	108	110	113	116	118	120	125	130	130	124	124	132	137	136	130	123	122	122	122	122	125	134	140	140	140	140	140	142	145	147	149	150	150	150	150	150	150	150	150	150	150	152	154	156	158	158	158	159	160	160	159	158	157	157	157	157	157	157	157	157	157	157	157	158	161	163	164	164	164	164	164	164	164	164	164	164	164	164	164	164	164	164	164	164	164	164	165	166	167	169	170	173	175	175	175	176	177	178	178	182	183	184	185	187	189	189	191	192	192	192	192	192	192	192	192	199	205	206	206	206	206	207	212	215	218	219	215	215	218	222	224	225	226	228	230	231	232	234	236	238	240	241	243	244	246	247	249	250	251	252	252	252	252	250	248	246	244	240	235	229	226	226	225	223	220	218	216	215	215	215	214	214	214	215	215	215	215	217	217	216	215	213	211	209	207	205	202	200	198	196	194	193	194	195	195	195	196	198	202	205	208	212	215	217	219	221	224	226	229	231	231	232	234	235	235	236	238	240	241	242	242	244	249	254	255	255	253	254	255	252	249	249	247	244	243	245	248	250	253	256	259	260	261	260	258	258	261	265	269	276	277	271	269	266	265	266	270	275	279	283	286	289	292	293	295	298	301	305	309	312	314	315	313	311	311	316	320	318	317	318	324	333	338	340	343	345	347	349	350	351	352	354	354	355	355	356	356	355	353	351	350	349	351	354	358	361	365	368	371	373	374	375	377	379	381	383	385	387	388	389	389	390	391	392	393	395	398	400	403	407	412	416	418	419	419	420	420	420	419	419	420	420	421	422	421	420	419	417	415	412	410	407	404	401	398	395	392	389	386	384	381	378	375	372	369	366	362	359	356	352	349	346	343	340	338	336	334	331	330	329	328	326	325	323	320	318	316
325	327	329	327	325	323	323	324	323	324	324	322	322	321	318	316	314	313	312	311	309	306	303	300	297	294	292	290	287	284	280	278	277	277	274	272	270	264	256	252	255	258	257	255	249	246	244	242	239	237	234	232	229	226	222	219	216	213	210	207	205	201	196	190	185	181	176	173	171	169	166	163	161	159	156	152	149	146	143	142	141	138	136	133	129	126	124	122	117	110	111	113	115	118	122	125	128	130	131	133	138	143	146	148	149	151	152	154	156	157	157	158	158	157	156	156	157	157	157	155	152	152	155	157	158	159	160	161	161	163	165	166	167	165	163	162	163	165	168	170	172	174	175	176	176	174	171	170	168	166	165	165	167	171	173	172	172	173	176	180	182	182	182	184	186	189	191	192	195	198	199	198	197	195	193	191	188	184	180	177	173	168	165	162	161	159	158	156	152	149	147	143	135	125	123	121	120	117	113	111	108	106	103	100	97	96	96	96	91	80	77	77	77	77	77	77	77	77	77	76	74	62	56	55	56	56	56	59	63	61	54	51	54	54	46	41	36	32	31	26	22	23	27	31	28	24	22	22	22	22	26	37	32	27	20	19	19	20	24	29	30	28	25	23	23	22	20	20	24	26	31	36	38	36	34	32	31	33	33	33	34	36	37	38	38	36	36	33	22	20	17	15	14	12	11	10	10	10	10	11	14	14	9	8	8	8	9	14	13	9	8	7	7	7	6	6	6	7	6	6	6	6	6	6	6	6	6	7	7	7	7	6	6	6	6	7	7	7	7	7	7	8	8	8	8	8	9	11	14	16	19	20	20	16	10	9	9	9	10	10	10	11	12	13	14	14	15	16	16	16	16	17	21	24	26	31	33	33	33	33	35	48	57	58	57	57	60	64	65	62	59	61	64	69	73	74	78	81	82	83	83	93	103	102	102	102	102	101	101	101	101	100	101	106	110	104	95	90	84	80	79	79	79	79	80	80	82	85	89	92	94	94	94	94	92	90	88	85	82	79	75	69	65	63	61	60	61	61	61	61	61	63	65	65	63	60	61	61	61	63	65	66	69	70	72	74	77	80	83	85	85	86	88	91	95	103	107	110	114	116	117	121	127	133	134	126	123	125	129	128	124	122	122	122	122	123	129	137	140	140	140	140	142	145	148	149	150	150	150	150	150	150	150	150	150	151	153	156	157	158	158	158	159	159	160	159	159	158	157	157	157	157	157	157	157	157	157	157	157	157	159	162	164	164	164	164	164	164	164	164	164	164	164	164	164	164	164	164	164	164	164	164	164	164	164	164	165	169	176	176	176	176	177	178	180	186	188	189	190	192	194	194	192	192	192	192	192	192	192	192	193	199	205	206	205	206	206	207	210	213	216	218	217	215	215	219	223	224	226	228	230	231	232	233	235	237	238	239	240	242	243	244	245	247	248	249	250	250	249	248	246	244	242	239	235	229	226	227	226	223	220	217	215	213	213	212	212	212	213	213	213	214	214	214	214	213	212	211	210	207	205	202	199	197	195	193	190	189	189	191	193	194	196	199	203	207	210	213	216	218	221	224	226	229	232	234	234	235	236	235	235	237	240	242	243	244	244	247	250	253	254	253	253	253	254	251	247	246	246	247	248	249	250	252	254	256	258	260	261	262	261	259	259	262	265	270	271	269	268	268	268	268	270	273	277	282	285	288	291	293	296	298	300	303	307	311	313	316	317	314	311	313	317	317	316	317	318	328	337	339	341	343	345	347	349	350	351	353	354	354	354	354	354	352	351	350	349	350	353	357	359	363	367	370	373	375	376	377	378	380	381	383	385	387	389	390	391	393	393	394	396	397	399	402	404	408	412	415	418	419	420	420	420	421	421	421	421	422	422	422	421	419	417	414	412	410	408	405	402	399	396	393	390	387	384	382	380	377	374	371	368	364	361	358	355	352	349	347	344	341	338	336	335	333	330	328	327	325	324	322	320	318	316
323	325	327	327	325	323	323	323	323	324	324	322	321	320	318	314	310	309	307	306	304	303	302	300	297	293	291	289	286	283	279	277	275	274	273	273	269	262	257	256	259	259	257	254	247	242	242	242	240	238	235	232	229	226	224	220	216	213	210	207	205	201	197	192	186	182	178	175	172	170	168	165	162	160	158	155	151	148	144	143	142	138	135	131	127	125	123	123	121	112	109	111	113	115	118	123	126	128	129	132	135	140	145	147	148	149	150	152	153	154	154	155	155	154	154	155	155	155	154	149	145	145	148	153	155	156	157	158	160	161	162	164	165	163	160	159	161	163	166	168	169	171	172	173	172	170	168	167	165	162	160	160	160	165	168	167	168	169	172	177	179	180	181	183	185	188	190	191	194	196	196	195	194	192	190	188	186	182	178	175	171	168	168	164	160	158	157	155	150	147	143	138	131	124	123	120	118	113	109	107	104	103	100	97	95	93	92	90	81	77	77	77	77	77	77	77	77	77	76	75	66	57	55	55	56	56	56	62	69	67	56	52	57	55	45	40	34	32	31	26	22	22	26	31	28	21	19	19	19	20	31	37	31	26	20	19	19	19	20	25	28	26	23	21	19	19	18	18	21	24	31	37	39	35	32	32	32	33	32	32	34	35	36	38	37	34	34	31	24	22	16	15	14	12	11	10	9	9	9	14	21	18	9	8	8	8	9	10	9	7	7	7	6	6	6	6	7	6	6	6	6	6	6	6	6	6	6	7	7	7	7	6	6	6	7	7	7	7	7	7	7	7	8	8	7	8	8	9	9	15	20	20	20	16	10	9	9	9	10	10	11	12	12	13	14	15	16	16	16	16	16	17	22	25	28	32	33	33	33	33	39	55	58	57	57	58	63	67	67	64	61	66	70	75	77	76	77	78	80	82	83	93	103	102	101	102	102	101	100	101	101	100	102	110	113	109	98	90	83	78	76	76	76	76	77	78	80	83	86	90	93	93	93	92	91	89	87	84	81	79	74	68	63	60	58	58	58	59	60	60	60	64	69	67	64	62	63	62	61	65	69	69	70	71	74	76	78	79	82	83	84	85	87	90	94	101	105	109	114	115	116	121	129	134	136	129	123	123	123	122	122	122	122	122	122	124	132	139	140	140	140	141	147	149	150	150	150	150	150	150	150	150	150	150	152	155	157	158	158	158	158	158	158	159	159	159	159	159	158	158	157	157	157	157	157	157	157	158	158	157	158	161	164	164	164	164	164	164	164	164	164	164	164	164	164	164	164	164	164	164	164	164	164	164	164	164	164	167	177	178	177	177	178	177	181	188	191	192	194	196	195	193	192	193	193	192	192	192	192	192	193	199	205	206	206	206	205	206	208	210	213	216	218	217	214	216	220	223	225	227	229	230	231	233	234	236	236	237	238	239	240	241	242	243	245	247	248	248	247	246	244	243	241	239	235	229	226	228	229	225	221	216	214	212	212	212	211	211	212	212	211	211	211	211	210	210	209	208	206	204	202	199	196	194	192	189	187	186	186	187	190	192	197	201	205	208	211	214	217	220	224	226	228	230	234	235	235	236	236	235	236	240	242	244	245	245	246	248	250	252	252	253	255	256	256	254	252	247	245	246	250	251	252	253	255	257	258	259	261	264	265	262	259	260	262	264	265	265	269	272	272	270	271	273	276	282	286	289	292	294	297	298	299	302	306	310	312	315	318	317	313	312	314	315	316	316	317	325	334	337	339	341	343	344	346	347	348	349	351	351	352	351	351	350	348	348	349	352	355	358	361	365	369	372	374	376	377	378	379	380	382	384	386	388	390	391	393	395	396	397	398	400	402	403	406	409	412	415	417	419	421	421	421	421	422	422	422	423	423	423	421	418	415	412	410	408	405	403	400	398	395	392	388	385	383	381	379	376	373	370	367	364	360	357	355	352	349	347	345	342	339	337	335	334	331	329	327	325	324	322	319	317	315
321	323	326	326	325	324	324	324	324	325	325	323	321	319	317	313	308	304	302	301	300	301	300	298	295	291	288	287	284	281	278	275	273	274	273	272	268	262	259	258	257	256	254	252	248	245	242	240	240	239	236	232	229	226	224	220	216	213	210	207	205	202	197	192	187	183	179	176	174	172	169	166	164	162	160	157	153	150	145	144	142	139	135	131	128	126	124	123	121	116	114	114	113	114	116	120	123	126	128	131	133	137	142	144	146	147	148	150	150	151	151	151	152	152	152	153	152	152	149	143	142	143	146	152	153	155	155	156	158	160	161	161	162	160	158	156	158	162	165	166	167	168	169	170	169	168	167	166	163	158	155	155	155	157	160	161	164	166	169	173	176	177	179	182	184	186	188	190	193	193	193	192	191	189	187	186	183	180	176	173	171	169	170	165	159	156	154	150	145	142	136	133	127	123	120	115	112	109	106	105	102	100	97	95	93	91	90	87	78	77	77	77	77	77	77	77	77	77	76	73	60	55	55	55	55	55	55	63	69	64	53	51	53	48	43	37	33	32	32	27	22	22	24	30	31	22	19	19	19	21	31	31	30	28	22	20	20	20	20	23	27	26	23	19	17	17	17	17	18	21	31	35	36	33	31	32	33	33	31	31	32	33	34	33	31	31	32	33	32	23	15	14	13	12	11	9	9	8	8	11	14	11	8	8	8	9	9	8	7	7	7	7	6	6	6	7	6	6	6	6	7	6	6	6	6	6	7	7	7	7	7	6	6	7	7	7	7	7	7	7	7	7	8	8	7	7	8	8	9	12	18	19	20	16	9	9	9	9	10	10	11	12	13	14	15	15	16	16	16	16	17	22	26	27	30	33	33	33	33	34	45	56	57	57	57	59	65	69	69	68	67	70	73	75	78	79	79	80	82	82	83	93	102	101	101	101	101	100	100	100	101	101	104	112	113	111	99	90	84	77	74	73	73	73	75	76	78	80	83	87	90	91	91	90	89	88	86	83	81	77	72	66	59	56	54	55	56	57	57	57	57	64	68	65	61	60	60	60	60	65	69	69	70	73	76	76	76	78	80	81	82	83	86	88	92	98	102	107	113	114	115	121	127	131	132	131	126	123	122	122	122	122	122	122	122	124	133	139	140	140	140	141	146	150	150	150	150	150	150	150	150	150	151	154	156	158	158	158	158	158	158	158	158	158	159	159	159	160	160	159	158	157	157	157	157	157	157	158	158	157	159	163	165	164	163	164	164	164	164	164	164	164	164	164	164	164	164	164	164	164	164	164	164	164	164	164	164	167	176	179	178	178	178	179	183	189	192	194	195	196	195	194	192	197	199	198	198	196	193	193	194	201	204	206	207	206	204	205	207	209	211	213	216	217	216	216	216	221	225	227	228	230	231	232	233	234	235	236	237	237	238	238	239	241	242	244	246	246	245	244	243	241	240	237	234	229	226	228	229	226	222	217	214	213	213	212	210	210	210	210	210	209	209	209	208	207	206	204	202	200	198	195	192	190	188	187	185	185	186	187	188	191	197	203	206	209	211	214	218	222	226	228	229	231	233	233	233	234	235	236	238	243	245	245	245	246	247	249	251	251	253	255	259	259	258	257	256	253	247	245	248	251	253	254	257	260	259	259	262	264	265	265	263	262	261	261	261	263	268	273	273	271	273	275	276	281	287	290	292	295	297	299	300	303	307	309	311	314	317	318	317	313	313	314	314	315	317	324	333	335	337	338	339	340	342	343	344	344	345	347	348	348	348	348	347	348	349	353	356	359	362	366	370	373	375	377	378	378	379	380	382	384	386	388	390	392	394	396	397	398	400	402	404	405	407	410	413	416	418	420	421	422	422	422	422	423	424	424	425	424	422	418	415	412	409	407	404	402	400	397	394	391	388	385	383	381	378	375	372	370	366	363	360	357	354	351	348	347	345	342	340	337	335	334	332	330	328	326	324	322	319	316	314
319	321	324	326	326	325	326	326	326	326	325	323	321	319	316	313	309	304	300	299	298	298	296	295	292	288	285	284	281	278	275	268	270	273	273	272	268	262	260	258	254	252	251	251	250	250	246	240	239	239	235	232	228	226	223	220	217	214	210	207	205	202	199	194	189	186	182	178	176	174	171	168	166	164	162	159	155	151	147	144	143	139	136	132	130	128	125	122	119	116	116	116	115	114	114	117	120	124	127	129	131	134	139	141	143	144	146	147	148	147	147	148	149	150	150	150	150	149	147	142	140	140	143	149	151	152	153	154	156	157	158	159	159	157	155	153	154	159	163	165	165	166	168	168	167	166	165	165	162	156	152	152	152	154	157	160	163	164	165	168	172	174	176	179	182	184	186	189	190	189	189	188	186	183	182	181	179	177	173	171	170	169	168	163	158	155	151	148	138	137	134	131	126	125	121	113	109	107	105	103	100	97	94	92	91	89	88	84	78	77	77	77	77	77	77	77	77	77	76	67	56	54	54	55	55	55	55	62	67	57	51	49	44	42	41	35	32	32	34	29	23	22	22	30	34	29	26	26	26	28	30	29	29	29	27	24	24	23	22	26	30	29	27	20	17	17	17	17	18	21	31	34	34	33	33	33	33	32	31	30	31	32	31	25	24	28	30	34	35	24	15	14	13	12	10	8	8	8	8	8	8	8	8	8	8	8	8	7	7	7	7	7	6	6	7	6	6	6	6	6	6	6	6	6	6	6	6	7	7	7	7	7	6	7	7	7	7	7	7	7	7	7	7	7	7	7	7	8	8	10	14	18	20	18	10	9	9	10	10	11	12	13	14	15	16	16	17	17	17	17	18	28	31	30	33	34	34	33	34	36	48	55	56	57	59	62	66	70	71	71	71	73	74	75	79	82	82	82	82	82	83	94	102	101	99	100	100	99	99	100	101	102	107	112	111	109	98	93	89	81	73	71	70	70	72	74	77	78	81	85	88	89	89	88	87	86	84	82	79	75	70	63	58	54	52	53	54	55	55	55	55	59	62	60	59	58	59	60	61	63	65	67	69	74	76	74	73	76	78	80	80	81	84	87	90	95	100	105	109	112	113	118	122	125	125	127	127	125	123	122	122	122	122	122	122	123	129	138	140	140	140	140	142	148	150	150	150	150	150	149	149	150	155	157	158	158	158	158	158	158	158	158	158	158	158	159	159	160	161	160	159	158	157	157	157	158	158	158	157	158	161	165	165	164	163	163	164	164	164	164	164	164	164	164	164	164	164	164	164	164	164	164	164	164	164	164	164	168	177	178	178	178	179	183	188	191	194	194	194	194	194	195	196	199	202	203	202	201	197	195	196	202	203	204	205	204	204	205	206	208	211	213	214	216	217	217	216	218	223	226	228	229	230	231	232	233	233	234	235	235	235	235	235	236	237	239	241	244	243	243	241	239	238	236	233	228	225	228	229	228	223	218	215	213	212	211	209	208	208	208	208	207	206	206	205	204	203	201	198	196	194	191	188	187	185	185	185	186	187	187	189	192	198	204	207	209	212	216	219	223	227	229	228	228	229	231	232	234	236	237	241	245	246	246	246	247	249	251	252	253	254	258	261	260	259	258	258	256	250	245	245	248	252	256	261	263	262	261	262	264	265	267	267	266	263	262	262	263	267	272	273	273	274	275	276	282	288	290	292	294	296	299	301	304	307	309	310	313	316	318	319	317	314	313	313	314	316	326	332	333	334	335	336	337	340	342	344	345	345	346	347	347	347	348	348	348	349	352	356	359	362	365	369	372	375	377	378	378	379	381	383	384	386	388	391	392	394	397	398	400	402	404	406	407	408	411	413	416	418	420	422	422	423	423	423	424	424	425	425	424	422	419	416	412	410	407	405	402	400	397	395	392	389	386	383	381	378	374	371	369	366	363	359	356	353	350	348	346	344	342	339	338	336	334	332	331	329	327	325	322	319	316	313
316	318	321	324	325	325	326	326	326	325	324	321	319	317	315	312	309	305	300	299	295	293	293	292	290	286	284	283	281	277	271	264	269	274	273	272	267	262	259	256	252	250	251	251	251	250	249	243	239	239	236	231	228	225	223	220	218	215	211	208	206	204	201	197	193	190	187	183	180	177	174	171	170	167	164	160	157	153	149	145	142	138	135	133	131	129	127	123	120	117	116	116	114	111	112	113	116	121	125	127	129	131	135	138	141	142	143	144	145	145	145	145	147	147	148	148	148	148	148	144	141	139	141	144	147	148	149	151	152	154	155	156	156	155	152	151	151	155	160	162	163	165	166	166	164	163	163	162	160	154	150	149	150	152	155	157	159	161	162	163	167	172	174	177	181	184	186	187	187	187	186	184	180	178	176	176	175	173	171	170	170	167	163	159	156	154	153	149	140	140	137	133	130	128	123	115	110	107	104	102	99	95	92	89	87	83	82	79	77	77	77	77	77	77	77	77	77	76	71	59	54	54	54	55	57	56	56	59	57	53	50	45	41	40	38	33	32	33	37	31	23	22	23	32	33	29	29	32	34	32	30	28	29	30	28	26	27	27	26	29	31	31	29	21	17	17	17	17	18	22	32	34	34	33	33	33	33	31	29	29	30	31	31	25	24	27	28	32	32	20	14	13	12	10	8	8	7	8	8	8	8	8	8	8	8	8	7	7	6	7	6	6	7	7	6	6	6	6	7	6	6	6	6	6	6	6	6	6	7	7	7	7	7	7	6	6	6	7	7	7	7	7	7	7	7	7	7	8	8	9	11	16	20	20	13	10	9	10	10	11	12	13	14	15	16	17	17	17	17	17	20	28	31	33	36	36	35	35	36	41	47	52	55	60	63	65	68	71	72	72	73	75	76	77	81	83	82	82	82	82	84	94	100	100	99	99	99	99	99	100	102	105	108	109	108	103	98	97	95	89	75	69	68	68	70	72	75	77	80	84	87	87	87	86	85	83	81	79	77	73	69	63	57	53	51	52	53	53	54	54	54	54	55	57	58	58	59	62	63	64	64	65	68	73	76	73	72	74	76	77	78	79	82	85	88	93	98	101	106	109	111	114	118	120	123	126	128	127	124	122	122	122	122	122	122	122	125	134	140	140	140	140	140	145	149	150	150	150	149	149	148	149	154	158	158	158	158	158	158	158	158	158	158	158	159	159	160	160	161	161	160	159	158	158	157	158	158	157	157	160	164	166	167	165	164	164	164	165	165	165	165	164	164	164	164	164	164	164	164	164	164	164	164	164	164	164	165	172	177	178	178	181	185	188	190	193	195	195	194	194	195	196	198	199	201	203	202	203	202	196	197	202	203	203	203	203	204	205	206	208	211	213	214	215	216	217	217	217	219	223	225	227	228	229	230	231	231	232	232	231	230	228	229	230	231	233	234	237	241	240	239	237	235	234	231	226	225	228	230	228	224	219	215	212	210	208	207	206	206	206	206	205	203	202	201	200	199	197	194	192	191	189	187	185	184	184	185	186	187	188	190	194	200	204	206	209	213	217	220	223	226	227	226	225	227	231	234	235	237	240	244	247	247	247	247	249	252	253	254	255	257	260	262	260	258	258	258	256	252	247	245	246	250	260	265	265	263	263	265	265	265	267	269	270	269	265	263	264	267	271	272	273	275	276	277	285	290	291	292	292	294	297	300	303	305	307	308	312	315	317	319	319	317	315	314	315	318	326	331	332	333	335	335	337	341	344	346	347	348	348	349	348	349	349	349	349	350	352	356	359	362	365	368	371	374	376	377	378	379	380	382	384	386	388	390	392	395	397	399	401	403	405	407	408	410	412	414	417	419	421	422	423	424	424	424	424	424	424	424	423	421	419	416	414	411	408	405	402	400	397	395	392	389	386	384	381	378	374	371	368	366	362	359	356	353	350	347	345	343	342	340	338	337	335	333	331	329	327	325	322	319	316	313
312	315	319	322	323	323	324	325	325	324	321	319	317	315	313	310	309	306	301	299	294	291	292	292	289	286	283	282	281	278	270	264	270	274	272	270	266	260	257	254	251	251	251	251	251	251	250	245	240	241	237	233	230	227	224	221	219	216	213	209	207	205	203	199	196	194	192	188	185	181	178	175	174	171	167	163	159	156	151	146	142	138	135	133	132	131	128	124	121	118	116	114	111	110	110	109	112	116	121	125	126	128	131	135	137	139	140	141	142	142	143	143	144	145	146	146	147	147	147	146	143	141	142	142	143	144	145	147	149	151	152	153	154	153	151	149	150	153	156	158	160	162	163	163	161	160	159	158	156	151	147	147	148	150	151	152	153	156	159	160	163	169	173	177	180	183	185	186	186	185	183	180	177	175	173	172	170	168	168	168	166	162	158	156	154	154	155	152	143	136	135	134	133	130	125	118	111	107	104	103	99	95	90	84	80	78	77	77	77	77	77	77	77	77	76	76	75	71	62	54	53	53	54	58	62	60	56	54	53	51	46	41	40	40	36	33	32	33	37	33	26	23	23	31	30	29	29	32	33	31	29	28	29	30	29	28	29	29	27	29	30	29	25	20	17	17	17	17	18	24	33	34	34	33	32	32	31	28	23	25	30	30	30	23	24	26	26	28	26	15	12	11	9	8	7	7	7	8	8	8	8	8	8	8	8	7	7	6	6	6	6	6	7	6	6	6	6	6	6	6	6	6	5	6	6	6	6	6	6	6	7	7	7	6	6	6	6	6	7	7	7	7	7	7	8	8	7	7	8	8	9	15	21	22	19	13	10	10	10	11	12	14	15	16	17	18	18	18	17	21	26	28	29	32	37	37	37	37	39	46	49	52	57	62	65	67	70	72	73	74	75	76	77	79	82	82	82	82	82	84	88	95	99	99	99	99	99	99	99	100	102	105	105	105	103	98	97	97	96	91	76	69	67	67	68	71	74	76	79	82	85	85	85	84	82	81	79	77	76	72	67	62	57	54	51	52	52	52	53	53	53	51	53	57	58	59	60	63	64	65	66	66	67	71	74	71	70	72	74	75	75	77	80	83	87	91	96	99	103	108	110	112	116	119	122	126	129	128	126	123	122	122	122	122	122	122	123	130	139	140	140	140	140	141	147	150	150	149	148	148	147	147	151	156	158	158	158	158	158	158	158	159	159	160	160	161	162	162	161	161	161	161	160	159	158	157	158	157	159	163	166	166	167	166	165	165	166	166	167	167	167	166	166	166	167	167	167	167	167	167	168	168	168	168	168	168	170	175	177	179	182	188	191	190	190	191	193	194	196	197	197	198	199	199	199	201	201	201	200	197	197	202	204	203	203	204	204	205	206	207	210	212	213	214	215	218	220	219	217	219	221	223	225	227	228	228	228	228	227	224	222	222	222	223	225	226	225	227	233	236	236	235	233	231	228	225	225	229	230	228	224	219	214	211	209	207	205	204	203	204	203	202	200	198	197	196	195	193	191	190	189	188	186	184	182	183	184	186	188	190	193	198	202	204	207	209	213	217	220	222	224	225	225	226	229	233	234	236	240	244	247	248	247	247	249	252	256	256	257	257	258	262	263	261	258	258	258	257	253	249	245	247	255	263	266	264	264	266	268	266	265	266	269	270	269	266	264	264	267	272	273	275	277	277	278	286	290	290	290	290	292	295	298	300	303	304	306	309	312	315	317	318	317	317	316	318	322	326	328	330	332	334	336	338	341	345	347	349	350	351	351	351	351	350	350	350	351	353	357	360	362	365	367	370	373	375	376	377	378	379	381	383	385	387	389	392	394	396	399	401	403	406	408	410	411	413	416	418	420	422	423	424	425	424	424	423	423	422	421	420	419	418	416	414	412	409	406	403	400	397	395	393	390	387	384	381	378	375	372	369	366	362	358	355	353	350	347	345	344	342	341	339	338	336	334	332	330	327	325	322	319	315	312
309	313	316	320	321	321	322	322	322	320	319	317	315	314	312	309	308	305	301	299	295	293	292	291	289	287	284	282	281	277	268	265	272	273	271	267	263	258	255	253	251	251	251	251	251	251	249	244	239	240	239	235	232	228	225	222	220	218	215	211	209	207	205	202	199	197	195	193	190	186	182	179	177	174	170	165	161	158	153	147	142	139	136	134	133	132	129	124	121	118	115	113	111	110	108	106	107	110	116	121	124	127	129	132	134	135	137	138	139	140	140	140	141	142	143	144	145	146	146	145	144	142	141	141	140	141	142	143	145	147	149	150	151	150	148	146	148	152	154	156	158	159	160	160	159	158	157	156	154	149	147	146	147	149	149	149	149	152	157	158	161	168	174	177	179	182	184	184	184	182	180	177	174	172	171	168	164	163	164	163	159	156	155	154	154	154	155	153	143	133	133	134	133	131	126	121	115	109	107	107	103	95	88	80	77	77	77	77	77	77	77	77	77	76	73	68	63	57	54	53	53	54	54	58	61	58	54	53	53	51	43	40	40	40	38	33	32	33	35	33	30	24	23	28	30	30	32	33	32	29	27	28	29	29	28	29	31	30	28	28	27	25	20	17	17	17	17	17	17	23	33	34	34	33	30	30	26	21	17	23	30	30	25	18	17	21	24	20	16	10	8	8	7	7	7	7	8	8	8	8	8	8	8	7	7	7	7	6	6	7	6	6	6	6	6	6	6	6	6	6	6	6	6	6	6	6	6	6	6	6	7	7	7	6	6	6	6	6	6	7	7	7	7	7	8	8	8	8	8	8	9	14	23	24	23	16	10	10	10	11	13	14	15	17	17	18	19	18	18	26	30	29	29	33	37	37	37	37	42	53	55	58	61	63	66	69	72	74	75	76	77	77	78	80	81	82	82	83	84	88	93	97	99	99	99	99	99	99	99	99	100	103	105	103	99	96	96	96	94	86	72	68	66	67	67	69	72	75	78	81	83	83	83	81	80	78	77	76	75	70	66	61	58	55	52	52	50	49	50	51	51	51	53	57	59	60	61	63	65	67	69	69	69	70	71	71	71	71	72	73	74	76	78	81	84	89	93	97	102	107	108	110	113	117	120	125	128	127	127	124	122	122	122	122	122	122	122	126	136	140	140	140	141	142	145	149	148	148	147	147	147	147	148	152	157	158	158	158	158	158	158	160	161	162	162	162	163	163	163	163	163	163	163	162	160	158	157	158	162	166	167	166	167	167	166	167	167	167	168	169	169	169	170	172	175	175	174	174	173	173	173	173	174	174	175	176	177	178	180	184	188	191	192	192	191	192	194	195	196	197	198	200	200	200	199	199	199	199	198	197	197	201	204	205	207	207	205	205	205	206	208	210	211	212	214	218	220	220	218	218	218	220	221	223	223	223	222	222	222	221	222	222	222	222	222	222	222	223	224	226	229	230	229	226	225	224	226	229	229	227	223	219	215	212	209	206	204	202	201	201	200	199	198	196	194	193	191	190	189	188	186	185	184	182	181	182	183	186	189	192	196	200	203	205	207	210	214	217	220	221	222	222	224	227	231	234	236	239	244	247	248	248	248	249	252	256	258	259	259	259	260	263	264	262	259	258	258	257	256	254	253	257	263	265	267	267	268	268	269	268	268	267	268	269	267	265	265	266	271	274	276	278	280	279	281	286	288	288	287	287	290	294	297	298	300	301	303	306	308	311	313	315	316	317	318	320	323	325	327	330	333	335	336	339	342	346	348	350	352	353	353	353	353	352	352	353	353	355	357	361	363	366	368	370	372	373	374	375	377	377	379	381	383	385	387	390	393	395	397	400	403	406	409	411	413	414	416	418	420	422	423	424	425	424	423	422	421	420	419	418	417	416	415	413	410	407	404	401	399	397	394	392	390	387	384	382	379	376	373	370	367	363	359	356	353	351	348	346	345	344	342	340	339	337	335	332	330	327	324	321	318	314	311
306	311	314	317	319	319	318	317	316	316	315	314	314	313	311	309	307	304	301	299	297	295	293	291	290	288	286	284	281	278	270	269	273	272	269	264	260	257	255	252	251	251	251	251	251	250	248	242	237	239	240	238	234	230	227	224	222	219	217	214	212	209	207	204	202	200	198	195	193	191	187	183	179	176	172	168	164	159	155	149	144	140	137	135	134	133	129	124	121	118	115	112	110	109	106	104	104	108	113	117	123	126	127	129	130	132	134	135	136	137	137	136	137	138	140	142	142	143	144	143	142	141	140	138	137	137	138	140	141	143	145	147	147	145	141	142	147	150	152	155	156	158	158	158	157	156	155	153	150	147	147	146	145	146	146	146	147	149	153	157	160	166	172	176	177	180	181	182	181	179	177	174	171	169	168	166	161	159	158	156	154	152	153	153	154	154	155	154	144	133	133	134	134	132	129	125	118	114	112	110	107	96	86	78	77	77	77	77	77	77	77	77	77	76	67	60	59	54	53	53	53	54	54	56	56	55	55	55	56	51	41	40	41	41	40	34	32	33	34	33	31	27	25	28	29	31	33	34	33	29	27	27	28	28	28	28	30	30	29	28	26	23	19	17	17	17	17	17	17	21	31	34	34	33	30	25	17	14	15	24	30	28	19	14	14	16	18	15	11	8	7	7	7	7	7	8	8	8	8	8	8	8	8	7	7	6	6	6	6	7	6	6	6	6	6	6	6	6	6	6	6	6	6	6	6	6	6	6	6	6	6	6	6	6	6	7	6	6	6	6	6	7	7	7	7	8	8	8	8	8	9	13	23	24	23	16	10	10	11	12	13	14	16	17	18	18	19	18	18	27	30	29	30	35	37	37	37	37	41	53	57	60	62	64	67	71	74	75	77	78	78	79	81	81	82	82	82	85	90	94	95	97	99	99	99	99	99	99	100	100	100	103	103	101	97	93	92	92	87	76	69	67	66	66	66	68	70	73	76	79	81	81	80	79	76	75	75	74	72	68	64	61	57	55	53	51	47	47	48	47	48	50	52	56	60	62	64	65	67	69	71	72	71	70	71	72	71	71	72	73	75	76	78	80	83	87	91	94	100	105	106	107	111	115	119	122	125	126	126	125	123	122	122	122	122	122	123	128	135	140	140	141	143	145	147	148	148	147	147	147	147	147	147	149	154	158	158	158	158	158	159	161	162	162	161	161	162	164	164	164	163	163	164	164	162	160	158	160	165	167	166	166	166	167	168	168	168	168	169	171	173	174	175	179	181	181	180	179	177	177	177	179	181	181	180	181	181	181	184	187	190	192	194	196	196	197	197	197	197	196	195	198	200	201	200	199	199	200	199	197	197	200	204	207	210	209	206	205	206	207	209	210	210	211	213	217	220	220	218	218	218	218	219	219	220	220	220	221	222	224	225	225	224	225	223	222	222	222	223	223	223	224	224	224	224	225	227	229	227	225	222	218	215	212	208	205	202	201	200	199	198	197	195	194	192	190	189	188	187	186	184	183	181	179	179	181	183	185	189	193	197	201	203	206	208	211	214	218	220	221	221	221	222	227	232	234	237	243	247	248	249	248	249	252	254	257	259	260	261	261	262	265	265	263	260	258	257	257	257	260	262	264	266	266	267	268	269	268	269	269	269	269	270	270	266	265	269	271	276	278	280	281	281	281	281	284	284	285	284	285	288	293	296	296	297	298	300	304	306	307	308	311	313	315	317	320	323	326	328	331	334	336	338	341	345	348	350	352	354	355	356	356	356	355	354	354	355	356	358	361	364	367	369	371	372	372	373	374	374	375	376	378	381	383	385	388	391	393	396	399	402	406	409	411	413	415	417	419	420	422	423	424	424	424	423	422	420	419	417	416	415	414	412	411	408	405	403	400	398	396	393	391	389	387	385	382	380	377	374	371	367	364	360	357	354	352	351	349	347	345	343	341	339	337	335	332	330	327	324	320	317	313	311
304	308	312	314	315	315	314	312	311	311	311	312	312	312	310	309	307	304	301	299	298	296	294	292	290	289	288	285	282	278	274	276	274	271	268	263	259	257	254	251	251	251	251	251	251	250	247	241	237	241	242	241	237	233	230	227	224	221	219	217	214	212	209	205	203	202	199	197	196	194	192	187	182	178	174	170	165	161	158	153	148	143	139	137	135	134	129	124	121	117	114	112	111	109	106	104	103	107	111	114	118	124	124	125	127	130	133	133	133	133	133	133	133	135	137	139	140	140	140	139	139	138	137	135	133	133	135	137	138	139	140	141	139	134	132	135	145	148	150	151	152	155	155	154	153	153	152	149	145	141	142	143	142	143	143	142	144	147	151	157	161	165	170	173	176	178	179	178	177	176	174	171	168	166	166	165	161	157	154	153	151	151	152	153	154	154	154	152	144	133	132	133	134	133	131	127	120	116	113	111	108	97	84	78	77	77	77	77	77	77	77	77	77	74	64	67	68	57	53	52	53	54	52	48	47	52	55	56	55	46	40	42	45	46	40	33	32	32	34	34	32	30	28	27	22	28	34	35	36	32	28	27	27	27	28	28	29	28	26	25	24	21	18	17	17	17	17	17	18	22	30	33	34	33	31	25	14	12	13	21	28	25	13	11	11	12	11	10	8	7	7	7	7	7	8	8	8	8	8	8	8	8	7	7	7	6	6	6	6	7	6	6	6	6	6	6	6	6	6	6	6	5	6	6	6	6	6	6	6	6	6	6	6	6	6	6	6	6	6	6	6	6	7	7	7	8	8	8	8	8	8	11	20	22	21	15	10	10	11	12	13	14	16	17	18	18	18	18	19	26	28	29	31	36	37	37	37	37	41	51	56	59	62	65	68	73	75	76	78	79	78	80	83	83	85	86	86	90	94	95	95	96	98	99	100	99	99	99	100	102	103	104	103	100	95	91	88	86	79	73	68	66	66	66	65	66	69	71	74	77	79	79	77	75	73	72	71	70	68	66	63	59	56	53	51	48	42	43	44	42	44	49	52	57	61	64	67	68	70	71	72	73	73	72	71	72	72	73	73	74	76	77	77	79	83	88	92	94	98	102	104	107	110	114	118	121	123	125	126	126	124	122	122	122	122	123	126	132	136	139	141	142	145	147	148	147	147	147	147	147	147	147	147	148	150	155	158	158	159	159	160	161	162	164	163	161	161	163	163	163	162	162	164	164	165	164	162	163	166	165	165	165	166	169	172	171	170	172	175	177	179	181	184	185	186	184	182	180	181	181	183	185	186	185	184	184	183	185	187	190	192	194	197	199	200	200	200	200	200	200	198	196	197	198	199	199	199	200	199	198	198	200	204	207	210	209	206	205	206	208	211	211	211	211	213	217	219	219	218	218	218	218	219	220	221	222	222	223	224	225	225	225	226	227	226	224	223	225	226	226	225	224	225	225	226	226	227	227	225	223	221	218	214	210	207	204	201	199	198	198	197	195	193	191	189	187	185	185	185	183	182	181	179	177	178	181	183	185	188	192	197	201	203	207	210	212	215	219	221	220	221	221	223	227	231	234	240	246	248	249	249	249	252	254	256	258	261	262	263	263	264	267	266	264	261	259	258	257	257	260	264	268	267	266	266	266	267	267	268	269	270	270	271	268	266	269	273	275	277	280	283	284	283	281	281	284	285	285	286	288	290	292	293	294	294	295	297	301	303	304	306	308	311	313	316	320	324	327	330	333	336	338	340	344	347	350	352	354	356	358	359	359	358	358	357	356	356	357	359	361	364	367	370	371	372	372	372	373	374	374	375	377	379	381	383	386	389	392	394	397	401	406	409	411	413	415	417	419	420	421	421	422	423	423	422	421	420	419	417	416	414	413	411	409	407	405	402	399	397	394	392	390	388	386	384	382	380	377	374	371	368	365	362	359	356	354	353	351	348	346	344	342	340	337	335	332	330	327	323	320	316	313	311
301	305	309	311	311	311	310	308	307	307	308	309	310	310	309	307	305	302	300	299	298	296	294	292	289	288	288	286	283	277	274	279	275	270	267	261	258	256	251	250	251	251	251	251	250	249	249	245	238	242	243	242	239	235	232	229	226	223	221	219	217	214	210	208	205	204	202	200	199	197	194	190	185	180	176	172	166	162	159	156	151	146	142	139	136	134	128	123	121	118	115	113	111	110	106	104	104	107	111	112	112	115	119	122	125	128	132	133	131	130	130	130	131	131	133	136	137	136	136	136	135	135	133	131	130	132	134	135	136	136	136	136	133	130	129	134	142	145	146	146	145	147	150	149	149	150	148	146	142	137	135	137	140	142	141	140	142	146	151	156	160	164	167	171	174	176	176	175	174	173	171	168	165	163	163	162	159	155	152	152	151	151	152	153	153	153	151	148	143	137	133	133	134	133	131	127	121	118	114	110	105	94	84	79	77	77	77	77	77	77	77	77	75	69	63	71	72	62	53	52	52	52	48	42	44	51	53	54	51	42	40	45	49	46	36	32	32	32	34	36	34	31	27	22	18	24	34	35	34	32	28	26	25	27	28	28	28	25	23	22	21	20	18	17	17	17	17	17	18	25	31	33	34	32	29	24	14	12	11	18	25	20	10	8	8	8	7	7	7	7	7	7	7	8	8	8	8	8	8	8	7	7	7	7	7	6	6	6	6	6	6	6	6	6	6	6	6	6	6	6	6	6	6	6	6	6	6	6	6	6	6	6	6	6	6	6	6	6	7	6	6	6	6	7	7	7	8	8	8	8	8	11	20	22	20	14	10	10	11	12	13	14	16	17	18	18	18	18	19	28	30	30	33	36	37	37	37	38	43	51	55	59	63	67	71	76	77	78	82	81	80	81	83	86	90	92	93	94	95	95	95	95	96	99	101	100	101	101	103	105	106	105	103	99	94	89	84	82	78	73	68	65	65	65	63	66	68	70	72	74	76	76	74	71	69	68	66	64	64	64	60	57	54	50	47	41	37	38	39	41	44	48	52	57	62	66	69	71	72	73	74	75	75	74	73	74	74	75	76	77	78	78	79	81	84	88	92	96	99	101	104	107	111	115	117	120	123	125	126	127	126	123	122	122	123	125	129	134	137	139	140	142	145	147	147	147	147	147	147	147	147	147	147	147	148	152	157	159	160	161	161	160	161	163	162	160	160	162	162	161	161	162	164	165	167	168	166	165	165	164	165	165	167	172	176	176	176	179	181	181	182	185	187	187	188	186	183	183	184	184	185	187	187	185	184	185	185	187	190	192	195	197	199	200	201	202	203	203	204	204	203	200	197	197	197	198	199	199	199	198	198	200	204	206	208	207	205	205	206	208	211	212	212	213	214	217	219	218	217	218	218	218	221	224	226	224	223	223	223	224	224	224	224	226	227	227	226	229	229	229	227	227	228	228	228	227	226	225	223	222	220	217	213	210	207	204	201	199	197	197	196	193	191	189	187	184	183	182	181	180	179	179	178	176	178	182	183	183	186	190	195	200	203	207	211	213	217	220	220	220	221	223	224	225	229	236	244	248	250	250	250	252	255	257	258	260	262	264	265	265	266	268	267	264	263	262	261	259	258	259	264	269	268	265	264	264	266	267	268	269	271	273	273	267	265	270	274	275	275	279	284	285	285	283	283	285	286	286	288	291	291	291	292	293	294	295	297	299	301	303	305	307	309	312	316	320	323	327	331	334	337	340	342	346	349	352	354	356	358	360	361	361	361	360	359	358	358	358	359	362	365	367	370	371	372	373	373	374	375	375	376	377	378	380	383	385	388	390	393	397	401	405	408	411	414	415	417	419	420	420	420	420	421	422	421	421	420	420	419	417	415	414	412	410	408	406	403	400	397	394	391	389	387	385	383	381	379	377	374	371	369	366	363	360	358	356	354	351	349	346	344	342	339	337	335	333	330	327	324	320	317	314	311
299	302	305	307	309	309	307	306	304	304	304	305	307	307	306	305	302	300	299	298	296	295	293	291	288	287	287	285	280	275	274	277	274	270	267	262	259	255	248	248	249	250	250	249	248	247	249	247	237	241	243	242	239	236	233	230	227	225	223	221	218	215	213	211	209	207	205	204	202	200	197	192	187	183	180	175	168	163	160	158	153	148	144	140	136	132	128	124	124	121	116	113	111	109	106	105	105	105	106	106	106	109	112	117	122	124	128	130	129	127	127	128	128	129	130	132	133	132	133	132	132	131	130	129	129	130	132	133	133	134	134	135	133	131	132	135	139	142	143	142	140	143	146	146	147	147	145	142	137	132	130	132	139	142	141	139	141	146	150	155	158	162	166	169	172	174	174	172	172	170	169	165	162	160	159	158	156	153	149	149	150	151	151	152	153	151	147	145	144	138	130	132	133	132	129	125	122	119	115	111	103	93	84	80	77	77	77	77	77	77	77	75	70	64	62	72	73	62	52	51	48	45	42	43	46	51	53	52	47	41	40	45	47	42	33	32	32	32	36	37	35	29	22	18	17	19	29	33	31	27	24	24	24	26	27	26	24	22	21	20	18	17	17	17	18	18	18	18	23	29	31	33	33	29	23	20	14	11	11	16	21	18	9	8	7	7	7	7	7	7	7	7	7	8	8	8	8	8	7	7	7	7	6	6	6	6	6	6	6	6	6	6	6	6	6	6	6	5	5	6	6	6	6	6	6	6	6	6	6	6	6	6	6	6	6	6	6	6	7	7	7	6	6	7	7	7	8	8	8	8	8	10	19	22	20	12	10	10	11	12	13	15	16	17	18	18	18	18	19	28	33	32	34	37	37	37	37	38	46	53	57	61	66	70	75	79	81	83	86	83	81	82	86	91	93	94	95	95	95	95	95	95	95	98	100	99	103	104	105	106	105	103	100	96	92	88	84	81	78	73	68	64	62	61	60	62	65	67	69	71	72	71	69	67	65	63	61	61	61	59	56	55	52	47	40	36	34	36	39	42	45	48	53	58	62	67	70	72	74	75	77	80	79	77	76	76	77	78	79	80	81	81	81	83	85	89	93	97	100	102	105	108	112	115	117	120	123	125	127	131	130	126	122	123	125	128	131	135	137	138	139	141	143	146	147	147	147	147	147	147	147	147	147	147	148	153	158	159	160	159	159	159	160	160	159	158	159	161	161	160	161	163	165	167	168	167	165	165	167	168	168	166	167	173	178	178	179	181	183	182	182	185	187	188	187	185	184	186	188	187	187	189	188	186	186	187	188	189	192	196	198	199	200	201	203	204	205	205	206	206	206	205	202	201	199	197	198	199	199	199	201	204	205	206	206	207	207	207	207	209	211	212	214	215	217	219	220	217	216	217	218	220	224	226	225	222	221	221	221	220	220	221	222	223	226	227	227	228	229	227	227	227	227	227	227	226	224	224	223	221	218	215	212	209	207	204	201	198	196	195	194	191	189	187	185	183	181	180	179	178	177	177	176	173	176	179	180	183	186	187	193	199	202	208	212	214	217	219	219	220	222	224	225	227	231	242	247	249	250	251	252	255	258	259	261	262	264	265	266	266	267	269	267	265	264	264	264	263	261	261	264	266	264	262	262	264	267	268	269	270	272	275	276	271	267	271	274	274	274	277	282	284	284	284	285	285	286	286	288	290	291	292	292	294	295	297	299	302	303	304	306	308	310	312	315	319	323	327	331	335	338	341	344	347	350	353	355	357	359	361	362	363	362	361	360	360	359	360	361	363	365	367	370	372	373	374	374	375	376	376	376	377	379	381	383	386	388	390	393	397	401	405	408	411	414	416	417	418	419	419	418	418	419	420	420	421	421	420	420	418	417	415	413	412	410	408	405	402	398	394	391	389	387	385	383	380	377	375	373	370	368	366	363	361	359	356	354	351	349	346	344	341	339	337	335	333	330	327	324	320	317	314	312
297	300	303	305	306	306	305	303	301	300	300	301	303	304	303	301	299	297	296	295	294	293	291	289	287	285	284	281	272	270	274	274	272	270	269	265	262	256	249	246	247	248	248	247	246	246	247	245	236	240	242	241	239	236	233	230	228	227	225	222	220	217	215	214	212	210	209	206	204	201	198	194	189	185	181	177	171	164	161	158	154	149	145	141	135	131	129	128	127	124	118	114	110	107	104	103	103	102	101	100	103	106	108	111	113	117	120	124	125	125	125	125	126	127	128	128	129	129	130	129	128	128	128	128	127	125	126	129	130	131	132	133	132	132	134	135	137	139	139	136	133	139	144	145	145	145	143	137	131	128	128	131	138	141	140	140	142	147	151	153	156	160	164	167	170	172	171	171	170	168	166	163	159	157	156	155	153	149	146	145	147	150	151	152	152	150	145	144	144	138	127	129	129	128	126	123	122	120	116	112	101	91	85	81	79	78	77	77	76	76	76	72	67	63	61	70	71	63	53	49	46	43	42	43	46	50	52	50	47	44	43	45	43	36	32	32	32	32	35	36	32	25	20	17	17	17	21	25	25	20	20	23	24	25	25	23	20	19	19	18	15	15	17	17	18	19	20	21	27	30	31	32	30	23	17	15	12	11	11	15	18	13	8	7	7	7	7	7	7	7	7	7	7	7	8	8	9	8	7	7	7	7	6	6	6	6	7	6	6	6	6	6	6	6	6	6	6	6	6	6	6	6	6	5	5	5	6	6	6	6	6	6	6	6	6	6	6	6	6	6	7	7	7	7	7	7	8	8	8	8	8	9	13	20	20	13	10	10	11	12	14	15	16	17	18	18	18	18	21	27	33	33	36	38	38	38	38	40	48	56	60	65	68	73	77	81	87	90	89	87	85	86	90	93	94	95	95	95	95	95	95	95	95	95	96	100	105	106	106	105	102	98	96	94	91	88	85	81	77	73	68	64	61	58	58	59	61	64	66	68	68	67	65	63	60	58	57	59	59	54	51	51	45	39	35	33	33	36	40	43	46	47	51	57	61	67	71	74	76	78	80	82	82	80	78	79	80	82	83	84	85	84	83	85	87	90	95	99	101	103	106	110	114	116	118	120	122	124	127	132	130	125	123	124	128	133	134	137	139	140	140	141	143	146	148	147	147	147	147	147	147	147	147	147	149	155	159	159	158	158	159	160	160	160	160	160	160	160	160	160	161	164	166	168	168	164	164	169	176	177	177	169	168	174	178	178	179	183	185	184	182	184	187	187	186	185	185	188	191	191	192	192	191	190	192	192	193	194	197	200	200	201	202	203	204	205	206	207	208	207	207	206	206	205	203	199	198	199	199	200	203	206	207	206	207	208	209	210	210	211	213	214	215	217	219	219	218	216	216	217	220	223	224	223	221	219	219	219	218	217	217	218	219	221	223	224	224	225	225	225	225	226	225	224	224	223	223	223	222	219	216	213	211	209	207	204	200	196	195	194	192	189	187	185	184	182	180	178	177	175	175	175	172	170	174	177	180	185	188	188	192	197	202	211	214	215	217	219	220	222	224	226	229	233	239	245	248	250	251	252	254	258	260	261	263	264	266	267	268	268	269	270	268	266	265	264	264	265	262	262	264	266	264	262	262	265	268	270	270	272	275	276	276	274	271	273	275	275	275	277	279	281	282	283	284	285	285	286	286	289	291	293	294	296	298	301	303	305	306	307	309	310	311	313	315	319	323	327	331	335	338	342	345	348	351	354	356	358	360	362	363	363	363	363	362	361	360	361	362	364	366	368	371	373	374	375	375	376	376	376	377	378	379	382	384	386	388	390	393	397	401	405	409	412	414	416	418	419	419	418	417	416	416	417	418	420	420	420	420	419	418	417	415	413	411	409	406	403	399	395	391	389	387	385	382	379	376	373	370	368	366	364	362	360	358	355	353	351	348	345	343	341	339	337	335	332	330	327	324	321	318	315	312
294	297	299	301	303	303	302	300	299	298	297	298	299	299	298	296	294	293	292	292	291	290	289	286	284	282	280	272	266	266	269	271	270	269	268	266	262	256	251	247	246	246	246	247	246	245	246	244	239	240	241	240	238	237	234	231	230	229	227	224	222	219	217	216	215	213	212	208	204	202	199	195	191	185	181	178	172	166	162	159	154	149	145	141	136	132	131	130	128	126	121	115	111	107	102	101	100	98	97	98	101	102	102	105	109	115	118	118	121	123	122	122	122	123	124	124	124	124	124	124	124	125	125	124	122	118	118	122	126	128	129	131	131	131	133	134	134	131	128	126	125	130	138	142	142	141	140	134	128	126	128	132	137	139	140	142	144	148	150	152	155	158	162	165	168	169	170	169	168	166	164	161	158	155	152	151	148	144	142	142	143	148	150	151	151	148	142	141	140	136	129	127	125	124	124	123	122	121	117	112	102	91	86	82	81	80	78	76	76	75	75	72	67	63	60	69	71	67	55	48	45	44	44	44	46	49	50	48	47	47	47	46	39	33	32	32	31	31	34	33	24	21	23	23	21	23	23	17	16	15	16	19	23	25	24	22	21	21	20	18	15	15	17	17	17	18	18	21	26	28	28	27	24	19	19	16	12	10	10	11	12	8	7	7	7	7	7	7	7	7	7	7	7	7	8	8	8	8	7	6	7	6	6	6	6	7	6	6	6	6	6	6	6	6	6	6	6	6	6	6	6	6	6	6	5	6	6	6	6	6	6	6	6	6	6	6	6	6	6	6	6	6	7	7	7	7	8	8	8	8	8	9	11	18	21	15	10	11	12	13	14	16	17	18	18	18	18	19	23	28	32	33	36	38	38	38	39	44	52	57	61	65	69	74	78	82	90	93	93	93	93	93	93	93	94	95	95	95	95	95	95	95	94	94	98	105	107	106	104	101	97	94	93	92	91	88	85	81	77	72	67	64	60	58	57	58	59	61	63	64	64	63	61	59	57	55	53	55	55	52	45	40	36	35	35	36	38	38	41	44	46	47	49	56	62	69	75	77	78	79	81	83	84	83	81	82	83	85	87	89	89	88	87	87	89	93	98	101	103	105	108	111	116	117	118	121	123	124	126	129	126	123	123	124	128	135	138	140	143	143	142	142	143	146	147	147	148	148	147	147	147	146	145	146	149	154	158	159	158	158	160	161	161	161	161	161	161	161	161	161	161	162	165	168	167	165	167	175	178	178	176	168	167	172	178	180	181	185	187	185	184	185	187	188	188	188	189	192	194	195	195	194	194	197	197	198	198	198	200	201	202	202	203	205	207	208	207	208	208	208	207	206	205	205	205	203	201	200	200	201	203	205	207	208	209	210	211	212	213	213	215	216	217	218	219	217	215	215	216	217	221	223	222	220	218	217	217	215	213	214	215	216	216	216	217	217	218	220	220	222	223	223	222	221	221	220	220	220	219	216	213	211	209	208	206	203	199	196	194	193	191	188	185	184	182	180	179	176	174	172	171	171	170	171	175	178	182	187	189	192	197	200	205	213	216	217	219	221	223	228	231	233	236	239	242	247	250	251	252	253	256	259	261	263	264	265	267	268	269	270	271	272	270	266	264	264	265	266	263	261	263	266	264	263	263	266	269	271	272	276	281	279	276	275	274	273	275	276	277	277	278	278	279	281	284	285	286	287	287	289	292	294	296	299	301	304	305	307	308	309	310	311	313	314	316	320	323	327	330	334	338	342	346	348	351	355	357	359	361	363	364	364	364	364	364	363	362	362	363	365	368	370	372	374	375	376	376	376	377	377	378	379	380	383	385	387	389	391	393	397	400	404	408	411	414	416	418	419	419	418	416	414	414	414	415	417	418	419	419	419	418	417	416	414	412	409	406	403	399	396	392	388	386	384	382	378	375	372	369	366	364	362	360	358	355	353	351	349	347	344	342	340	338	336	334	332	330	327	324	321	318	315	313
291	294	296	297	298	298	298	297	296	295	295	295	296	295	294	291	289	289	288	288	287	286	284	282	281	278	275	267	265	265	266	268	268	267	266	265	261	254	251	247	245	246	246	248	248	246	245	243	241	241	240	238	236	236	234	232	231	230	228	227	223	221	219	217	216	215	213	209	205	201	199	196	191	186	181	178	173	166	163	159	154	149	145	142	138	135	133	130	128	126	122	116	111	108	104	103	100	96	94	94	97	97	97	99	102	108	112	111	114	117	116	116	117	118	119	119	118	117	118	118	119	120	118	115	112	111	112	117	122	124	127	128	128	128	130	131	129	125	124	124	124	124	129	135	135	137	137	133	129	128	129	134	137	138	140	145	146	147	148	151	155	158	161	164	165	167	168	168	166	165	163	161	158	153	150	147	144	140	138	138	139	143	146	148	147	140	136	134	133	131	127	125	123	120	121	121	121	120	116	111	103	92	87	83	79	78	76	75	75	75	75	73	68	63	59	65	69	64	53	48	46	45	45	47	46	47	46	46	47	46	47	45	36	32	31	31	30	29	34	32	22	21	26	31	33	31	24	16	15	15	15	15	18	24	24	23	23	23	21	18	16	17	17	17	17	17	17	21	25	26	25	23	18	21	21	14	10	9	8	8	7	7	7	7	7	7	7	7	7	7	7	7	7	7	8	8	8	7	6	6	6	6	6	6	6	6	6	6	6	6	6	6	6	6	6	6	6	6	6	6	7	6	6	6	6	6	6	6	6	6	6	6	6	6	6	6	6	6	6	6	6	6	6	6	6	7	7	8	8	8	8	9	10	18	20	15	11	12	13	14	15	16	17	18	18	19	19	21	25	29	32	34	37	38	38	38	39	46	53	57	62	65	68	75	81	85	90	93	95	96	95	95	95	95	95	95	94	95	95	95	95	94	94	96	102	107	108	105	101	98	94	93	93	91	89	88	85	82	77	72	67	64	61	57	55	56	57	58	60	60	60	59	58	57	55	53	53	54	53	47	38	34	34	35	41	43	44	41	41	44	47	48	51	57	62	70	77	78	78	80	82	85	86	85	84	84	86	89	91	92	93	93	92	92	93	96	100	103	106	107	109	113	116	117	119	122	124	124	125	127	125	123	123	123	125	132	138	142	145	145	146	145	144	145	146	147	148	148	147	147	144	140	138	141	146	153	155	157	158	160	161	161	161	161	161	161	161	161	161	161	161	161	162	164	164	168	173	176	176	174	169	167	167	173	181	182	184	186	188	187	186	187	190	193	193	194	196	198	197	196	196	195	197	201	202	202	201	201	202	203	203	204	205	208	210	210	209	207	207	207	207	207	206	205	205	206	205	204	202	202	202	203	206	208	210	210	211	212	213	214	215	216	216	217	216	215	214	215	215	218	222	222	221	219	217	215	214	212	210	212	214	214	213	212	213	213	213	213	216	220	221	219	218	218	218	219	218	216	214	210	208	207	206	205	203	200	197	195	194	191	189	186	184	183	181	179	177	174	172	170	169	169	171	173	177	180	184	187	190	194	200	202	206	213	216	218	221	225	228	232	236	238	239	241	245	249	251	252	253	255	258	260	262	263	265	267	268	270	271	271	273	274	271	267	265	264	262	265	263	259	260	264	263	263	264	268	271	273	274	278	283	282	279	279	278	275	274	276	278	277	276	276	278	281	283	285	287	289	290	291	294	296	299	301	304	305	307	308	310	311	312	312	314	315	318	321	324	326	330	333	337	341	345	348	351	355	358	360	362	363	364	365	365	365	365	365	364	364	365	367	369	372	374	375	376	377	377	378	378	378	379	380	381	384	387	388	390	392	394	397	400	403	407	410	414	416	418	419	419	418	416	414	412	412	413	414	415	417	418	417	417	416	415	413	411	408	405	401	398	395	391	388	385	383	380	377	374	371	368	365	362	360	358	355	353	351	349	347	345	343	341	339	337	335	333	332	330	327	325	322	320	317	314
288	291	293	294	294	294	294	294	294	293	293	293	294	293	291	289	287	286	285	284	282	281	280	278	278	277	274	266	264	265	265	267	267	266	264	262	259	253	248	244	242	243	245	250	251	248	244	243	242	242	239	234	232	232	231	231	230	229	228	226	223	222	221	218	216	216	214	210	205	201	199	196	192	188	182	178	172	166	163	160	156	150	146	143	140	136	133	130	128	126	123	117	112	109	108	107	103	96	94	95	95	94	94	96	97	100	103	105	110	112	112	111	112	114	114	114	114	113	113	113	113	111	110	108	108	109	110	113	115	117	121	125	125	125	127	128	128	125	123	124	124	124	125	127	126	127	131	132	132	130	131	135	137	137	140	145	146	146	146	149	155	158	159	162	164	165	166	166	165	164	162	160	157	152	148	144	141	138	136	136	136	137	138	139	138	135	133	131	130	127	124	123	119	117	116	115	115	115	111	105	98	92	88	83	78	76	75	75	75	75	75	74	72	67	60	61	64	59	52	49	48	46	46	46	46	45	42	43	44	43	43	40	35	32	31	29	27	28	33	35	27	24	27	27	36	33	23	16	20	25	25	16	14	21	22	20	21	22	20	17	16	17	17	17	17	17	18	23	27	27	27	24	20	22	21	12	9	8	7	7	7	7	7	7	7	7	7	7	7	7	7	7	7	7	8	8	7	7	6	6	6	6	6	7	6	6	6	6	6	6	6	6	6	6	6	6	6	6	6	6	7	7	6	6	6	6	6	6	6	6	6	6	6	7	7	6	6	6	6	6	6	6	6	6	6	7	8	8	8	8	8	8	10	17	19	15	12	13	14	15	16	17	18	19	19	21	25	26	29	32	33	35	37	37	37	37	38	45	52	58	62	64	68	77	86	88	91	92	95	96	96	98	98	99	97	95	94	94	95	94	94	94	96	101	103	106	105	101	98	96	93	91	91	89	88	86	84	81	77	72	67	63	60	56	54	53	54	55	56	56	55	55	55	54	54	54	53	54	48	37	33	32	31	32	42	45	44	40	39	43	47	49	53	57	64	70	75	75	76	80	83	85	86	86	87	88	90	93	95	97	98	97	97	97	97	99	102	105	108	110	111	114	116	118	119	122	123	123	124	127	126	123	123	123	123	127	133	138	143	146	150	148	145	145	146	146	148	148	148	147	139	131	130	133	140	147	152	155	158	160	161	161	161	161	161	161	161	161	161	161	161	161	162	162	162	167	171	171	170	168	166	166	168	175	183	184	186	187	189	189	190	193	196	199	200	200	202	203	201	198	198	199	201	205	206	205	205	205	204	204	204	206	207	210	212	211	208	207	207	208	208	208	208	207	206	207	207	206	205	204	203	203	204	206	208	209	209	210	211	212	212	213	213	213	213	213	214	214	217	221	222	221	219	217	215	213	211	210	208	209	211	211	210	211	211	211	210	210	213	217	217	216	216	216	216	217	217	214	210	205	203	202	202	201	199	197	195	194	193	191	188	186	184	183	180	177	175	172	169	168	168	168	171	175	178	181	184	188	191	195	199	202	207	213	217	220	224	227	231	234	237	239	240	243	247	251	253	253	254	257	260	262	263	264	266	268	270	271	272	273	275	275	271	268	266	263	257	259	260	259	260	263	262	264	267	270	273	274	275	278	283	283	281	281	281	279	273	273	275	274	274	275	277	280	283	286	288	291	293	293	295	298	301	303	305	307	308	310	312	313	313	314	316	318	320	322	325	327	329	332	336	339	344	348	351	355	359	361	362	364	365	365	366	366	367	366	366	366	366	369	371	373	375	377	378	379	379	379	380	380	381	381	382	385	387	389	392	394	396	399	402	404	408	411	414	417	419	421	420	418	416	413	411	411	411	411	412	414	415	415	415	414	413	411	408	405	402	399	396	393	389	387	384	381	378	375	372	370	367	364	361	358	355	353	351	349	348	346	344	342	340	339	337	336	334	332	330	328	326	324	321	318	316
283	286	289	290	290	291	292	292	292	291	291	292	292	291	289	287	285	284	283	281	278	277	275	275	276	277	273	265	264	265	265	266	266	265	263	261	258	252	245	241	240	240	242	247	249	247	244	243	243	240	230	225	223	223	224	227	229	228	226	224	223	223	223	220	217	217	215	211	206	202	200	197	193	189	184	178	173	168	166	163	158	152	148	145	141	136	132	130	128	126	123	118	112	109	108	109	105	98	96	96	95	93	92	93	96	100	101	104	109	109	108	107	107	109	109	110	109	109	108	108	107	105	104	104	105	107	109	111	111	110	112	118	120	122	122	123	124	123	120	121	122	123	124	127	127	126	129	131	132	132	132	135	136	137	139	144	145	146	146	146	151	155	156	159	162	163	163	163	163	162	161	158	155	150	146	142	139	136	134	133	133	134	134	133	133	133	131	129	126	122	121	119	114	112	111	107	106	105	102	98	95	91	86	81	78	76	75	75	75	75	75	75	75	70	61	61	63	56	51	51	50	48	46	45	44	41	39	41	42	41	40	39	37	36	32	28	26	29	36	36	30	26	27	33	37	32	18	19	27	32	30	16	14	16	14	13	16	17	16	13	13	16	17	17	17	17	18	24	27	28	27	25	23	22	16	9	8	7	7	7	7	7	7	7	7	7	7	7	7	7	7	7	7	8	7	7	7	6	6	6	6	6	7	6	6	6	6	6	6	6	6	6	6	6	6	6	6	6	6	6	7	7	6	5	6	6	6	6	6	6	6	6	6	7	7	7	6	6	6	6	6	6	6	6	6	7	8	9	9	8	8	9	10	17	19	16	13	14	15	15	16	17	18	19	21	28	33	32	33	34	34	36	37	37	37	37	39	46	53	58	62	64	69	79	88	88	88	90	94	95	97	99	100	100	99	97	95	95	95	94	95	98	102	104	104	104	101	98	95	93	90	88	88	87	86	85	83	80	76	72	67	62	58	55	52	50	51	51	52	51	50	51	51	52	53	53	53	48	37	33	32	30	29	28	35	40	39	38	38	42	46	48	52	58	66	70	72	73	74	79	83	84	85	87	89	91	94	96	99	102	102	101	101	100	100	101	104	107	110	112	113	114	117	119	121	122	121	120	123	126	128	125	124	126	127	124	128	134	139	143	148	147	145	146	147	147	148	146	144	140	131	125	124	127	135	141	144	150	157	161	161	161	161	161	161	161	161	161	161	161	161	161	161	161	164	167	168	166	165	166	167	168	172	181	185	186	187	190	193	195	198	201	202	202	203	204	206	207	206	202	202	203	206	207	208	207	207	208	207	206	205	206	208	211	213	210	207	207	208	208	208	209	208	208	208	208	208	208	207	206	205	204	204	205	206	207	207	208	209	209	210	211	212	212	212	213	213	216	221	223	222	219	218	216	214	212	210	208	207	206	207	207	208	210	210	210	210	210	211	213	213	215	215	214	213	213	213	212	208	203	202	200	199	197	195	194	193	192	192	190	187	185	183	182	180	176	172	169	166	165	165	168	172	175	178	181	185	189	191	194	197	202	209	214	217	221	226	229	232	234	237	239	241	245	249	252	254	254	255	259	262	263	264	266	268	270	271	273	273	274	276	276	272	269	268	265	259	256	259	263	262	262	263	266	270	272	274	275	277	280	283	283	282	282	281	277	273	272	273	272	273	275	277	280	283	286	289	292	294	295	297	300	303	305	307	308	309	311	313	314	315	317	319	320	322	324	326	328	329	332	335	339	343	347	351	355	359	361	363	364	365	366	366	367	367	368	367	367	367	369	372	374	376	378	380	380	381	381	382	382	383	383	384	386	388	391	393	396	399	401	404	406	410	413	415	418	420	422	421	419	416	413	411	410	409	409	410	410	411	412	412	411	410	408	406	403	400	397	393	390	388	385	383	379	376	373	371	368	365	363	360	357	354	352	350	348	347	345	343	342	340	339	338	336	335	333	331	329	327	325	323	320	317
278	279	284	286	287	288	289	289	289	289	289	289	289	289	287	285	283	281	280	278	276	275	274	273	274	272	267	266	266	266	265	264	264	263	261	259	256	251	243	239	238	239	241	243	245	245	245	243	240	233	222	220	220	220	221	222	225	224	223	223	225	228	228	222	220	220	217	212	208	204	201	197	194	190	185	179	174	171	169	166	162	156	151	147	142	137	133	129	128	126	123	120	113	109	107	107	104	100	98	97	95	94	93	92	94	97	98	99	102	103	102	102	103	104	105	105	104	104	103	102	101	101	101	101	102	104	106	107	106	104	107	109	110	114	117	119	118	116	116	118	120	120	120	123	124	124	128	129	127	125	131	134	135	136	139	141	143	145	146	146	147	150	152	155	159	160	159	160	160	160	158	154	150	146	142	139	136	132	130	129	130	132	132	131	130	130	128	127	123	118	114	109	105	105	104	101	99	97	94	92	89	85	81	78	77	76	75	75	75	75	75	75	74	70	62	61	63	55	51	52	54	50	46	44	42	38	38	40	38	36	36	38	38	38	34	27	26	31	36	35	31	28	30	34	34	26	16	21	30	33	26	14	17	18	13	12	12	12	11	11	14	17	17	17	17	17	18	22	26	26	25	23	20	15	9	8	7	7	7	7	7	7	7	7	7	7	7	7	7	7	7	7	7	7	7	6	6	6	6	6	6	6	6	6	6	6	6	6	6	6	6	6	6	6	6	6	6	6	6	6	6	6	6	6	6	6	6	6	6	6	6	6	6	6	7	7	6	6	6	6	6	6	6	6	7	7	8	8	8	8	8	8	9	16	19	17	15	15	16	16	16	17	19	21	27	32	34	37	38	35	35	36	37	37	37	37	39	48	55	59	62	65	70	76	85	85	82	86	92	94	96	99	100	100	100	99	98	98	98	98	98	103	105	104	104	103	100	95	93	90	87	86	85	85	84	84	82	79	76	72	67	62	57	53	51	49	48	48	48	48	48	48	49	49	50	49	43	35	32	31	30	28	27	27	28	30	32	37	38	42	44	47	51	58	67	69	71	72	73	78	82	84	85	88	90	92	95	98	100	103	104	104	104	103	103	104	106	108	111	113	114	115	118	121	122	122	119	116	122	128	130	132	131	135	136	127	125	132	135	140	143	143	142	142	143	144	143	139	133	127	124	124	125	130	137	140	142	147	156	161	161	161	161	161	161	161	161	161	161	161	161	161	161	163	166	167	165	165	165	167	168	173	180	184	185	188	191	195	199	199	202	205	206	205	204	205	207	208	206	205	206	207	210	210	208	207	208	208	208	207	206	207	209	212	213	210	207	208	209	209	208	208	208	208	208	208	208	208	208	208	207	207	206	206	208	210	210	209	209	209	210	212	213	212	212	213	214	219	223	222	221	219	218	216	214	212	209	208	206	205	205	205	206	208	209	209	209	208	209	211	213	214	213	211	209	209	209	209	207	203	202	200	198	195	193	192	192	190	188	187	186	184	183	182	179	175	171	167	164	162	163	169	174	176	179	182	186	189	191	192	195	200	211	215	217	221	226	230	233	235	238	240	243	246	250	253	254	254	256	261	263	264	266	268	270	271	273	274	275	276	277	276	272	270	269	267	263	260	264	267	264	264	266	269	272	274	276	278	280	282	284	284	283	283	281	276	274	273	273	273	274	276	279	282	284	286	288	291	293	296	299	302	305	306	308	309	310	312	314	316	317	320	321	323	324	325	327	330	331	334	336	339	343	347	350	354	359	361	363	364	365	366	367	367	368	368	368	368	368	370	372	375	378	380	381	382	382	383	384	385	385	386	386	388	390	392	395	398	401	404	406	409	412	414	416	418	421	422	422	420	417	414	411	409	407	407	407	408	408	409	409	408	407	406	404	401	398	394	391	388	386	383	380	377	373	371	369	367	364	362	359	356	354	352	350	348	346	344	343	341	340	339	338	337	335	334	332	330	328	326	324	321	318
276	276	278	279	281	284	286	286	286	286	286	286	287	286	284	281	279	277	276	272	271	275	277	275	272	268	266	267	267	265	262	259	259	259	258	255	253	249	244	239	237	238	241	242	244	245	245	243	237	226	220	220	220	220	220	220	221	220	220	221	223	227	227	222	221	220	217	212	208	205	201	198	195	190	186	182	177	174	172	169	165	160	154	149	144	139	134	130	128	127	124	121	116	110	107	105	103	100	98	97	95	95	94	93	92	94	95	94	95	97	97	97	98	100	101	100	101	101	100	99	98	98	98	98	98	100	100	99	99	99	102	103	103	110	115	115	112	110	112	115	117	117	116	116	118	120	124	126	119	116	127	133	134	135	136	138	140	142	144	145	145	147	148	151	154	155	155	156	157	156	152	148	143	140	137	135	132	128	125	123	125	129	129	128	126	125	124	122	117	110	103	99	98	99	99	96	93	91	89	87	84	80	78	77	76	75	75	75	75	75	75	74	70	66	63	62	64	58	51	52	55	50	45	43	41	38	41	39	33	31	32	37	38	37	30	26	26	32	34	32	29	30	31	31	29	24	16	21	30	30	19	14	17	17	12	12	11	11	10	12	15	17	17	17	17	17	18	20	23	24	22	18	11	8	7	7	7	7	7	7	7	7	7	7	7	7	7	7	7	7	7	7	7	7	7	6	6	6	6	6	7	6	6	6	6	6	6	6	6	6	6	6	6	6	6	6	6	6	6	6	6	6	6	6	6	7	6	6	6	6	6	6	6	6	6	6	6	6	6	6	6	6	6	6	7	7	8	8	8	8	8	9	10	17	20	16	14	16	16	16	16	17	21	28	33	33	35	39	39	35	36	37	37	37	37	37	41	52	58	61	63	66	70	76	81	82	80	84	89	93	97	100	100	100	100	100	100	100	101	102	103	104	102	103	103	103	100	94	92	89	86	85	85	84	82	81	80	78	76	72	67	62	57	53	50	48	46	45	45	45	46	45	47	48	47	40	30	27	27	28	28	27	26	27	31	33	35	38	39	41	43	46	51	60	66	68	70	72	73	76	80	82	84	87	89	92	95	98	101	104	106	106	106	106	108	109	110	111	112	114	116	117	120	122	122	122	119	118	124	128	132	137	136	137	137	131	125	127	133	137	140	140	139	136	134	132	131	128	125	123	123	124	125	129	137	140	142	147	155	160	161	161	161	161	161	161	161	161	161	161	161	161	161	166	169	167	166	166	168	168	170	181	185	185	187	189	193	198	201	202	205	208	211	211	208	205	205	206	206	206	207	208	211	211	207	207	208	208	208	208	206	208	210	213	214	211	208	209	209	208	208	208	208	208	209	209	209	209	209	208	208	208	208	208	210	212	210	209	209	209	210	213	214	212	212	213	216	222	224	223	222	220	218	216	214	212	209	207	205	204	203	203	204	206	207	207	207	206	206	208	211	212	211	208	206	205	206	206	205	202	201	198	195	192	190	190	189	188	185	183	183	182	181	181	178	174	170	166	163	161	165	171	175	178	181	184	187	190	191	193	195	201	212	215	217	221	226	230	233	236	239	241	244	247	251	253	255	255	256	261	264	265	268	270	272	273	274	276	277	277	277	276	273	272	270	268	265	265	267	267	266	267	270	272	274	277	279	280	282	283	283	283	282	283	283	281	279	279	277	276	275	278	283	285	286	288	289	291	294	297	300	303	306	307	309	310	311	313	315	317	319	322	324	325	326	328	330	332	334	336	338	341	344	348	351	355	359	362	363	364	365	366	367	368	368	369	369	369	369	371	373	376	379	381	382	383	384	385	386	387	388	388	389	390	392	394	398	401	404	406	408	411	413	415	417	419	421	423	422	420	418	415	412	409	406	404	404	405	405	406	407	406	405	404	402	399	396	392	389	386	384	381	377	373	370	368	366	365	363	361	359	357	354	353	351	349	347	345	343	341	340	339	338	337	336	335	333	331	329	326	325	322	320
276	277	277	275	275	278	283	283	282	281	282	282	282	279	276	274	272	271	270	268	267	272	275	274	270	268	268	266	264	261	258	255	255	256	255	251	249	247	244	240	237	239	241	243	244	244	243	240	232	222	220	220	220	220	220	220	220	220	220	220	220	222	222	221	221	219	214	210	208	205	202	198	195	191	187	184	180	176	174	171	167	163	157	151	146	140	135	131	129	127	124	121	118	112	107	104	103	101	98	96	95	95	95	92	90	91	92	91	91	92	92	93	94	97	99	99	99	98	97	96	95	95	95	94	94	95	94	93	93	95	99	101	99	103	109	107	105	106	108	111	113	114	114	114	116	119	124	124	116	113	119	130	132	133	133	134	138	140	142	143	143	144	146	147	148	149	150	150	149	148	146	143	139	136	133	132	130	125	122	120	120	123	125	124	122	120	118	114	109	103	97	95	93	93	92	89	86	84	82	79	77	75	76	76	75	75	75	75	75	75	73	70	65	67	67	64	65	63	53	52	54	50	45	43	41	39	41	36	31	31	34	38	36	30	26	26	28	32	32	26	24	27	29	29	28	25	18	17	21	20	14	13	13	13	12	12	11	11	11	13	17	17	17	17	17	17	17	18	18	17	13	10	8	7	7	7	7	7	7	7	7	7	7	7	7	7	7	7	7	7	7	7	7	6	6	6	6	6	7	7	6	6	6	6	6	6	6	6	6	6	5	6	6	6	6	6	6	6	6	6	6	6	6	6	7	7	6	6	6	6	6	6	6	6	6	6	6	6	6	6	6	6	6	6	7	7	8	8	8	8	8	9	12	20	21	15	14	16	16	16	16	17	25	33	34	34	36	37	36	35	36	37	37	37	37	38	46	56	60	61	63	67	72	77	81	82	80	83	88	94	99	100	100	100	100	100	100	100	105	106	104	103	101	102	103	103	101	96	93	88	85	85	84	81	78	79	79	77	75	72	67	62	58	55	51	47	44	43	42	43	43	43	44	43	35	28	26	26	26	27	27	26	26	28	35	39	38	37	39	41	42	46	51	61	66	68	70	72	74	76	78	81	83	86	88	91	94	98	101	104	107	108	109	113	116	116	116	116	116	117	119	120	121	122	121	122	121	122	125	127	132	136	136	136	136	134	128	127	131	134	137	137	134	130	126	124	123	122	122	123	123	124	125	126	131	138	141	148	155	159	160	161	161	161	161	161	161	161	161	161	161	160	162	168	169	168	168	169	169	169	173	182	184	186	188	192	195	201	204	204	206	210	212	213	212	208	205	205	206	207	207	207	208	208	207	208	208	208	208	207	205	206	210	213	213	210	209	209	209	208	208	208	208	208	208	208	208	208	208	208	209	209	209	210	210	210	209	208	208	208	210	214	214	212	212	214	220	223	223	223	222	220	219	217	215	212	209	208	206	204	202	202	202	204	205	204	203	203	203	204	206	206	206	205	203	202	203	203	201	199	197	194	191	188	187	187	186	185	183	182	181	179	178	178	176	172	168	164	163	163	169	173	177	180	183	186	188	191	193	195	196	201	211	214	217	222	227	230	233	237	239	242	245	248	250	253	255	256	256	260	264	266	269	271	273	275	276	277	278	278	278	277	275	273	271	269	268	268	268	269	270	271	273	274	276	279	281	282	283	284	283	280	280	283	283	283	283	283	282	282	280	282	285	288	289	291	291	292	294	298	301	304	306	308	309	310	311	314	316	318	321	323	326	328	329	331	333	336	337	339	341	343	347	350	353	357	360	362	363	364	364	366	367	367	368	369	370	370	371	372	375	377	380	382	384	385	386	387	389	390	390	390	391	392	394	397	400	403	406	408	410	413	414	416	417	419	422	423	422	421	419	416	413	410	406	403	401	401	403	404	404	404	403	401	399	397	393	390	387	384	381	378	374	370	367	365	364	363	361	360	358	356	354	353	351	349	347	345	343	342	340	339	339	338	337	335	333	331	329	327	325	323	320
274	275	275	275	275	275	281	280	277	276	276	275	274	271	270	270	270	269	268	265	261	262	265	267	268	267	265	264	261	258	255	253	253	253	251	249	247	246	244	241	238	239	241	243	245	243	240	232	226	221	220	220	220	220	220	220	220	220	220	220	220	220	220	220	219	217	213	210	207	204	201	198	195	191	187	184	181	177	175	172	168	164	158	152	147	143	137	132	130	127	124	121	118	113	109	105	104	101	97	94	94	95	94	91	88	85	86	86	87	88	89	91	92	94	97	98	97	96	94	93	92	91	91	90	90	91	91	91	91	93	96	98	98	98	100	100	100	102	105	108	110	111	111	111	112	116	121	122	117	115	118	126	127	128	129	131	137	139	141	142	142	142	144	145	145	146	146	145	144	144	143	140	136	132	130	130	130	126	120	116	116	117	119	118	115	114	112	108	104	100	94	91	89	87	85	83	80	78	76	74	73	73	74	75	75	75	75	75	75	72	67	64	65	71	73	71	72	72	65	55	52	49	46	43	41	40	42	34	31	32	36	36	31	26	25	25	29	30	27	23	24	26	26	26	28	28	24	17	15	13	13	13	12	12	12	12	11	11	12	15	17	17	17	17	17	17	17	15	11	9	8	7	7	7	7	7	7	7	7	7	7	7	7	7	7	7	7	7	7	7	7	7	6	6	6	6	6	6	7	6	6	6	6	6	6	6	6	6	6	5	5	5	6	6	6	6	6	6	6	6	6	6	6	6	7	7	6	6	6	6	6	6	6	6	6	6	6	6	6	6	6	6	6	7	7	8	8	8	8	8	8	9	13	22	20	14	15	16	16	16	16	18	27	34	34	33	35	36	36	36	37	37	37	37	37	39	48	58	60	63	66	70	75	79	82	82	80	81	88	96	100	100	100	100	100	100	100	102	109	109	103	104	104	104	103	102	100	94	89	85	84	83	81	79	78	78	77	74	72	70	68	63	60	56	52	47	44	42	41	41	41	40	36	31	27	26	26	26	26	26	26	26	26	28	33	37	38	38	42	43	43	46	51	61	65	68	70	73	75	76	79	81	84	87	90	91	93	97	101	104	108	110	113	119	121	121	124	126	122	121	121	122	122	122	121	121	121	123	123	125	130	134	135	135	135	135	131	127	128	131	133	132	129	125	123	121	121	122	123	123	123	124	124	125	128	136	142	149	155	158	160	161	161	161	161	161	161	161	161	161	161	161	164	169	169	169	169	169	169	171	177	183	185	185	189	194	198	203	205	205	205	208	210	210	210	207	206	205	206	207	207	206	207	206	206	207	207	207	207	206	205	206	208	210	209	207	208	209	209	208	208	208	208	209	208	208	208	208	208	208	208	209	210	210	210	209	208	209	209	209	210	213	214	212	212	216	222	223	222	222	222	220	218	217	215	212	210	209	208	206	203	202	201	201	202	201	200	200	200	200	199	199	199	200	200	200	201	200	198	196	195	192	188	186	185	184	183	182	181	180	179	177	176	175	173	170	167	163	163	165	171	176	179	182	185	187	189	192	195	197	198	202	209	213	217	223	228	230	234	237	239	242	244	247	249	252	255	256	256	258	262	266	269	272	275	277	278	279	279	280	280	280	278	275	272	271	271	271	270	271	273	274	274	275	276	280	282	283	283	283	282	279	280	281	282	282	282	282	283	283	283	285	288	290	291	293	293	293	294	297	300	303	305	307	309	310	312	314	317	320	322	325	327	329	331	333	335	338	340	342	344	346	349	352	355	358	360	362	363	363	364	365	366	367	368	369	370	371	372	374	376	378	381	383	385	386	388	389	390	391	392	392	393	395	397	399	402	404	407	410	412	414	415	416	418	419	421	422	422	421	419	417	414	410	407	403	400	398	399	401	401	400	400	398	396	394	391	388	385	382	379	375	372	368	365	363	361	360	359	358	357	356	354	352	350	349	347	345	344	342	341	340	339	338	337	335	333	332	329	327	325	323	320
271	270	269	269	271	274	279	278	276	273	272	271	270	270	271	271	272	271	263	259	258	259	261	265	266	264	262	260	258	255	252	250	251	250	247	247	247	246	243	241	240	240	239	242	243	241	234	224	221	220	220	220	220	220	220	220	220	220	220	220	220	220	220	220	219	217	215	211	207	203	200	198	195	191	187	184	181	178	175	172	169	165	159	154	149	144	138	134	131	128	125	122	119	114	109	106	103	99	95	94	94	94	93	90	85	82	81	82	83	86	87	89	91	91	93	94	92	92	91	89	88	88	87	86	86	87	89	89	89	90	93	94	95	96	96	96	96	98	100	103	105	105	106	106	106	109	118	121	120	121	122	123	123	124	126	129	135	138	139	140	140	141	142	143	143	142	142	142	142	141	140	138	133	129	128	129	129	128	122	114	112	112	112	110	108	107	107	104	100	98	91	87	85	83	80	78	77	76	74	73	73	73	74	75	75	75	75	75	75	74	67	63	64	69	71	73	75	75	74	69	56	50	48	44	42	43	42	34	31	32	38	37	33	28	27	26	25	24	23	23	27	27	23	22	27	28	26	21	17	13	12	12	12	12	12	11	13	14	15	16	17	17	17	17	16	17	16	11	8	7	7	7	7	7	7	7	7	7	7	7	7	7	7	7	7	7	7	7	7	7	7	7	6	6	6	6	6	7	6	6	6	6	6	6	6	5	6	6	5	5	5	5	5	6	6	6	6	6	6	6	6	6	6	7	7	6	6	6	5	5	5	6	6	6	6	6	6	6	6	6	6	6	6	7	7	8	8	8	8	8	8	9	14	23	20	16	16	16	16	16	16	19	29	34	34	33	35	36	37	37	37	37	37	37	38	44	54	61	63	66	71	74	78	82	83	81	79	82	87	94	100	100	100	100	100	100	101	102	106	104	101	103	104	103	101	98	93	88	85	83	81	80	78	78	80	78	74	71	70	70	68	63	61	57	52	48	45	43	41	40	37	33	28	26	26	26	26	26	26	26	26	26	27	29	32	35	38	42	46	46	45	47	51	58	62	67	71	73	75	77	80	83	86	90	91	91	93	97	101	104	109	112	116	121	123	123	127	130	126	123	123	123	122	122	121	120	120	120	120	124	129	133	134	133	133	133	128	124	125	126	127	126	124	122	121	120	122	123	123	123	123	124	123	124	127	135	141	149	156	159	161	161	161	161	161	161	161	161	161	161	161	160	165	169	169	169	169	169	169	171	176	183	186	185	189	195	199	202	205	206	204	205	207	206	207	206	206	206	206	207	207	206	206	207	207	207	207	207	207	206	206	207	207	207	206	206	208	209	209	209	209	209	208	208	208	208	208	208	208	208	208	208	209	209	209	208	209	210	210	209	211	212	212	212	214	219	223	222	222	222	221	219	217	216	215	213	211	210	209	207	204	202	200	200	199	199	198	197	197	198	199	199	197	197	196	197	198	197	195	194	193	190	187	185	184	183	181	179	178	178	177	176	174	172	170	169	166	163	164	168	175	179	181	184	186	188	190	193	197	199	200	203	209	213	218	224	228	231	234	237	240	242	244	246	248	250	253	255	256	257	261	265	269	272	276	278	280	280	280	281	282	283	281	277	275	273	273	273	272	272	272	274	275	275	277	281	283	284	283	283	283	282	281	281	280	280	281	281	281	282	284	287	289	291	292	294	295	294	294	295	299	301	304	307	309	310	311	314	317	321	323	325	328	330	332	334	337	339	341	343	345	348	351	354	356	358	360	361	362	362	363	365	366	367	368	369	370	372	373	375	377	379	382	384	386	388	390	391	392	393	393	394	396	398	400	402	404	406	409	411	413	415	415	416	418	419	420	422	421	420	419	417	414	410	407	403	400	396	396	396	397	397	397	396	394	392	390	387	384	381	378	374	371	367	364	361	359	357	356	355	354	353	352	351	349	348	347	345	343	342	341	340	339	337	336	335	334	332	330	328	325	323	320
267	265	265	265	267	271	275	276	276	275	273	272	272	272	273	273	272	268	258	257	259	261	262	263	263	260	259	257	255	252	248	248	248	246	243	244	245	244	242	241	240	239	238	239	241	238	227	221	221	221	221	221	221	220	220	220	220	220	220	220	220	220	220	220	219	218	216	211	207	203	200	198	195	191	187	184	181	178	175	171	168	165	160	155	151	145	139	135	131	128	125	123	119	114	109	105	101	97	93	93	94	94	92	89	85	80	78	78	79	81	84	86	87	87	87	86	86	86	86	86	85	85	85	84	83	84	86	86	86	86	88	90	91	92	92	91	91	93	96	98	100	101	102	103	103	102	113	120	121	122	123	122	120	122	124	127	133	136	136	136	138	140	140	141	140	139	139	140	140	139	137	135	128	126	127	129	130	129	124	111	109	109	107	106	106	104	103	99	93	91	86	83	81	78	76	75	75	74	73	73	73	73	74	75	75	75	75	75	75	74	67	63	63	64	64	68	75	77	76	75	63	53	49	46	44	43	42	34	31	34	40	37	34	32	31	26	23	24	23	25	28	25	20	21	27	29	27	20	16	13	12	12	12	12	11	12	15	17	17	17	16	17	17	16	17	17	14	9	7	7	7	7	7	7	7	7	7	7	7	7	7	7	7	7	7	7	7	7	7	7	7	6	6	6	6	6	7	6	6	6	6	6	6	6	6	5	5	5	5	5	5	6	6	5	6	6	6	6	6	6	6	6	6	7	7	6	6	6	5	5	5	6	6	6	6	6	6	6	6	6	6	6	7	7	8	8	8	8	8	9	9	9	15	21	17	15	16	16	16	16	16	20	30	34	34	34	36	37	37	37	37	37	37	37	40	49	59	63	67	70	72	74	79	83	82	80	79	82	87	90	97	99	100	100	100	100	101	102	102	101	99	101	103	101	98	94	88	85	83	82	79	76	74	75	79	76	72	68	68	71	69	64	61	57	53	49	47	43	40	38	35	29	26	26	26	26	26	26	26	26	26	26	26	27	28	33	38	42	45	45	45	48	53	57	60	67	72	74	75	77	81	85	88	90	90	90	93	97	101	107	113	114	116	121	124	125	128	129	128	126	125	124	122	121	120	118	118	118	118	121	128	130	131	130	130	128	121	120	121	122	123	122	121	121	120	120	122	124	123	123	123	123	123	123	126	132	139	148	156	160	161	161	161	161	161	161	161	161	161	161	160	160	166	169	170	170	170	170	170	170	174	184	186	186	189	194	199	202	207	207	204	204	206	207	207	207	207	207	207	207	207	207	207	207	207	206	207	207	207	207	207	207	207	206	206	207	208	208	208	209	209	209	209	209	208	208	208	208	209	208	209	208	208	208	208	208	209	209	210	210	211	211	212	213	218	222	223	222	221	220	218	217	216	215	214	212	211	210	208	206	203	201	199	198	197	197	196	195	195	196	199	200	198	194	193	193	193	193	193	193	192	189	186	183	183	182	180	178	176	176	175	174	171	169	167	167	166	165	167	172	177	180	183	185	187	188	191	195	198	200	202	204	209	214	220	225	228	232	235	238	240	242	244	246	247	249	251	255	256	257	261	264	268	272	276	279	281	281	281	282	284	285	283	280	278	276	276	275	274	272	272	274	276	277	278	281	284	284	284	284	285	285	284	283	281	281	282	281	280	282	287	290	291	291	294	297	298	297	296	295	298	300	303	305	307	309	310	313	317	320	323	325	328	331	333	335	337	340	342	344	347	349	351	354	356	357	359	360	360	361	362	364	365	366	368	369	370	372	374	376	378	380	382	385	388	390	391	392	393	395	396	397	399	401	403	405	407	409	411	413	414	415	415	416	417	418	419	420	420	419	418	416	413	410	407	403	399	396	393	392	393	393	394	394	393	391	389	386	384	381	378	374	370	367	363	360	358	356	354	352	352	351	350	349	348	346	346	344	343	342	341	339	338	337	335	334	333	331	329	327	325	323	320
