105	105	106	106	107	107	106	105	102	100	98	97	94	92	89	85	81	80	79	77	76	75	73	72	71	71	69	67	65	62	57	54	52	51	50	50	48	46	45	45	44	43	43	42	42	42	41	38	35	33	32	31	31	31	31	31	31	31	31	31	31	31	31	31	31	31	31	31	31	31	31	31	31	31	31	31	31	31	31	31	31	31	31	31	31	31	31	31	31	31	31	31	31	31	31	31	31	31	31	31	31	31	31	31	31	31	31	31	31	31	31	31	31	31	31	31	31	31	31	31	31	31	31	31	31	31	31	31	31	31	31	31	36	40	34	27	28	28	26	25	23	21	19	16	14	13	11	10	8	7	5	3	2	2	1	0	1	2	2	2	3	5	7	6	5	7	6	4	4	4	4	4	3	3	3	3	3	2	1	1	0	0	0	0	0	0	0	0	1	1	1	2	2	2	2	2	2	2	2	2	2	2	2	1	0	0	0	0	0	0	0	0	0	0	0	0	0	0	0	0	2	5	9	13	16	18	20	22	23	24	27	29	31	33	34	35	36	37	38	39	40	40	41	41	41	41	42	43	43	45	47	48	49	50	52	54	56	59	62	64	66	68	70	73	77	80	82	85	89	92	94	96	99	102	104	107	110	113	116	119	121	123	125	128	130	131	131	131	131	131	131	131	130	129	128	128	129	130	133	135	138	141	142	145	147	148	149	150	150	150	150	149	147	145	144	141	138	135	132	129	127	125	122	120	118	116	113	111	107	103	99	97	95	92	89	85	83	80	75	71	68	65	62	59	57	55	52	48	48	48	46	44	42	39	37	35	33	31	29	26	25	25	26	29	32	34	35	37	39	41	43	45	46	46	46	46	50	56	59	61	65	68	71	73	76	79	82	84	87	89	91	93	94	96	99	101	101	103	105	107	108	109	109	110	112	114	117	120	123	125	128	132	135	137	139	141	145	145	144	149	155	158	159	161	163	164	165	167	169	170	171	172	174	175	176	177	178	179	179	179	179	180	181	181	182	181	181	183	184	184	184	185	187	189	190	192	193	195	196	196	197	196	195	193	191	190	190	190	191	192	191	189	189	190	192	194	195	196	196	196	196	198	201	204	207	209	211	214	217	220	222	224	226	226	226	227	228	231	233	234	236	237	238	239	239	238	236	233	230	227	224	220	217	213	209	206	204	202	199	195	191	187	184	181	179	177	175	172	170	169	168	166	165	163	161	160	159	158	156	154	153	152	151	149	146	144	142	140	138	135	133	131	127	124	121	119	115	112	111	110	110	110	109	107	107	108	109	109	108	106	104	103	102	101	100	99	99	99	99	99	99	98	97	96	97	98	98	98	98	97	95	94	94	94	94	94	94	93	92	91	91	89	87	85	83	81	78	77	75	73	70	68	65	63	60	58	55	53	51	48	46	44	42	40	37	35	34	33	35	38	38	38	38	41	43	43	41	38	36	36	39	43	43	42	43	45	47	46	40	37	37	38	38	40	41	43	42	40	36	30	20	9	4	3	3	3	2	2	2	1	0	0	0	0	0	0	0	0	0	0	0	0	0	0	0	0	0	0	0	0	0	0	0	0	0	0	0	0	0	0	0	0	0	0	0	0	0	0	0	0	0	0	0	0	0	0	0	0	0	0	0	0	0	0	0	0	0	0	0	0	0	0	0	0	0	0	0	0	0	0	0	0	0	0	0	0	0	0	0	0	0	0	0	0	0	0	0	0	0	0	0	0	0	0	0	0	0	0	0	0	0	0	0	0	0	0	0	0	0	0	0	0	0	0	0	0	0	0	0	0	0	0	0	0	0	0	0	0	0	0	0	0	0	0	0	0	0	0	0	0	0	0	0	0	0	0	0	0	0	0	0	0	0	0	0	0	0	0	0	0	0	0	0	0	0	0	0	0	0	0	0	0	0	0	0	0	0	0	0	0	0	0	0	0	0	0	0	0	0	0	0	0	0	0	0	0	0	0	0	0	0	0	0	0	0	0	0	0	0	0	0	0	0	0	0	0	0	0	0	0	0	0	0	0	0	0	0	0	0	0	0	0	0	0	0	0	0	0	0	0	0	0	0	0	0	0	0	0	0	0	0	0	0	0	0	0	0	0	0	0	0	0	0	0	0	0	0	0	0	0	0	0	0	0	0	0	0	0	0	0	0	0	0	0	0	0	0	0	0	0	0	0
103	103	102	103	104	104	103	102	100	98	96	94	92	89	87	83	80	78	76	73	72	71	70	69	69	68	67	65	63	59	54	51	51	51	50	49	47	45	44	44	44	43	43	42	40	39	37	35	34	33	32	31	31	31	31	31	31	31	31	31	31	31	31	31	31	31	31	31	31	31	31	31	31	31	31	31	31	31	31	31	31	31	31	31	31	31	31	31	31	31	31	31	31	31	31	31	31	31	31	31	31	31	31	31	31	31	31	31	31	31	31	31	31	31	31	31	31	31	31	31	31	31	31	31	31	31	31	31	31	31	31	31	36	40	34	28	29	28	27	26	24	21	19	17	15	13	11	10	9	8	7	6	4	2	1	-1	1	4	3	2	1	2	2	2	3	4	3	2	2	1	2	2	1	1	1	1	1	1	1	1	0	0	0	0	0	0	0	1	1	2	2	2	2	2	2	2	2	2	2	2	2	2	1	0	0	0	0	0	0	0	0	0	0	0	0	0	0	0	0	0	2	4	8	12	15	18	20	21	22	24	26	29	31	32	34	34	35	36	38	40	41	42	43	43	43	43	43	43	44	46	48	49	49	50	52	54	57	60	63	65	67	70	72	74	77	80	82	85	88	91	94	96	98	100	103	106	109	112	115	117	120	122	123	126	129	130	131	131	131	132	132	132	131	130	129	129	130	131	134	136	139	142	144	146	148	149	149	150	150	150	150	149	147	145	143	141	138	136	133	130	128	125	123	121	119	117	114	112	109	104	100	97	94	92	89	85	82	79	74	70	68	65	62	59	57	54	51	49	48	47	44	42	41	39	37	35	33	30	28	25	25	26	29	32	34	36	38	41	42	44	46	47	48	48	47	46	51	55	58	61	65	68	71	74	77	80	83	85	87	89	91	93	95	97	99	101	102	104	106	108	109	110	111	112	114	115	118	120	123	125	129	133	137	138	138	141	144	144	146	153	155	158	159	161	163	164	166	168	170	171	172	174	175	176	177	178	180	181	181	181	181	181	181	181	182	182	183	184	185	185	186	187	190	192	193	195	196	197	198	198	198	198	197	195	193	192	191	191	193	194	194	193	192	192	193	195	197	197	197	197	197	199	201	204	206	209	212	214	218	221	223	226	228	229	230	231	232	233	234	235	237	238	238	239	238	237	234	231	228	226	222	219	216	211	207	203	200	197	195	192	188	184	180	177	176	175	173	170	168	167	165	164	162	160	158	157	156	155	152	151	150	149	148	147	145	142	141	139	136	134	132	129	126	122	120	117	113	110	108	107	106	106	105	104	104	104	106	106	106	104	101	100	99	98	97	96	96	97	97	97	96	95	94	94	94	95	94	94	94	93	92	91	91	91	91	91	91	90	89	89	88	87	85	83	81	78	76	74	72	70	68	65	63	61	58	56	53	51	49	47	44	42	40	37	34	32	31	30	32	36	37	38	40	43	44	44	42	39	37	38	40	44	44	43	45	48	50	50	43	37	37	37	37	37	40	44	43	40	36	31	22	7	4	3	3	2	2	1	1	1	0	0	0	0	0	0	0	0	0	0	0	0	0	0	0	0	0	0	0	0	0	0	0	0	0	0	0	0	0	0	0	0	0	0	0	0	0	0	0	0	0	0	0	0	0	0	0	0	0	0	0	0	0	0	0	0	0	0	0	0	0	0	0	0	0	0	0	0	0	0	0	0	0	0	0	0	0	0	0	0	0	0	0	0	0	0	0	0	0	0	0	0	0	0	0	0	0	0	0	0	0	0	0	0	0	0	0	0	0	0	0	0	0	0	0	0	0	0	0	0	0	0	0	0	0	0	0	0	0	0	0	0	0	0	0	0	0	0	0	0	0	0	0	0	0	0	0	0	0	0	0	0	0	0	0	0	0	0	0	0	0	0	0	0	0	0	0	0	0	0	0	0	0	0	0	0	0	0	0	0	0	0	0	0	0	0	0	0	0	0	0	0	0	0	0	0	0	0	0	0	0	0	0	0	0	0	0	0	0	0	0	0	0	0	0	0	0	0	0	0	0	0	0	0	0	0	0	0	0	0	0	0	0	0	0	0	0	0	0	0	0	0	0	0	0	0	0	0	0	0	0	0	0	0	0	0	0	0	0	0	0	0	0	0	0	0	0	0	0	0	0	0	0	0	0	0	0	0	0	0	0	0	0	0	0	0	0	0	0	0	0	0
103	101	100	100	101	101	101	100	98	96	94	92	89	87	84	82	79	76	72	69	69	68	67	66	67	67	66	63	60	55	50	48	50	50	49	47	45	44	43	43	43	43	42	40	37	35	34	33	33	32	31	31	31	31	31	31	31	31	31	31	31	31	31	31	31	31	31	31	31	31	31	31	31	31	31	31	31	31	31	31	31	31	31	31	31	31	31	31	31	31	31	31	31	31	31	31	31	31	31	31	31	31	31	31	31	31	31	31	31	31	31	31	31	31	31	31	31	31	31	31	31	31	31	31	31	31	31	31	31	31	31	31	36	39	32	28	30	28	27	26	25	22	19	18	16	14	11	10	10	9	8	8	6	5	3	1	2	4	3	2	1	1	2	2	1	1	2	2	2	1	1	1	0	1	1	1	1	1	1	0	0	0	0	0	1	1	1	2	2	2	2	2	2	2	2	2	2	2	2	2	2	1	0	0	0	0	0	0	0	0	0	0	0	0	0	0	0	0	0	1	2	5	8	12	15	17	19	20	22	24	26	29	30	32	33	34	35	36	38	40	43	44	45	45	45	44	44	45	46	47	49	50	50	51	53	56	59	62	64	67	70	72	74	76	78	80	82	84	87	90	93	96	97	99	102	105	108	111	113	116	119	121	122	125	127	129	130	131	132	132	132	132	132	131	130	130	131	133	135	137	140	143	145	147	148	149	149	150	150	150	149	148	146	144	142	141	138	136	133	130	128	126	124	121	119	117	115	112	109	105	101	97	94	91	88	85	82	77	72	69	67	65	62	59	57	54	51	49	47	45	42	41	39	38	36	34	32	29	26	25	26	28	31	34	37	40	42	44	46	46	47	48	48	49	49	49	51	54	57	60	64	68	71	75	78	80	83	86	88	89	91	93	96	98	100	101	103	105	107	109	110	112	113	114	115	117	119	121	123	124	129	134	138	139	139	141	143	142	146	153	155	157	159	161	162	164	166	169	171	172	173	174	176	177	178	180	181	182	183	183	182	181	181	181	182	183	184	185	186	187	188	190	192	195	197	198	199	199	200	200	200	199	198	196	195	193	193	193	194	196	197	198	197	196	196	197	198	199	198	198	199	200	201	203	206	209	212	215	218	221	224	227	229	231	232	233	234	235	236	237	237	238	238	238	237	235	233	230	227	224	221	218	214	210	206	201	197	193	190	187	184	180	177	175	173	171	170	168	167	164	162	160	159	157	155	154	153	151	149	148	148	147	146	144	142	141	139	137	135	132	130	127	124	121	119	115	111	108	106	104	103	102	101	101	101	102	104	104	103	101	98	96	94	94	94	93	93	94	94	94	93	92	91	91	91	92	92	91	91	91	89	89	88	88	88	88	88	88	87	87	86	84	83	81	78	76	74	72	70	67	65	63	61	59	57	54	51	49	47	45	42	40	38	34	31	29	28	28	30	34	36	37	40	43	44	43	42	39	37	36	34	38	41	43	46	48	49	48	42	38	37	38	37	37	41	44	42	39	35	31	21	6	3	2	2	2	2	1	0	0	0	0	0	0	0	0	0	0	0	0	0	0	0	0	0	0	0	0	0	0	0	0	0	0	0	0	0	0	0	0	0	0	0	0	0	0	0	0	0	0	0	0	0	0	0	0	0	0	0	0	0	0	0	0	0	0	0	0	0	0	0	0	0	0	0	0	0	0	0	0	0	0	0	0	0	0	0	0	0	0	0	0	0	0	0	0	0	0	0	0	0	0	0	0	0	0	0	0	0	0	0	0	0	0	0	0	0	0	0	0	0	0	0	0	0	0	0	0	0	0	0	0	0	0	0	0	0	0	0	0	0	0	0	0	0	0	0	0	0	0	0	0	0	0	0	0	0	0	0	0	0	0	0	0	0	0	0	0	0	0	0	0	0	0	0	0	0	0	0	0	0	0	0	0	0	0	0	0	0	0	0	0	0	0	0	0	0	0	0	0	0	0	0	0	0	0	0	0	0	0	0	0	0	0	0	0	0	0	0	0	0	0	0	0	0	0	0	0	0	0	0	0	0	0	0	0	0	0	0	0	0	0	0	0	0	0	0	0	0	0	0	0	0	0	0	0	0	0	0	0	0	0	0	0	0	0	0	0	0	0	0	0	0	0	0	0	0	0	0	0	0	0	0	0	0	0	0	0	0	0	0	0	0	0	0	0	0	0	0	0	0	0
101	99	97	98	99	99	99	98	96	94	92	89	87	85	82	80	76	73	69	67	67	66	64	64	65	65	64	61	56	51	48	48	49	49	48	45	42	41	41	42	41	41	39	35	33	33	32	32	32	32	31	31	31	31	31	31	31	31	31	31	31	31	31	31	31	31	31	31	31	31	31	31	31	31	31	31	31	31	31	31	31	31	31	31	31	31	31	31	31	31	31	31	31	31	31	31	31	31	31	31	31	31	31	31	31	31	31	31	31	31	31	31	31	31	31	31	31	31	31	31	31	31	31	31	31	31	31	31	31	31	31	31	34	39	33	28	30	28	27	26	25	23	20	18	16	14	12	11	11	11	9	9	8	7	5	3	2	2	2	1	1	1	1	1	2	2	1	1	1	1	1	1	1	1	1	1	1	1	1	0	0	0	0	1	1	2	2	2	2	2	2	2	2	2	2	2	2	2	2	2	1	0	0	0	0	0	0	0	0	0	0	0	0	0	0	0	0	0	0	1	2	5	9	12	15	17	18	19	21	24	26	28	29	31	32	34	36	38	40	42	45	46	47	47	47	46	46	47	47	48	50	51	51	52	55	58	60	63	66	69	72	74	76	78	80	82	83	85	87	89	92	94	96	99	101	105	108	111	113	116	119	120	122	124	127	128	130	131	132	132	132	132	132	131	131	132	133	134	136	139	141	143	146	148	149	149	150	150	150	150	149	147	145	143	141	140	138	136	133	130	127	125	123	121	119	117	114	112	109	106	102	97	94	91	88	84	81	77	72	69	67	64	61	58	56	53	50	48	47	44	41	40	38	36	34	32	30	27	26	26	26	29	32	36	39	42	45	46	47	47	48	51	53	54	54	53	51	52	56	59	64	68	71	75	78	80	83	86	88	90	92	95	97	99	100	102	104	107	109	110	111	112	114	115	116	118	119	121	122	124	128	134	138	139	140	141	142	142	147	152	155	157	159	160	161	163	165	168	170	171	173	174	176	178	180	181	182	184	185	185	183	182	181	182	183	184	185	186	187	188	190	192	195	197	199	201	201	202	202	202	202	201	200	198	196	195	194	194	196	197	199	201	201	201	200	200	201	201	201	201	201	201	202	204	206	209	212	215	217	221	224	227	230	231	232	234	235	236	237	237	237	238	238	237	236	234	231	229	226	223	220	216	213	209	204	199	194	190	186	183	180	177	175	172	170	169	167	166	165	162	159	156	154	152	151	150	149	147	145	145	145	145	143	142	140	138	137	135	133	130	128	125	123	121	118	114	110	107	105	103	101	99	98	97	98	99	100	100	98	96	95	93	91	91	90	90	90	90	90	90	90	89	88	88	88	88	89	89	88	88	87	86	86	86	86	87	87	86	86	85	84	82	81	79	77	74	72	70	67	65	63	61	59	57	55	53	50	47	44	42	40	38	35	32	30	28	28	29	30	34	35	36	40	42	42	42	40	38	37	38	40	42	43	45	46	47	47	45	41	38	37	37	37	37	39	41	41	38	33	28	17	5	2	2	2	2	2	1	0	0	0	0	0	0	0	0	0	0	0	0	0	0	0	0	0	0	0	0	0	0	0	0	0	0	0	0	0	0	0	0	0	0	0	0	0	0	0	0	0	0	0	0	0	0	0	0	0	0	0	0	0	0	0	0	0	0	0	0	0	0	0	0	0	0	0	0	0	0	0	0	0	0	0	0	0	0	0	0	0	0	0	0	0	0	0	0	0	0	0	0	0	0	0	0	0	0	0	0	0	0	0	0	0	0	0	0	0	0	0	0	0	0	0	0	0	0	0	0	0	0	0	0	0	0	0	0	0	0	0	0	0	0	0	0	0	0	0	0	0	0	0	0	0	0	0	0	0	0	0	0	0	0	0	0	0	0	0	0	0	0	0	0	0	0	0	0	0	0	0	0	0	0	0	0	0	0	0	0	0	0	0	0	0	0	0	0	0	0	0	0	0	0	0	0	0	0	0	0	0	0	0	0	0	0	0	0	0	0	0	0	0	0	0	0	0	0	0	0	0	0	0	0	0	0	0	0	0	0	0	0	0	0	0	0	0	0	0	0	0	0	0	0	0	0	0	0	0	0	0	0	0	0	0	0	0	0	0	0	0	0	0	0	0	0	0	0	0	0	0	0	0	0	0	0	0	0	0	0	0	0	0	0	0	0	0	0	0	0	0	0	0	0
99	97	95	96	97	97	97	96	95	92	90	87	85	82	80	77	74	71	68	67	66	64	63	62	62	62	62	58	53	50	50	49	48	48	46	41	36	34	35	37	35	35	34	31	29	30	31	31	31	31	31	31	31	31	31	31	31	31	31	31	31	31	31	31	31	31	31	31	31	31	31	31	31	31	31	31	31	31	31	31	31	31	31	31	31	31	31	31	31	31	31	31	31	31	31	31	31	31	31	31	31	31	31	31	31	31	31	31	31	31	31	31	31	31	31	31	31	31	31	31	31	31	31	31	31	31	31	31	31	31	31	31	33	39	36	30	31	29	28	27	25	24	21	19	17	16	14	13	13	12	10	10	10	9	7	5	4	3	2	2	1	0	-1	2	7	4	1	1	1	1	1	1	1	1	1	1	1	1	1	1	0	0	1	1	2	2	2	2	2	2	2	2	2	2	2	2	2	1	1	1	0	0	0	0	0	0	0	0	0	0	0	0	0	0	0	0	0	0	0	1	2	5	9	12	14	16	18	19	21	24	25	27	29	30	32	35	38	39	41	44	46	48	49	49	48	48	48	48	49	50	51	51	52	53	56	59	61	63	67	70	73	75	77	80	81	83	84	86	88	89	92	94	96	99	102	105	108	111	113	116	119	121	122	124	127	128	129	130	131	132	132	132	132	132	132	133	135	137	138	140	142	144	146	148	149	150	151	151	151	151	150	147	145	142	140	139	137	134	132	129	127	124	122	120	118	116	114	112	109	106	102	98	95	92	88	85	81	77	73	70	67	64	61	58	55	51	49	48	46	43	41	39	37	34	32	31	29	27	26	27	28	30	34	38	41	45	47	47	47	50	52	55	57	58	59	57	54	53	56	60	64	68	71	75	78	81	83	86	88	90	93	96	98	100	101	103	105	108	110	111	112	113	114	116	117	119	119	120	122	124	128	133	136	138	139	141	142	143	149	154	156	158	159	160	161	162	164	167	169	171	172	174	176	178	180	182	183	185	186	186	184	183	182	183	184	185	187	188	189	191	193	195	197	200	202	203	203	204	204	204	203	203	201	200	198	197	196	196	197	198	200	202	203	203	203	203	203	203	202	202	202	202	203	204	207	209	211	214	217	220	223	227	230	232	233	235	236	237	238	237	237	237	236	235	234	232	230	228	225	222	219	215	211	207	203	197	192	188	184	180	177	174	172	170	168	167	166	165	162	159	156	153	151	149	148	147	145	144	142	142	143	142	141	140	138	136	134	133	131	129	126	124	122	120	117	114	110	107	104	102	99	96	93	93	93	93	93	93	93	92	92	91	89	88	87	86	85	86	87	87	87	86	85	84	84	85	86	86	86	85	85	84	83	83	84	85	85	85	84	83	82	80	79	77	75	73	71	68	66	63	61	59	57	55	53	51	48	45	42	40	38	36	33	30	28	31	34	32	32	35	33	33	38	40	40	38	37	36	37	41	44	45	46	47	46	46	46	44	43	39	37	37	37	37	38	39	38	35	29	18	8	3	2	2	2	2	1	0	0	0	0	0	0	0	0	0	0	0	0	0	0	0	0	0	0	0	0	0	0	0	0	0	0	0	0	0	0	0	0	0	0	0	0	0	0	0	0	0	0	0	0	0	0	0	0	0	0	0	0	0	0	0	0	0	0	0	0	0	0	0	0	0	0	0	0	0	0	0	0	0	0	0	0	0	0	0	0	0	0	0	0	0	0	0	0	0	0	0	0	0	0	0	0	0	0	0	0	0	0	0	0	0	0	0	0	0	0	0	0	0	0	0	0	0	0	0	0	0	0	0	0	0	0	0	0	0	0	0	0	0	0	0	0	0	0	0	0	0	0	0	0	0	0	0	0	0	0	0	0	0	0	0	0	0	0	0	0	0	0	0	0	0	0	0	0	0	0	0	0	0	0	0	0	0	0	0	0	0	0	0	0	0	0	0	0	0	0	0	0	0	0	0	0	0	0	0	0	0	0	0	0	0	0	0	0	0	0	0	0	0	0	0	0	0	0	0	0	0	0	0	0	0	0	0	0	0	0	0	0	0	0	0	0	0	0	0	0	0	0	0	0	0	0	0	0	0	0	0	0	0	0	0	0	0	0	0	0	0	0	0	0	0	0	0	0	0	0	0	0	0	0	0	0	0	0	0	0	0	0	0	0	0	0	0	0	0	0	0	0	0	0	0
98	95	94	93	94	94	95	94	92	90	87	85	82	79	77	75	73	70	68	66	65	62	60	60	60	59	57	52	51	52	52	50	48	46	43	37	33	32	32	33	32	32	31	28	27	29	30	31	31	31	31	31	31	31	31	31	31	31	31	31	31	31	31	31	31	31	31	31	31	31	31	31	31	31	31	31	31	31	31	31	31	31	31	31	31	31	31	31	31	31	31	31	31	31	31	31	31	31	31	31	31	31	31	31	31	31	31	31	31	31	31	31	31	31	31	31	31	31	31	31	31	31	31	31	31	31	31	31	31	31	31	31	33	40	38	32	33	31	29	27	26	25	23	21	19	17	15	14	14	13	11	10	10	10	9	7	6	4	3	2	2	1	-1	2	3	0	0	1	0	1	2	2	2	2	2	2	2	2	2	2	1	1	1	2	2	2	2	2	2	2	2	2	2	1	1	1	1	1	1	0	0	0	0	0	0	0	0	0	0	0	0	0	0	0	0	0	0	0	0	1	2	5	9	12	15	17	18	19	21	24	25	27	29	30	32	35	38	39	41	43	46	48	49	49	49	49	49	49	50	51	52	53	54	55	57	60	62	64	67	70	73	76	79	81	83	84	86	87	89	90	92	95	97	99	102	105	108	111	114	116	119	121	123	125	127	128	129	130	131	132	132	132	132	133	133	134	136	138	139	141	142	143	146	148	150	151	152	152	151	152	151	148	145	142	140	138	135	133	130	128	125	123	121	119	117	115	113	111	108	105	102	98	95	91	88	85	82	78	75	72	68	65	61	59	55	51	48	48	46	44	41	39	36	34	31	30	28	27	27	28	29	32	35	39	43	47	48	48	50	54	57	59	60	61	62	61	59	58	60	63	66	69	72	75	78	81	83	86	89	91	93	96	98	100	101	103	106	108	110	112	113	115	116	117	118	119	119	120	123	126	129	133	136	137	139	141	142	145	152	155	157	159	160	161	161	162	163	165	168	169	171	173	175	177	179	182	184	185	186	186	185	184	184	184	185	186	188	189	191	193	195	198	200	202	204	205	205	206	206	206	205	204	203	201	200	198	197	197	198	199	201	203	204	204	205	205	205	205	204	203	203	204	204	206	208	210	211	213	216	220	223	226	229	231	233	235	236	237	238	237	237	236	235	233	232	230	228	226	223	220	217	213	210	206	201	195	190	185	182	178	175	172	169	167	165	163	162	161	159	156	153	150	148	147	146	145	142	140	139	140	140	139	138	137	135	133	132	131	129	127	125	123	121	119	116	113	110	107	104	101	97	94	91	89	88	87	88	89	90	90	90	88	87	85	84	82	82	83	84	83	83	82	81	81	81	81	82	83	84	83	82	81	80	80	82	83	83	82	81	80	79	78	77	75	73	71	69	67	64	62	60	57	55	52	50	49	46	43	41	38	36	33	30	28	28	35	38	36	33	31	28	28	33	35	35	32	30	31	34	40	42	43	45	45	43	43	44	44	43	41	38	37	37	38	38	37	32	22	13	5	3	2	2	2	2	2	1	0	0	0	0	0	0	0	0	0	0	0	0	0	0	0	0	0	0	0	0	0	0	0	0	0	0	0	0	0	0	0	0	0	0	0	0	0	0	0	0	0	0	0	0	0	0	0	0	0	0	0	0	0	0	0	0	0	0	0	0	0	0	0	0	0	0	0	0	0	0	0	0	0	0	0	0	0	0	0	0	0	0	0	0	0	0	0	0	0	0	0	0	0	0	0	0	0	0	0	0	0	0	0	0	0	0	0	0	0	0	0	0	0	0	0	0	0	0	0	0	0	0	0	0	0	0	0	0	0	0	0	0	0	0	0	0	0	0	0	0	0	0	0	0	0	0	0	0	0	0	0	0	0	0	0	0	0	0	0	0	0	0	0	0	0	0	0	0	0	0	0	0	0	0	0	0	0	0	0	0	0	0	0	0	0	0	0	0	0	0	0	0	0	0	0	0	0	0	0	0	0	0	0	0	0	0	0	0	0	0	0	0	0	0	0	0	0	0	0	0	0	0	0	0	0	0	0	0	0	0	0	0	0	0	0	0	0	0	0	0	0	0	0	0	0	0	0	0	0	0	0	0	0	0	0	0	0	0	0	0	0	0	0	0	0	0	0	0	0	0	0	0	0	0	0	0	0	0	0	0	0	0	0	0	0	0	0	0	0	0	0	0	0	0	0
97	95	93	92	92	92	92	92	89	87	84	82	80	77	75	73	71	68	65	64	62	58	57	57	57	55	53	51	52	53	51	48	47	43	38	34	32	32	32	32	31	31	31	31	30	31	31	31	31	31	31	31	31	31	31	31	31	31	31	31	31	31	31	31	31	31	31	31	31	31	31	31	31	31	31	31	31	31	31	31	31	31	31	31	31	31	31	31	31	31	31	31	31	31	31	31	31	31	31	31	31	31	31	31	31	31	31	31	31	31	31	31	31	31	31	31	31	31	31	31	31	31	31	31	31	31	31	31	31	31	31	31	33	40	40	35	33	31	30	28	27	25	24	22	20	19	17	15	14	13	11	11	10	11	10	9	7	6	4	3	2	2	2	1	0	0	1	2	1	1	2	2	2	3	3	4	4	3	3	2	2	2	2	2	2	2	2	2	2	2	2	1	1	0	1	1	0	0	0	0	0	1	1	1	1	1	0	0	0	0	0	0	0	0	0	0	0	0	0	1	2	5	9	13	16	17	18	19	22	24	25	27	29	31	33	35	37	40	42	43	46	48	49	50	50	50	49	49	50	51	52	54	55	56	58	61	63	65	68	71	74	77	79	82	84	86	87	88	90	91	93	95	97	99	102	105	108	111	114	116	119	122	124	125	127	128	130	131	132	132	133	133	133	133	134	135	137	139	140	142	143	143	146	149	151	153	153	152	152	153	152	149	145	141	139	137	134	132	129	126	123	122	120	117	115	113	111	110	107	104	101	98	94	90	88	85	82	79	75	72	69	65	62	59	55	51	48	48	46	44	41	38	36	34	31	29	28	28	28	29	31	33	37	40	44	47	48	49	53	57	59	61	63	64	64	64	63	63	63	64	67	70	74	76	78	81	84	87	90	92	94	96	98	100	102	104	106	108	111	112	114	116	117	118	119	119	120	122	125	127	129	132	135	137	140	142	142	145	154	157	159	161	161	161	162	162	163	165	167	168	170	172	174	176	179	182	185	186	187	187	186	185	185	186	186	188	189	191	193	196	198	200	202	205	206	208	208	208	208	207	206	205	204	202	201	199	198	198	199	201	203	204	205	206	206	207	206	206	205	205	205	205	206	207	210	211	212	213	216	219	223	226	229	231	233	235	237	238	238	238	237	235	234	232	230	228	226	224	221	218	215	211	208	204	199	193	188	184	180	176	172	169	166	163	160	159	158	157	155	153	150	148	146	145	144	142	139	137	137	137	138	137	136	135	133	131	130	129	128	125	123	121	119	117	114	112	109	106	103	100	97	93	89	86	84	83	84	86	87	87	86	85	84	82	80	79	79	80	80	79	79	79	78	77	77	78	78	80	81	81	80	79	78	79	80	80	80	79	79	78	77	76	75	73	72	70	68	65	63	60	58	56	53	50	48	47	44	42	39	37	34	31	28	27	29	36	38	35	29	25	26	27	28	28	26	25	26	28	30	34	38	40	42	42	40	40	41	42	43	42	39	37	37	38	37	33	17	7	4	3	2	2	2	2	2	1	0	0	0	0	0	0	0	0	0	0	0	0	0	0	0	0	0	0	0	0	0	0	0	0	0	0	0	0	0	0	0	0	0	0	0	0	0	0	0	0	0	0	0	0	0	0	0	0	0	0	0	0	0	0	0	0	0	0	0	0	0	0	0	0	0	0	0	0	0	0	0	0	0	0	0	0	0	0	0	0	0	0	0	0	0	0	0	0	0	0	0	0	0	0	0	0	0	0	0	0	0	0	0	0	0	0	0	0	0	0	0	0	0	0	0	0	0	0	0	0	0	0	0	0	0	0	0	0	0	0	0	0	0	0	0	0	0	0	0	0	0	0	0	0	0	0	0	0	0	0	0	0	0	0	0	0	0	0	0	0	0	0	0	0	0	0	0	0	0	0	0	0	0	0	0	0	0	0	0	0	0	0	0	0	0	0	0	0	0	0	0	0	0	0	0	0	0	0	0	0	0	0	0	0	0	0	0	0	0	0	0	0	0	0	0	0	0	0	0	0	0	0	0	0	0	0	0	0	0	0	0	0	0	0	0	0	0	0	0	0	0	0	0	0	0	0	0	0	0	0	0	0	0	0	0	0	0	0	0	0	0	0	0	0	0	0	0	0	0	0	0	0	0	0	0	0	0	0	0	0	0	0	0	0	0	0	0	0	0	0	0	0	0	0	0	0
96	94	92	91	90	90	90	89	86	84	82	80	78	76	74	72	69	66	63	61	59	56	55	55	53	51	52	52	52	51	49	46	44	39	34	33	32	31	31	31	31	31	31	31	32	31	31	31	31	31	31	31	31	31	31	31	31	31	31	31	31	31	31	31	31	31	31	31	31	31	31	31	31	31	31	31	31	31	31	31	31	31	31	31	31	31	31	31	31	31	31	31	31	31	31	31	31	31	31	31	31	31	31	31	31	31	31	31	31	31	31	31	31	31	31	31	31	31	31	31	31	31	31	31	31	31	31	31	31	31	31	31	33	39	40	36	33	33	32	30	29	27	26	23	21	20	18	17	15	13	12	11	11	11	11	10	9	7	5	3	3	3	3	3	2	2	2	2	2	2	2	3	4	5	5	5	5	5	4	4	3	2	2	2	2	2	2	2	1	2	2	1	0	0	0	0	0	0	0	0	1	1	2	2	2	1	1	0	0	0	0	0	0	0	0	0	0	1	1	1	2	6	10	14	17	18	18	20	22	24	26	28	29	31	33	35	37	40	42	43	46	48	49	50	49	48	48	49	50	52	53	55	56	58	60	63	65	66	69	72	75	77	80	82	85	86	88	90	91	92	94	95	97	99	102	105	108	112	114	116	119	121	123	125	127	128	130	131	132	133	133	133	133	134	135	136	137	139	141	142	143	144	146	149	152	153	153	153	153	153	152	149	145	141	138	136	133	131	128	124	122	120	118	116	113	110	109	107	105	102	100	97	93	90	87	85	82	79	75	72	69	66	62	59	56	51	48	48	46	44	41	38	36	33	30	29	29	28	29	30	32	34	38	41	44	47	47	49	55	58	60	63	65	67	67	68	68	67	67	68	69	71	75	78	79	82	84	87	90	92	94	96	99	101	103	104	106	108	111	113	115	117	118	119	120	121	122	123	126	129	130	132	135	137	141	142	142	146	154	159	161	162	162	162	163	163	164	165	167	169	171	172	174	176	179	182	185	187	188	187	186	185	185	186	187	188	191	193	196	198	200	203	205	207	209	211	211	210	209	208	207	206	204	203	202	200	199	200	201	203	204	206	207	207	207	207	207	206	206	206	206	207	208	209	211	213	213	215	217	220	222	225	228	231	233	235	237	238	238	238	236	235	233	231	229	226	224	221	219	216	213	209	205	201	197	191	186	182	178	174	171	168	164	159	156	155	155	154	153	151	148	146	143	141	140	139	137	136	136	136	136	136	135	133	132	130	128	127	125	123	121	119	116	114	112	110	107	105	102	99	96	92	88	84	81	80	80	82	83	83	82	81	80	79	78	76	76	76	77	77	76	76	75	74	74	74	75	76	77	77	77	77	76	77	77	78	78	77	76	76	75	74	73	72	70	68	66	64	62	59	57	54	51	49	47	45	42	40	37	35	32	29	27	28	30	33	33	29	26	26	27	27	26	24	23	24	26	28	28	30	36	39	38	36	36	37	39	40	42	42	40	38	38	38	36	26	9	4	3	3	2	2	2	2	1	1	0	0	0	0	0	0	0	0	0	0	0	0	0	0	0	0	0	0	0	0	0	0	0	0	0	0	0	0	0	0	0	0	0	0	0	0	0	0	0	0	0	0	0	0	0	0	0	0	0	0	0	0	0	0	0	0	0	0	0	0	0	0	0	0	0	0	0	0	0	0	0	0	0	0	0	0	0	0	0	0	0	0	0	0	0	0	0	0	0	0	0	0	0	0	0	0	0	0	0	0	0	0	0	0	0	0	0	0	0	0	0	0	0	0	0	0	0	0	0	0	0	0	0	0	0	0	0	0	0	0	0	0	0	0	0	0	0	0	0	0	0	0	0	0	0	0	0	0	0	0	0	0	0	0	0	0	0	0	0	0	0	0	0	0	0	0	0	0	0	0	0	0	0	0	0	0	0	0	0	0	0	0	0	0	0	0	0	0	0	0	0	0	0	0	0	0	0	0	0	0	0	0	0	0	0	0	0	0	0	0	0	0	0	0	0	0	0	0	0	0	0	0	0	0	0	0	0	0	0	0	0	0	0	0	0	0	0	0	0	0	0	0	0	0	0	0	0	0	0	0	0	0	0	0	0	0	0	0	0	0	0	0	0	0	0	0	0	0	0	0	0	0	0	0	0	0	0	0	0	0	0	0	0	0	0	0	0	0	0	0	0	0	0	0	0	0
96	94	92	90	89	88	88	87	84	82	80	78	76	74	71	68	66	64	62	60	58	55	54	53	51	50	51	52	51	49	47	45	42	36	33	32	31	31	31	31	31	31	31	31	31	31	31	31	31	31	31	31	31	31	31	31	31	31	31	31	31	31	31	31	31	31	31	31	31	31	31	31	31	31	31	31	31	31	31	31	31	31	31	31	31	31	31	31	31	31	31	31	31	31	31	31	31	31	31	31	31	31	31	31	31	31	31	31	31	31	31	31	31	31	31	31	31	31	31	31	31	31	31	31	31	31	31	31	31	31	31	31	32	36	40	34	32	34	34	33	31	30	27	25	23	22	20	19	17	15	13	12	11	11	11	10	10	8	6	4	4	4	4	3	3	2	2	2	2	2	2	3	4	5	5	5	5	5	5	4	3	3	2	2	2	2	2	2	2	2	2	1	0	0	0	0	0	0	0	0	1	2	2	2	2	1	1	0	0	0	0	0	0	0	0	0	1	1	1	2	3	7	11	14	16	18	19	21	22	24	25	28	30	32	33	35	37	40	42	44	46	48	49	49	48	47	48	50	52	53	54	56	58	60	62	64	66	68	70	73	76	78	81	84	86	87	89	92	93	94	94	95	97	99	101	104	108	111	113	116	118	120	122	124	126	128	130	132	133	133	133	133	133	134	135	137	138	139	141	142	143	144	146	149	152	152	153	153	153	153	151	147	143	140	137	135	132	130	127	123	121	119	117	114	111	108	106	104	102	100	98	95	92	89	86	84	81	78	74	71	68	66	63	59	56	51	49	48	46	44	41	38	35	32	30	29	30	30	30	32	33	35	38	41	44	47	48	50	55	59	61	63	66	68	70	70	71	72	72	72	72	73	76	79	82	84	86	88	90	92	94	97	100	102	103	105	106	108	110	112	115	117	119	120	122	123	124	125	126	129	131	132	135	138	141	142	144	149	156	161	162	163	163	164	165	165	165	166	168	170	172	173	175	177	180	182	185	186	187	187	186	186	186	186	188	190	193	196	198	200	202	205	208	210	212	214	214	213	212	210	208	206	205	203	202	201	201	202	203	205	206	207	208	208	208	208	207	207	207	208	208	208	209	211	212	214	215	216	219	221	222	225	228	230	233	235	237	238	238	238	236	234	232	230	228	225	222	220	217	214	210	206	203	199	194	190	185	180	176	173	170	166	162	157	153	151	151	152	150	148	146	143	140	138	137	136	136	135	134	133	133	133	132	131	130	128	126	125	123	121	118	116	114	111	109	107	105	102	100	97	94	90	87	83	79	77	77	78	78	78	78	77	76	75	74	74	73	73	74	74	74	73	72	72	71	72	72	73	73	73	73	74	74	74	75	75	75	74	74	73	72	71	71	70	69	67	64	62	60	58	55	52	50	47	45	43	40	38	35	33	30	28	28	29	29	28	27	26	26	26	27	26	25	24	22	23	25	26	27	28	35	39	39	36	36	37	38	39	41	44	41	39	38	36	33	18	5	3	3	3	2	2	2	2	2	2	1	0	0	0	0	0	0	0	0	0	0	0	0	0	0	0	0	0	0	0	0	0	0	0	0	0	0	0	0	0	0	0	0	0	0	0	0	0	0	0	0	0	0	0	0	0	0	0	0	0	0	0	0	0	0	0	0	0	0	0	0	0	0	0	0	0	0	0	0	0	0	0	0	0	0	0	0	0	0	0	0	0	0	0	0	0	0	0	0	0	0	0	0	0	0	0	0	0	0	0	0	0	0	0	0	0	0	0	0	0	0	0	0	0	0	0	0	0	0	0	0	0	0	0	0	0	0	0	0	0	0	0	0	0	0	0	0	0	0	0	0	0	0	0	0	0	0	0	0	0	0	0	0	0	0	0	0	0	0	0	0	0	0	0	0	0	0	0	0	0	0	0	0	0	0	0	0	0	0	0	0	0	0	0	0	0	0	0	0	0	0	0	0	0	0	0	0	0	0	0	0	0	0	0	0	0	0	0	0	0	0	0	0	0	0	0	0	0	0	0	0	0	0	0	0	0	0	0	0	0	0	0	0	0	0	0	0	0	0	0	0	0	0	0	0	0	0	0	0	0	0	0	0	0	0	0	0	0	0	0	0	0	0	0	0	0	0	0	0	0	0	0	0	0	0	0	0	0	0	0	0	0	0	0	0	0	0	0	0	0	0	0	0	0	0	0
95	94	91	88	87	86	85	84	82	80	78	76	73	71	67	64	63	62	61	59	56	53	53	52	50	49	49	49	47	46	45	42	37	34	32	31	31	31	31	31	31	31	31	31	31	31	31	31	31	31	31	31	31	31	31	31	31	31	31	31	31	31	31	31	31	31	31	31	31	31	31	31	31	31	31	31	31	31	31	31	31	31	31	31	31	31	31	31	31	31	31	31	31	31	31	31	31	31	31	31	31	31	31	31	31	31	31	31	31	31	31	31	31	31	31	31	31	31	31	31	31	31	31	31	31	31	31	31	31	31	31	31	31	35	40	37	34	36	35	33	32	31	29	26	25	24	23	22	19	16	14	12	12	11	11	11	11	10	7	5	5	5	4	3	2	2	2	2	2	2	2	3	4	5	5	4	4	4	4	4	3	2	2	2	2	2	2	2	2	2	2	1	1	1	0	0	0	0	0	0	1	2	2	2	2	1	0	0	0	0	0	0	0	0	0	0	0	1	1	2	4	8	11	14	16	19	20	21	22	24	26	28	30	32	34	36	38	40	42	44	46	48	49	47	47	49	50	52	53	54	56	57	59	61	63	65	67	69	72	75	78	80	83	86	87	89	91	93	95	96	96	96	98	99	101	104	107	110	112	114	116	119	121	123	126	128	130	131	132	133	132	132	132	133	135	137	138	139	140	141	143	145	148	150	151	152	152	153	153	152	150	146	142	139	136	134	131	129	126	123	120	118	115	111	109	106	104	102	100	98	96	93	90	87	85	82	80	77	73	70	67	65	62	59	55	52	49	48	46	43	41	38	35	32	30	30	31	31	32	34	35	36	38	41	44	48	50	51	54	58	60	63	66	69	71	72	74	75	76	77	77	76	77	80	84	87	88	90	92	93	95	97	100	102	104	105	107	109	110	112	115	118	120	121	123	126	127	127	127	128	130	132	136	139	142	142	146	153	157	161	163	164	164	165	166	166	166	167	169	171	173	175	176	178	181	183	184	186	187	187	186	187	187	188	189	191	195	198	200	203	204	207	210	213	215	216	216	215	214	212	210	207	205	203	202	202	203	204	205	206	207	208	209	209	209	209	208	208	209	209	209	209	210	211	213	215	216	218	220	222	223	225	227	229	232	235	237	238	238	237	235	234	231	229	227	224	221	218	215	211	208	204	200	196	192	187	183	179	175	172	168	165	160	156	152	149	148	150	148	145	142	140	138	136	134	133	133	132	130	130	130	130	129	128	127	126	124	122	120	118	116	113	111	108	106	104	101	99	97	94	92	89	85	82	78	75	73	74	74	74	74	74	73	72	71	71	71	71	72	72	71	70	69	69	69	69	69	69	69	69	70	71	71	71	72	72	72	72	71	71	70	69	68	67	66	65	62	60	58	56	54	51	48	46	44	41	39	36	34	31	29	28	28	28	27	25	24	24	25	25	25	26	25	22	21	21	22	22	24	28	36	40	41	41	40	39	39	39	42	46	43	38	35	34	31	15	5	3	3	3	2	1	1	2	3	4	3	1	1	1	0	0	0	0	0	0	0	0	0	0	0	0	0	0	0	0	0	0	0	0	0	0	0	0	0	0	0	0	0	0	0	0	0	0	0	0	0	0	0	0	0	0	0	0	0	0	0	0	0	0	0	0	0	0	0	0	0	0	0	0	0	0	0	0	0	0	0	0	0	0	0	0	0	0	0	0	0	0	0	0	0	0	0	0	0	0	0	0	0	0	0	0	0	0	0	0	0	0	0	0	0	0	0	0	0	0	0	0	0	0	0	0	0	0	0	0	0	0	0	0	0	0	0	0	0	0	0	0	0	0	0	0	0	0	0	0	0	0	0	0	0	0	0	0	0	0	0	0	0	0	0	0	0	0	0	0	0	0	0	0	0	0	0	0	0	0	0	0	0	0	0	0	0	0	0	0	0	0	0	0	0	0	0	0	0	0	0	0	0	0	0	0	0	0	0	0	0	0	0	0	0	0	0	0	0	0	0	0	0	0	0	0	0	0	0	0	0	0	0	0	0	0	0	0	0	0	0	0	0	0	0	0	0	0	0	0	0	0	0	0	0	0	0	0	0	0	0	0	0	0	0	0	0	0	0	0	0	0	0	0	0	0	0	0	0	0	0	0	0	0	0	0	0	0	0	0	0	0	0	0	0	0	0	0	0	0	0	0	0	0	0	0
94	92	90	87	85	84	83	81	79	78	76	73	71	68	65	62	61	60	59	56	54	52	52	52	50	48	46	44	43	43	40	37	34	33	32	31	31	31	31	31	31	31	31	31	31	31	31	31	31	31	31	31	31	31	31	31	31	31	31	31	31	31	31	31	31	31	31	31	31	31	31	31	31	31	31	31	31	31	31	31	31	31	31	31	31	31	31	31	31	31	31	31	31	31	31	31	31	31	31	31	31	31	31	31	31	31	31	31	31	31	31	31	31	31	31	31	31	31	31	31	31	31	31	31	31	31	31	31	31	31	31	31	31	34	40	39	37	37	36	34	32	31	30	28	27	26	26	24	21	18	15	14	13	12	11	11	11	10	8	6	5	5	4	3	2	2	2	2	2	2	2	2	3	3	3	3	3	3	2	2	2	2	2	2	2	2	2	2	2	2	2	2	2	1	1	0	0	0	0	0	1	2	2	2	1	1	0	0	0	0	0	0	0	0	0	0	0	1	1	3	5	8	11	13	16	20	22	22	23	25	27	29	31	33	35	37	39	41	43	45	48	48	47	45	48	51	52	53	54	55	57	59	61	63	65	67	69	72	74	77	80	82	85	88	90	91	93	95	97	97	97	97	99	100	102	104	106	108	110	113	115	118	120	122	125	127	129	130	131	131	131	131	131	132	135	137	138	139	140	142	144	147	149	151	151	151	152	152	152	151	148	144	141	138	135	132	130	127	125	122	119	117	114	109	107	105	102	100	97	95	93	90	88	85	83	80	78	75	72	69	66	64	62	58	55	51	49	47	45	43	40	37	34	32	30	30	32	33	35	37	38	38	39	41	44	48	50	51	53	56	59	63	65	69	72	74	76	78	80	81	81	81	81	83	86	89	90	91	93	95	96	98	100	103	105	106	108	109	111	113	115	118	121	122	125	127	128	129	129	130	132	134	140	144	143	144	150	155	158	161	163	164	165	165	166	166	166	168	170	172	174	176	177	180	182	183	184	185	186	187	187	188	189	190	191	193	196	199	202	204	206	209	212	215	217	218	218	217	216	214	211	208	206	204	203	203	204	205	205	207	208	209	209	209	210	210	210	210	210	211	211	211	212	213	214	216	218	220	222	224	225	227	228	229	232	235	237	238	237	236	234	232	230	228	225	223	220	216	213	209	206	202	198	193	188	184	180	177	173	170	166	163	159	156	151	147	146	147	145	141	138	137	136	134	131	129	129	128	127	127	127	126	126	125	124	122	121	119	117	115	113	111	108	106	103	101	98	96	94	92	90	87	84	81	77	74	71	70	71	71	71	71	70	69	68	68	68	68	69	69	68	66	66	66	66	66	66	66	66	67	67	68	68	69	69	70	70	69	69	68	67	67	66	65	63	62	60	58	56	54	52	49	47	45	43	40	38	35	33	30	28	27	25	24	22	21	21	21	20	20	22	26	24	21	19	19	20	19	23	27	33	38	40	41	40	40	40	40	43	45	38	32	30	31	29	15	5	4	3	3	3	2	2	3	5	6	4	3	2	2	1	0	0	0	0	0	0	0	0	0	0	0	0	0	0	0	0	0	0	0	0	0	0	0	0	0	0	0	0	0	0	0	0	0	0	0	0	0	0	0	0	0	0	0	0	0	0	0	0	0	0	0	0	0	0	0	0	0	0	0	0	0	0	0	0	0	0	0	0	0	0	0	0	0	0	0	0	0	0	0	0	0	0	0	0	0	0	0	0	0	0	0	0	0	0	0	0	0	0	0	0	0	0	0	0	0	0	0	0	0	0	0	0	0	0	0	0	0	0	0	0	0	0	0	0	0	0	0	0	0	0	0	0	0	0	0	0	0	0	0	0	0	0	0	0	0	0	0	0	0	0	0	0	0	0	0	0	0	0	0	0	0	0	0	0	0	0	0	0	0	0	0	0	0	0	0	0	0	0	0	0	0	0	0	0	0	0	0	0	0	0	0	0	0	0	0	0	0	0	0	0	0	0	0	0	0	0	0	0	0	0	0	0	0	0	0	0	0	0	0	0	0	0	0	0	0	0	0	0	0	0	0	0	0	0	0	0	0	0	0	0	0	0	0	0	0	0	0	0	0	0	0	0	0	0	0	0	0	0	0	0	0	0	0	0	0	0	0	0	0	0	0	0	0	0	0	0	0	0	0	0	0	0	0	0	0	0	0	0	0	0	0
91	90	88	86	84	82	80	78	77	76	73	71	69	67	64	62	60	58	56	53	51	52	52	50	47	45	41	37	37	36	35	33	32	32	31	31	31	31	31	31	31	31	31	31	31	31	31	31	31	31	31	31	31	31	31	31	31	31	31	31	31	31	31	31	31	31	31	31	31	31	31	31	31	31	31	31	31	31	31	31	31	31	31	31	31	31	31	31	31	31	31	31	31	31	31	31	31	31	31	31	31	31	31	31	31	31	31	31	31	31	31	31	31	31	31	31	31	31	31	31	31	31	31	31	31	31	31	31	31	31	31	31	31	33	39	40	36	36	36	34	34	33	32	30	28	27	26	25	22	20	18	16	15	14	13	12	11	9	7	6	5	5	4	3	2	2	2	3	4	3	3	2	2	2	2	2	2	3	2	2	2	2	2	2	2	2	2	1	1	2	2	2	2	1	0	0	0	0	0	0	0	1	1	1	1	1	1	0	0	0	0	0	0	1	1	2	1	1	2	4	6	9	11	14	17	21	24	24	24	26	28	30	32	34	36	38	40	42	44	46	48	48	46	46	49	52	53	54	55	57	58	60	62	64	66	69	71	74	76	79	81	84	86	89	91	93	95	97	99	99	99	99	100	101	102	104	106	108	110	112	115	117	120	122	125	127	128	130	130	130	131	131	131	132	133	136	137	139	140	142	145	148	150	151	152	152	152	152	152	150	147	143	140	137	134	131	129	126	123	121	118	117	113	109	106	104	101	98	95	92	90	87	85	83	81	78	76	73	71	68	65	63	61	58	54	51	49	47	45	42	39	36	34	32	31	31	33	35	38	39	40	40	41	43	44	47	49	51	53	55	59	62	65	68	71	74	77	80	82	84	84	85	85	87	89	91	91	92	93	95	98	99	101	103	105	107	108	110	112	114	116	118	121	123	125	127	129	131	133	134	136	137	148	152	145	147	151	155	158	160	162	164	164	164	164	165	166	168	170	172	174	176	178	180	182	184	184	185	186	187	188	189	191	192	193	195	198	200	203	205	208	211	214	217	219	219	219	219	217	215	212	209	207	206	205	204	205	206	207	208	208	209	209	210	211	212	212	212	212	213	213	214	214	214	215	217	219	221	223	225	227	229	230	231	233	235	236	237	236	235	233	231	228	226	223	221	218	214	211	207	203	200	195	190	186	182	179	176	172	168	165	161	157	154	150	146	143	142	140	137	136	135	134	131	129	126	125	124	123	123	123	123	122	121	120	119	118	116	113	111	110	108	106	103	100	98	95	93	91	89	87	84	81	79	76	73	69	68	68	68	68	68	67	67	66	66	66	65	65	65	64	63	63	63	63	63	63	64	64	64	65	65	65	66	67	67	67	67	66	66	65	64	63	61	60	58	57	55	54	52	49	47	45	43	41	38	36	34	31	29	27	25	21	18	16	16	17	17	16	16	19	24	23	20	18	18	18	18	23	28	31	35	35	36	39	42	40	40	40	40	33	30	31	31	29	18	11	9	5	4	4	4	6	8	8	7	5	4	4	3	1	0	0	0	0	0	0	0	0	0	0	0	0	0	0	0	0	0	0	0	0	0	0	0	0	0	0	0	0	0	0	0	0	0	0	0	0	0	0	0	0	0	0	0	0	0	0	0	0	0	0	0	0	0	0	0	0	0	0	0	0	0	0	0	0	0	0	0	0	0	0	0	0	0	0	0	0	0	0	0	0	0	0	0	0	0	0	0	0	0	0	0	0	0	0	0	0	0	0	0	0	0	0	0	0	0	0	0	0	0	0	0	0	0	0	0	0	0	0	0	0	0	0	0	0	0	0	0	0	0	0	0	0	0	0	0	0	0	0	0	0	0	0	0	0	0	0	0	0	0	0	0	0	0	0	0	0	0	0	0	0	0	0	0	0	0	0	0	0	0	0	0	0	0	0	0	0	0	0	0	0	0	0	0	0	0	0	0	0	0	0	0	0	0	0	0	0	0	0	0	0	0	0	0	0	0	0	0	0	0	0	0	0	0	0	0	0	0	0	0	0	0	0	0	0	0	0	0	0	0	0	0	0	0	0	0	0	0	0	0	0	0	0	0	0	0	0	0	0	0	0	0	0	0	0	0	0	0	0	0	0	0	0	0	0	0	0	0	0	0	0	0	0	0	0	0	0	0	0	0	0	0	0	0	0	0	0	0	0	0	0	0
90	87	86	85	83	81	79	76	75	73	71	68	67	65	63	61	59	56	53	51	50	51	50	47	44	40	35	33	33	32	32	32	32	31	31	31	31	31	31	31	31	31	31	31	31	31	31	31	31	31	31	31	31	31	31	31	31	31	31	31	31	31	31	31	31	31	31	31	31	31	31	31	31	31	31	31	31	31	31	31	31	31	31	31	31	31	31	31	31	31	31	31	31	31	31	31	31	31	31	31	31	31	31	31	31	31	31	31	31	31	31	31	31	31	31	31	31	31	31	31	31	31	31	31	31	31	31	31	31	31	31	31	31	32	38	40	34	35	36	36	36	36	34	31	29	28	27	25	24	22	20	18	17	16	15	14	12	9	7	5	5	5	4	3	2	3	4	5	5	5	4	3	3	2	2	2	2	3	2	2	2	2	2	2	2	2	2	1	0	1	1	1	1	1	0	0	0	0	0	0	0	0	1	1	1	1	1	0	0	0	0	0	1	1	2	2	2	2	2	5	7	10	13	15	17	20	23	25	26	28	29	31	33	36	38	40	42	44	45	46	48	48	46	47	51	53	55	56	57	58	60	62	64	66	68	71	73	75	78	81	83	85	88	90	93	94	97	99	100	101	101	100	101	102	103	105	106	108	110	112	115	117	119	122	124	126	127	129	129	129	130	130	130	132	133	135	137	138	140	142	145	148	150	151	153	153	153	153	152	149	145	142	139	136	133	130	128	125	122	119	117	115	112	108	105	103	100	97	94	90	88	85	83	81	78	76	73	71	69	66	63	61	59	57	53	51	50	47	45	42	39	36	34	33	32	32	34	37	39	41	42	42	43	44	45	47	49	51	53	55	58	61	64	67	70	73	77	80	83	85	87	88	90	91	92	93	93	93	94	96	98	100	102	103	105	107	109	111	113	115	116	119	121	123	125	127	129	132	133	134	137	138	150	153	144	147	150	154	157	159	161	162	163	163	163	164	166	168	171	173	174	176	178	180	182	184	184	185	186	187	188	190	192	194	195	197	199	202	204	206	209	213	216	218	220	221	220	219	218	215	212	209	207	207	206	205	206	207	208	209	209	211	211	213	214	214	214	214	214	215	216	216	216	216	217	218	220	222	224	226	228	231	232	233	235	236	237	236	235	233	231	229	227	224	221	218	215	212	209	205	201	198	193	188	184	181	178	174	171	167	163	159	155	152	148	144	141	139	136	134	133	132	130	128	125	123	122	121	120	119	119	120	119	118	117	115	114	112	109	108	106	105	103	101	98	95	92	90	88	86	84	82	79	77	75	72	69	66	66	67	66	65	65	64	64	63	63	62	62	62	61	61	61	61	60	60	61	62	62	62	62	62	62	63	64	65	65	64	64	63	63	62	60	59	57	56	54	52	51	49	47	44	42	40	38	36	34	32	29	27	26	23	19	16	15	15	15	15	15	16	17	20	22	20	18	17	17	19	24	29	31	31	28	28	37	42	41	40	37	34	35	35	35	35	31	25	22	20	11	7	8	12	14	13	11	10	8	7	5	3	1	0	0	0	0	0	0	0	0	0	0	0	0	0	0	0	0	0	0	0	0	0	0	0	0	0	0	0	0	0	0	0	0	0	0	0	0	0	0	0	0	0	0	0	0	0	0	0	0	0	0	0	0	0	0	0	0	0	0	0	0	0	0	0	0	0	0	0	0	0	0	0	0	0	0	0	0	0	0	0	0	0	0	0	0	0	0	0	0	0	0	0	0	0	0	0	0	0	0	0	0	0	0	0	0	0	0	0	0	0	0	0	0	0	0	0	0	0	0	0	0	0	0	0	0	0	0	0	0	0	0	0	0	0	0	0	0	0	0	0	0	0	0	0	0	0	0	0	0	0	0	0	0	0	0	0	0	0	0	0	0	0	0	0	0	0	0	0	0	0	0	0	0	0	0	0	0	0	0	0	0	0	0	0	0	0	0	0	0	0	0	0	0	0	0	0	0	0	0	0	0	0	0	0	0	0	0	0	0	0	0	0	0	0	0	0	0	0	0	0	0	0	0	0	0	0	0	0	0	0	0	0	0	0	0	0	0	0	0	0	0	0	0	0	0	0	0	0	0	0	0	0	0	0	0	0	0	0	0	0	0	0	0	0	0	0	0	0	0	0	0	0	0	0	0	0	0	0	0	0	0	0	0	0	0	0	0	0	0	0	0	0
88	86	84	83	82	80	78	76	74	72	68	66	64	62	61	59	56	53	51	50	50	49	46	43	39	35	33	32	32	32	31	31	31	31	31	31	31	31	31	31	31	31	31	31	31	31	31	31	31	31	31	31	31	31	31	31	31	31	31	31	31	31	31	31	31	31	31	31	31	31	31	31	31	31	31	31	31	31	31	31	31	31	31	31	31	31	31	31	31	31	31	31	31	31	31	31	31	31	31	31	31	31	31	31	31	31	31	31	31	31	31	31	31	31	31	31	31	31	31	31	31	31	31	31	31	31	31	31	31	31	31	31	31	32	38	40	36	36	37	37	38	37	35	34	32	30	28	26	25	24	21	18	18	18	17	15	12	9	6	6	6	5	4	2	2	4	5	6	5	5	5	4	3	3	3	2	2	3	3	3	3	2	2	2	2	2	2	1	0	0	0	0	0	0	0	0	0	0	0	0	0	1	1	1	2	1	1	1	0	0	1	1	1	1	1	2	2	2	2	5	7	11	14	16	17	19	22	26	28	29	30	32	34	37	39	41	43	45	46	47	49	47	46	49	52	54	56	57	59	60	62	63	65	67	70	72	74	77	79	82	84	86	89	92	94	96	98	100	102	102	102	102	102	103	104	105	106	108	109	112	115	117	119	121	123	125	126	127	127	128	128	129	130	132	134	135	136	137	139	142	145	148	150	152	154	154	154	153	152	148	145	141	138	136	133	130	126	123	121	118	115	113	110	107	104	102	100	97	93	89	86	83	80	78	76	74	71	69	67	64	62	60	58	56	53	51	50	47	44	41	39	37	35	34	33	32	35	38	41	42	44	45	45	45	47	48	50	51	53	55	58	61	65	67	70	74	77	80	84	86	89	91	92	93	95	96	95	95	96	97	98	101	103	105	106	108	110	112	114	116	117	119	122	124	126	128	130	132	133	135	138	139	149	148	143	147	150	153	155	157	159	160	162	162	163	165	166	169	171	173	174	175	178	180	182	183	184	185	186	187	188	191	193	194	196	198	201	203	205	207	209	213	216	219	221	221	221	220	218	216	213	209	207	207	207	207	207	208	210	210	211	213	214	216	217	216	215	216	217	218	218	219	219	219	219	219	221	223	226	228	229	232	234	235	236	236	236	235	233	231	229	227	225	222	219	216	213	210	207	203	200	196	192	188	184	180	176	173	169	165	161	158	154	150	146	142	139	136	134	132	129	127	125	123	121	119	118	117	117	117	117	117	116	114	112	111	110	108	106	104	103	102	100	98	95	93	90	87	85	83	81	79	77	76	74	71	68	65	64	64	63	62	62	62	61	60	59	60	59	58	58	59	59	58	57	57	58	59	60	60	59	60	60	61	62	62	62	62	61	61	61	59	58	56	55	53	51	50	48	47	44	42	40	38	35	34	32	30	27	26	24	20	17	15	15	14	15	15	16	17	17	19	21	20	18	17	17	20	26	31	32	30	27	30	35	37	39	38	34	33	35	34	34	33	30	26	24	24	21	18	19	20	21	19	16	13	10	7	5	3	1	1	0	0	0	0	0	0	0	0	0	0	0	0	0	0	0	0	0	0	0	0	0	0	0	0	0	0	0	0	0	0	0	0	0	0	0	0	0	0	0	0	0	0	0	0	0	0	0	0	0	0	0	0	0	0	0	0	0	0	0	0	0	0	0	0	0	0	0	0	0	0	0	0	0	0	0	0	0	0	0	0	0	0	0	0	0	0	0	0	0	0	0	0	0	0	0	0	0	0	0	0	0	0	0	0	0	0	0	0	0	0	0	0	0	0	0	0	0	0	0	0	0	0	0	0	0	0	0	0	0	0	0	0	0	0	0	0	0	0	0	0	0	0	0	0	0	0	0	0	0	0	0	0	0	0	0	0	0	0	0	0	0	0	0	0	0	0	0	0	0	0	0	0	0	0	0	0	0	0	0	0	0	0	0	0	0	0	0	0	0	0	0	0	0	0	0	0	0	0	0	0	0	0	0	0	0	0	0	0	0	0	0	0	0	0	0	0	0	0	0	0	0	0	0	0	0	0	0	0	0	0	0	0	0	0	0	0	0	0	0	0	0	0	0	0	0	0	0	0	0	0	0	0	0	0	0	0	0	0	0	0	0	0	0	0	0	0	0	0	0	0	0	0	0	0	0	0	0	0	0	0	0	0	0	0	0	0	0	0	0	0
87	84	83	81	80	78	77	75	73	70	66	64	62	59	58	56	52	50	48	48	47	45	42	38	35	33	32	31	31	31	31	31	31	31	31	31	31	31	31	31	31	31	31	31	31	31	31	31	31	31	31	31	31	31	31	31	31	31	31	31	31	31	31	31	31	31	31	31	31	31	31	31	31	31	31	31	31	31	31	31	31	31	31	31	31	31	31	31	31	31	31	31	31	31	31	31	31	31	31	31	31	31	31	31	31	31	31	31	31	31	31	31	31	31	31	31	31	31	31	31	31	31	31	31	31	31	31	31	31	31	31	31	31	32	38	40	37	36	36	37	38	37	36	35	34	32	29	27	26	25	23	19	18	17	16	14	10	8	7	6	6	5	3	2	3	5	6	6	5	5	4	3	3	3	3	3	3	3	3	3	3	3	3	2	3	3	3	2	1	1	0	0	0	0	0	0	0	0	0	0	1	1	2	2	2	1	1	1	0	1	1	1	1	1	1	2	2	2	2	5	7	10	14	16	18	21	24	28	30	31	32	34	36	38	40	42	43	45	47	49	50	48	47	50	53	55	57	58	59	61	62	64	67	69	71	74	76	78	80	82	85	88	91	93	94	97	100	102	103	104	104	104	104	104	105	105	106	107	109	111	114	117	118	121	122	124	125	126	125	125	126	127	128	131	133	135	136	137	139	143	146	148	151	153	154	154	154	153	151	148	144	141	138	135	133	129	126	122	119	116	114	112	109	106	103	101	99	96	92	89	86	82	78	76	74	71	69	67	65	62	60	59	57	55	52	51	49	46	43	40	39	37	35	33	33	33	36	39	42	45	46	47	47	47	48	50	51	52	54	56	59	61	65	68	71	75	78	81	85	87	90	92	94	96	97	98	98	98	98	98	99	102	104	106	108	110	111	113	115	117	118	120	123	125	128	130	131	132	134	138	140	140	143	143	144	149	151	153	155	156	158	159	161	162	164	166	167	169	171	172	173	175	177	179	181	182	183	184	185	186	188	190	192	194	196	198	201	203	205	207	209	213	216	219	220	221	220	219	217	216	213	210	208	207	208	208	208	209	210	211	213	214	216	218	219	218	218	219	220	220	221	221	221	221	220	221	222	224	227	229	230	232	234	235	236	236	235	233	231	230	227	225	223	220	217	215	212	209	205	202	199	195	192	188	183	179	175	171	168	164	160	156	152	148	144	140	137	134	132	131	127	123	120	119	118	117	115	114	114	114	113	112	109	108	106	106	105	103	102	100	99	98	97	95	93	91	88	86	83	81	79	77	75	73	72	69	66	63	61	60	60	60	61	60	58	57	56	57	57	56	56	56	56	55	53	53	54	55	56	56	57	58	58	59	59	59	59	59	59	59	58	57	56	54	53	51	49	48	46	45	42	40	38	35	33	32	31	29	26	24	21	17	15	14	14	14	15	16	17	18	19	20	20	19	18	18	18	21	27	31	32	31	31	34	35	35	36	35	32	30	30	27	28	30	29	25	23	23	23	22	22	23	23	22	20	16	11	6	4	2	1	1	1	0	0	0	0	0	0	0	0	0	0	0	0	0	0	0	0	0	0	0	0	0	0	0	0	0	0	0	0	0	0	0	0	0	0	0	0	0	0	0	0	0	0	0	0	0	0	0	0	0	0	0	0	0	0	0	0	0	0	0	0	0	0	0	0	0	0	0	0	0	0	0	0	0	0	0	0	0	0	0	0	0	0	0	0	0	0	0	0	0	0	0	0	0	0	0	0	0	0	0	0	0	0	0	0	0	0	0	0	0	0	0	0	0	0	0	0	0	0	0	0	0	0	0	0	0	0	0	0	0	0	0	0	0	0	0	0	0	0	0	0	0	0	0	0	0	0	0	0	0	0	0	0	0	0	0	0	0	0	0	0	0	0	0	0	0	0	0	0	0	0	0	0	0	0	0	0	0	0	0	0	0	0	0	0	0	0	0	0	0	0	0	0	0	0	0	0	0	0	0	0	0	0	0	0	0	0	0	0	0	0	0	0	0	0	0	0	0	0	0	0	0	0	0	0	0	0	0	0	0	0	0	0	0	0	0	0	0	0	0	0	0	0	0	0	0	0	0	0	0	0	0	0	0	0	0	0	0	0	0	0	0	0	0	0	0	0	0	0	0	0	0	0	0	0	0	0	0	0	0	0	0	0	0	0	0	0	0	0	0
85	83	81	79	78	77	75	74	70	67	64	62	59	57	55	52	49	48	47	47	43	40	37	34	33	32	31	31	31	31	31	31	31	31	31	31	31	31	31	31	31	31	31	31	31	31	31	31	31	31	31	31	31	31	31	31	31	31	31	31	31	31	31	31	31	31	31	31	31	31	31	31	31	31	31	31	31	31	31	31	31	31	31	31	31	31	31	31	31	31	31	31	31	31	31	31	31	31	31	31	31	31	31	31	31	31	31	31	31	31	31	31	31	31	31	31	31	31	31	31	31	31	31	31	31	31	31	31	31	31	31	31	31	32	37	40	37	35	36	38	38	37	36	36	35	33	31	29	27	26	24	20	17	16	15	14	11	8	7	6	6	4	3	4	5	6	6	5	5	4	3	3	3	3	3	3	3	3	3	3	2	2	2	2	3	3	3	2	2	1	0	0	0	0	0	0	0	0	0	0	1	2	2	2	1	1	1	1	1	1	2	2	2	2	2	2	2	2	4	6	8	11	13	16	19	23	26	29	30	32	34	35	37	39	41	43	45	46	48	49	50	49	48	51	54	56	57	58	60	61	63	65	67	70	72	75	77	79	82	84	87	90	92	94	96	99	101	103	104	105	106	106	106	105	105	105	106	108	109	111	113	115	117	119	121	123	124	124	124	124	125	126	127	130	132	135	137	138	141	144	147	150	152	154	155	155	154	153	151	148	145	141	138	135	132	129	125	121	118	115	113	111	108	105	102	99	97	94	91	88	85	82	78	75	72	70	67	65	63	60	58	57	55	53	51	50	49	46	42	40	38	37	35	33	32	33	36	40	44	46	47	48	48	48	49	50	51	52	55	58	59	62	66	70	73	76	80	83	86	88	91	94	96	98	99	101	101	102	101	100	101	103	105	107	109	111	113	114	116	118	120	122	125	127	129	132	133	134	137	140	142	143	142	143	146	150	152	154	155	157	158	160	162	163	165	167	168	170	172	174	175	176	177	179	180	181	182	184	185	186	188	190	192	193	195	198	200	202	204	206	208	212	215	218	219	220	219	219	217	216	214	211	209	208	209	209	209	210	211	213	214	216	217	219	220	220	220	222	222	223	223	224	224	223	222	223	224	226	228	230	231	233	234	235	236	235	234	232	230	228	226	223	221	218	216	213	210	207	204	201	198	194	191	187	183	178	174	170	167	163	159	155	151	147	143	139	136	132	131	129	125	121	118	117	115	113	112	112	110	109	107	105	104	103	102	102	100	99	97	96	95	94	94	92	90	88	86	84	81	79	77	75	73	71	69	67	64	61	59	58	58	59	59	58	56	54	54	54	54	54	54	54	53	52	51	51	51	52	53	53	53	55	56	56	57	57	57	57	57	56	55	55	53	52	50	49	47	46	44	42	40	38	36	33	31	30	29	27	25	21	17	14	14	14	14	16	18	18	18	18	19	19	19	18	18	19	19	24	27	30	31	31	32	33	34	34	34	33	28	24	22	21	22	24	23	21	21	21	21	22	22	23	23	23	20	14	7	3	3	2	2	1	1	1	0	0	0	0	0	0	0	0	0	0	0	0	0	0	0	0	0	0	0	0	0	0	0	0	0	0	0	0	0	0	0	0	0	0	0	0	0	0	0	0	0	0	0	0	0	0	0	0	0	0	0	0	0	0	0	0	0	0	0	0	0	0	0	0	0	0	0	0	0	0	0	0	0	0	0	0	0	0	0	0	0	0	0	0	0	0	0	0	0	0	0	0	0	0	0	0	0	0	0	0	0	0	0	0	0	0	0	0	0	0	0	0	0	0	0	0	0	0	0	0	0	0	0	0	0	0	0	0	0	0	0	0	0	0	0	0	0	0	0	0	0	0	0	0	0	0	0	0	0	0	0	0	0	0	0	0	0	0	0	0	0	0	0	0	0	0	0	0	0	0	0	0	0	0	0	0	0	0	0	0	0	0	0	0	0	0	0	0	0	0	0	0	0	0	0	0	0	0	0	0	0	0	0	0	0	0	0	0	0	0	0	0	0	0	0	0	0	0	0	0	0	0	0	0	0	0	0	0	0	0	0	0	0	0	0	0	0	0	0	0	0	0	0	0	0	0	0	0	0	0	0	0	0	0	0	0	0	0	0	0	0	0	0	0	0	0	0	0	0	0	0	0	0	0	0	0	0	0	0	0	0	0	0	0	0	0	0	0
83	81	79	77	75	74	72	70	67	64	62	59	57	55	54	50	47	47	45	42	37	34	32	32	32	31	31	31	31	31	31	31	31	31	31	31	31	31	31	31	31	31	31	31	31	31	31	31	31	31	31	31	31	31	31	31	31	31	31	31	31	31	31	31	31	31	31	31	31	31	31	31	31	31	31	31	31	31	31	31	31	31	31	31	31	31	31	31	31	31	31	31	31	31	31	31	31	31	31	31	31	31	31	31	31	31	31	31	31	31	31	31	31	31	31	31	31	31	31	31	31	31	31	31	31	31	31	31	31	31	31	31	31	31	36	40	38	36	38	39	38	37	36	35	35	33	31	30	28	26	24	21	17	15	14	14	11	8	7	6	5	3	3	6	8	8	7	6	5	4	3	3	3	3	3	3	3	3	3	3	2	2	2	2	2	2	2	2	2	2	1	0	0	0	0	0	0	0	0	0	1	2	2	2	1	1	1	1	2	2	2	2	2	2	3	3	2	3	6	8	10	12	14	16	20	24	27	29	31	33	35	37	39	40	42	44	46	47	48	49	50	49	49	52	55	56	56	58	60	61	63	65	68	70	73	76	78	80	82	85	89	92	94	95	98	100	103	105	106	107	107	108	108	107	106	106	106	108	110	111	112	114	116	118	119	121	122	122	123	124	124	125	127	129	132	135	138	140	143	146	148	151	153	155	155	155	154	153	150	148	145	141	138	135	132	128	124	120	117	115	112	109	106	103	101	98	96	93	90	87	85	82	78	75	72	68	66	64	61	58	56	55	53	51	50	49	47	44	41	39	38	36	34	33	33	33	36	41	44	47	48	49	50	50	49	49	52	54	57	59	61	63	67	72	75	78	81	84	87	89	92	95	98	100	101	103	104	105	104	103	103	104	105	107	109	111	113	115	117	119	121	124	126	129	131	133	136	138	139	142	144	144	142	144	148	151	153	154	156	158	159	161	163	164	166	167	169	171	173	175	177	178	179	179	180	181	182	184	185	186	188	190	191	193	194	197	199	200	203	205	207	211	214	217	218	218	219	219	218	217	215	212	210	209	209	210	210	211	213	214	216	218	219	220	221	221	223	224	225	225	226	227	227	226	225	225	226	227	229	231	232	234	235	236	236	234	233	230	228	226	224	221	219	217	214	211	208	205	202	199	196	192	189	185	181	177	172	169	166	163	159	154	151	147	143	139	135	132	130	127	123	120	117	114	110	109	109	109	107	104	103	103	102	101	101	99	97	96	94	91	90	91	91	89	87	85	83	81	79	77	75	73	71	69	67	65	62	60	58	57	57	57	56	55	53	52	52	53	53	52	51	51	50	49	48	49	49	50	50	50	50	52	53	54	54	55	55	55	54	54	53	52	51	50	48	47	45	43	41	40	38	36	34	31	29	28	27	26	23	18	15	14	14	15	16	18	19	17	13	12	14	15	17	17	16	16	20	25	26	27	27	28	31	32	33	32	31	29	26	23	22	22	22	22	20	18	18	19	19	21	22	22	22	22	17	8	3	3	3	2	2	1	1	1	1	1	0	0	0	0	0	0	0	0	0	0	0	0	0	0	0	0	0	0	0	0	0	0	0	0	0	0	0	0	0	0	0	0	0	0	0	0	0	0	0	0	0	0	0	0	0	0	0	0	0	0	0	0	0	0	0	0	0	0	0	0	0	0	0	0	0	0	0	0	0	0	0	0	0	0	0	0	0	0	0	0	0	0	0	0	0	0	0	0	0	0	0	0	0	0	0	0	0	0	0	0	0	0	0	0	0	0	0	0	0	0	0	0	0	0	0	0	0	0	0	0	0	0	0	0	0	0	0	0	0	0	0	0	0	0	0	0	0	0	0	0	0	0	0	0	0	0	0	0	0	0	0	0	0	0	0	0	0	0	0	0	0	0	0	0	0	0	0	0	0	0	0	0	0	0	0	0	0	0	0	0	0	0	0	0	0	0	0	0	0	0	0	0	0	0	0	0	0	0	0	0	0	0	0	0	0	0	0	0	0	0	0	0	0	0	0	0	0	0	0	0	0	0	0	0	0	0	0	0	0	0	0	0	0	0	0	0	0	0	0	0	0	0	0	0	0	0	0	0	0	0	0	0	0	0	0	0	0	0	0	0	0	0	0	0	0	0	0	0	0	0	0	0	0	0	0	0	0	0	0	0	0	0	0	0	0	0
82	79	77	75	73	72	70	67	64	63	61	58	56	55	53	49	46	45	40	35	33	32	32	31	31	31	31	31	31	31	31	31	31	31	31	31	31	31	31	31	31	31	31	31	31	31	31	31	31	31	31	31	31	31	31	31	31	31	31	31	31	31	31	31	31	31	31	31	31	31	31	31	31	31	31	31	31	31	31	31	31	31	31	31	31	31	31	31	31	31	31	31	31	31	31	31	31	31	31	31	31	31	31	31	31	31	31	31	31	31	31	31	31	31	31	31	31	31	31	31	31	31	31	31	31	31	31	31	31	31	31	31	31	31	35	40	39	38	39	39	38	37	37	36	35	33	31	30	29	27	24	20	17	14	13	12	10	8	7	6	4	3	5	8	9	9	8	8	7	5	3	3	3	3	3	3	3	2	3	3	3	2	2	2	2	2	2	2	2	2	1	1	0	0	0	0	0	0	0	0	0	1	1	1	0	0	0	1	2	2	2	2	3	4	5	5	5	5	7	9	11	13	15	17	21	24	27	29	31	33	36	38	40	41	43	45	47	48	49	49	50	50	50	53	55	56	57	58	60	62	64	66	69	72	74	77	79	81	83	87	90	93	95	97	99	102	104	106	108	108	109	109	109	109	107	107	107	108	109	110	111	113	114	116	117	119	120	121	123	124	125	126	128	130	133	135	138	141	144	147	149	152	154	155	155	155	154	152	149	147	144	141	137	135	131	127	123	119	116	113	111	108	105	102	99	97	94	91	88	86	83	81	78	74	71	68	65	63	60	57	55	53	51	50	49	48	46	43	40	38	37	36	34	34	34	34	36	40	44	46	48	51	52	52	50	49	53	56	59	61	63	66	70	73	76	79	82	85	88	91	93	97	100	102	103	105	106	107	106	106	105	105	105	107	109	111	113	115	117	120	122	125	128	130	132	135	138	140	141	143	145	144	143	145	150	152	153	155	157	158	160	162	164	165	167	168	170	171	173	175	177	178	179	180	181	182	183	184	185	186	187	189	190	192	194	196	198	200	202	205	207	210	213	215	217	219	220	220	220	219	217	214	212	210	210	211	212	214	215	217	218	219	220	221	222	224	225	226	227	228	228	229	229	228	227	227	227	228	230	231	233	234	236	236	235	234	232	229	227	224	222	219	217	214	212	209	206	204	200	197	194	190	187	183	179	174	170	167	164	161	158	153	150	146	142	138	135	132	129	125	122	118	115	111	107	106	107	106	104	102	102	101	100	99	98	96	95	93	91	88	87	87	87	86	85	83	81	79	77	75	73	71	69	67	66	63	61	59	57	56	55	55	54	52	51	51	51	51	50	50	49	49	48	47	46	46	47	47	47	47	48	49	50	51	52	52	52	52	52	51	51	50	49	47	46	44	42	40	38	37	35	33	31	29	28	26	25	24	19	14	13	13	14	15	15	17	16	12	10	9	10	11	13	14	14	14	18	24	25	24	22	23	26	27	27	28	27	25	22	21	21	20	19	18	17	17	17	18	19	24	25	23	23	21	11	4	3	3	3	2	2	2	1	1	1	1	1	0	0	0	0	0	0	0	0	0	0	0	0	0	0	0	0	0	0	0	0	0	0	0	0	0	0	0	0	0	0	0	0	0	0	0	0	0	0	0	0	0	0	0	0	0	0	0	0	0	0	0	0	0	0	0	0	0	0	0	0	0	0	0	0	0	0	0	0	0	0	0	0	0	0	0	0	0	0	0	0	0	0	0	0	0	0	0	0	0	0	0	0	0	0	0	0	0	0	0	0	0	0	0	0	0	0	0	0	0	0	0	0	0	0	0	0	0	0	0	0	0	0	0	0	0	0	0	0	0	0	0	0	0	0	0	0	0	0	0	0	0	0	0	0	0	0	0	0	0	0	0	0	0	0	0	0	0	0	0	0	0	0	0	0	0	0	0	0	0	0	0	0	0	0	0	0	0	0	0	0	0	0	0	0	0	0	0	0	0	0	0	0	0	0	0	0	0	0	0	0	0	0	0	0	0	0	0	0	0	0	0	0	0	0	0	0	0	0	0	0	0	0	0	0	0	0	0	0	0	0	0	0	0	0	0	0	0	0	0	0	0	0	0	0	0	0	0	0	0	0	0	0	0	0	0	0	0	0	0	0	0	0	0	0	0	0	0	0	0	0	0	0	0	0	0	0	0	0	0	0	0	0	0	0	0
80	78	75	74	72	71	69	66	64	63	61	58	56	55	52	48	46	42	35	32	32	32	32	31	31	31	31	31	31	31	31	31	31	31	31	31	31	31	31	31	31	31	31	31	31	31	31	31	31	31	31	31	31	31	31	31	31	31	31	31	31	31	31	31	31	31	31	31	31	31	31	31	31	31	31	31	31	31	31	31	31	31	31	31	31	31	31	31	31	31	31	31	31	31	31	31	31	31	31	31	31	31	31	31	31	31	31	31	31	31	31	31	31	31	31	31	31	31	31	31	31	31	31	31	31	31	31	31	31	31	31	31	31	32	34	39	40	39	39	39	39	39	38	37	36	34	31	29	28	26	23	20	16	13	12	10	9	8	8	5	3	4	7	9	9	9	9	9	9	8	5	3	3	3	3	2	2	2	2	3	3	2	2	2	2	2	2	2	2	1	1	2	1	0	0	0	0	0	0	0	0	0	1	0	0	0	0	1	2	2	3	3	3	6	8	8	7	7	8	10	12	15	17	19	22	25	26	28	31	34	36	38	40	42	44	46	47	48	49	50	51	51	52	53	55	56	58	60	61	63	65	67	70	73	75	77	80	82	85	88	90	93	96	99	101	103	105	107	109	110	110	111	110	109	108	107	107	108	109	110	111	113	114	115	116	118	119	121	124	125	125	125	128	131	134	136	139	142	145	147	150	152	153	154	155	154	153	151	148	145	142	139	136	133	130	126	121	118	115	112	109	106	103	100	97	95	92	89	86	84	82	80	77	74	71	67	65	62	59	57	54	52	50	49	48	46	44	42	39	37	36	35	35	35	35	36	36	39	43	47	49	51	53	53	52	53	55	57	60	63	66	69	72	75	78	80	84	87	90	92	95	98	101	103	105	106	107	108	108	108	108	106	106	107	109	112	114	115	118	121	123	126	128	131	134	137	140	143	144	145	145	145	143	146	151	153	154	155	157	159	161	163	165	167	168	170	171	172	173	175	177	179	180	181	182	183	184	185	186	187	188	189	190	192	194	196	198	200	202	205	207	210	212	215	218	220	221	222	222	220	218	216	213	212	211	212	213	215	217	218	219	220	220	221	223	226	228	229	229	230	231	231	231	231	230	229	229	229	230	232	234	235	236	236	235	233	231	228	226	223	221	218	215	213	210	207	205	202	199	196	193	189	185	181	177	173	168	165	162	160	156	153	149	145	141	137	135	132	128	124	121	117	113	109	107	105	105	104	102	101	100	99	97	96	94	93	91	90	87	85	84	83	83	83	81	80	78	76	74	72	70	68	66	65	64	62	59	57	56	55	54	53	52	51	50	49	49	49	48	47	47	46	45	44	44	44	44	44	44	44	45	47	48	48	49	49	49	49	49	49	48	48	46	45	43	41	39	37	36	34	32	31	29	27	27	26	23	19	15	13	13	13	13	14	14	15	12	9	9	9	9	9	10	11	12	13	16	19	23	24	22	20	20	20	20	21	22	21	19	18	17	16	15	15	15	16	17	18	20	24	25	23	21	17	8	3	3	3	3	2	2	2	2	1	1	1	1	1	0	0	0	0	0	0	0	0	0	0	0	0	0	0	0	0	0	0	0	0	0	0	0	0	0	0	0	0	0	0	0	0	0	0	0	0	0	0	0	0	0	0	0	0	0	0	0	0	0	0	0	0	0	0	0	0	0	0	0	0	0	0	0	0	0	0	0	0	0	0	0	0	0	0	0	0	0	0	0	0	0	0	0	0	0	0	0	0	0	0	0	0	0	0	0	0	0	0	0	0	0	0	0	0	0	0	0	0	0	0	0	0	0	0	0	0	0	0	0	0	0	0	0	0	0	0	0	0	0	0	0	0	0	0	0	0	0	0	0	0	0	0	0	0	0	0	0	0	0	0	0	0	0	0	0	0	0	0	0	0	0	0	0	0	0	0	0	0	0	0	0	0	0	0	0	0	0	0	0	0	0	0	0	0	0	0	0	0	0	0	0	0	0	0	0	0	0	0	0	0	0	0	0	0	0	0	0	0	0	0	0	0	0	0	0	0	0	0	0	0	0	0	0	0	0	0	0	0	0	0	0	0	0	0	0	0	0	0	0	0	0	0	0	0	0	0	0	0	0	0	0	0	0	0	0	0	0	0	0	0	0	0	0	0	0	0	0	0	0	0	0	0	0	0	0	0	0	0	0	0	0	0	0	0
80	77	75	73	72	70	69	66	64	63	62	59	57	54	51	49	46	41	34	32	31	31	31	31	31	31	31	31	31	31	31	31	31	31	31	31	31	31	31	31	31	31	31	31	31	31	31	31	31	31	31	31	31	31	31	31	31	31	31	31	31	31	31	31	31	31	31	31	31	31	31	31	31	31	31	31	31	31	31	31	31	31	31	31	31	31	31	31	31	31	31	31	31	31	31	31	31	31	31	31	31	31	31	31	31	31	31	31	31	31	31	31	31	31	31	31	31	31	31	31	31	31	31	31	31	31	31	31	31	31	31	31	31	32	34	38	40	39	39	40	40	40	40	39	37	35	31	28	27	26	22	19	16	13	11	9	8	8	7	4	4	6	9	9	9	9	9	10	10	9	6	3	3	3	3	2	2	2	2	2	2	2	2	2	2	2	2	2	2	1	1	2	1	0	0	0	0	0	0	0	0	0	0	0	0	0	0	1	2	2	2	3	4	8	10	10	8	8	9	11	15	18	19	20	23	25	26	28	31	34	37	39	41	43	44	46	48	49	49	50	51	52	52	52	55	57	58	60	62	64	66	69	71	74	76	78	81	84	86	89	91	94	97	101	103	104	106	108	109	111	112	112	111	110	109	108	108	109	109	110	111	113	115	116	117	119	121	123	124	125	125	125	127	131	134	136	139	142	144	147	151	152	153	154	154	154	152	149	146	142	140	137	134	131	128	124	120	117	114	111	108	105	102	98	96	94	91	88	85	83	81	79	76	73	70	67	64	61	59	57	54	51	49	48	46	44	42	40	38	36	36	35	35	36	37	37	36	38	43	47	50	52	53	54	55	56	57	58	61	64	68	71	74	77	79	81	85	88	91	93	96	99	102	104	106	108	108	109	109	110	110	108	107	107	109	112	114	116	119	122	124	126	129	132	135	139	142	144	146	147	147	145	145	148	152	154	155	156	158	160	162	164	166	169	170	171	172	173	174	176	178	180	181	182	183	184	185	186	187	188	189	190	191	192	195	197	198	200	203	205	207	210	212	215	219	221	223	224	224	222	220	217	214	213	212	213	214	216	217	219	219	220	221	222	224	227	229	231	232	233	233	233	233	233	232	232	231	231	232	233	234	236	237	236	235	232	230	227	225	222	220	217	214	211	209	206	204	201	198	195	192	188	184	181	177	172	167	163	160	157	154	151	148	144	140	136	134	130	127	124	120	117	113	110	107	104	103	102	100	98	97	96	94	93	91	90	89	86	84	82	81	79	79	79	78	77	75	72	71	69	68	66	65	63	62	60	58	56	54	53	52	51	50	49	48	47	47	46	46	46	45	44	43	42	42	42	42	42	41	41	42	44	45	45	46	46	46	47	47	47	46	45	44	42	41	39	37	35	34	32	30	29	27	25	26	25	18	14	13	13	12	12	12	13	14	15	12	9	9	9	9	9	9	9	10	13	15	16	21	23	22	20	19	18	18	17	17	16	15	15	15	14	14	13	14	15	16	17	18	20	22	21	18	11	5	4	4	3	3	3	3	3	2	2	1	1	1	1	1	0	0	0	0	0	0	0	0	0	0	0	0	0	0	0	0	0	0	0	0	0	0	0	0	0	0	0	0	0	0	0	0	0	0	0	0	0	0	0	0	0	0	0	0	0	0	0	0	0	0	0	0	0	0	0	0	0	0	0	0	0	0	0	0	0	0	0	0	0	0	0	0	0	0	0	0	0	0	0	0	0	0	0	0	0	0	0	0	0	0	0	0	0	0	0	0	0	0	0	0	0	0	0	0	0	0	0	0	0	0	0	0	0	0	0	0	0	0	0	0	0	0	0	0	0	0	0	0	0	0	0	0	0	0	0	0	0	0	0	0	0	0	0	0	0	0	0	0	0	0	0	0	0	0	0	0	0	0	0	0	0	0	0	0	0	0	0	0	0	0	0	0	0	0	0	0	0	0	0	0	0	0	0	0	0	0	0	0	0	0	0	0	0	0	0	0	0	0	0	0	0	0	0	0	0	0	0	0	0	0	0	0	0	0	0	0	0	0	0	0	0	0	0	0	0	0	0	0	0	0	0	0	0	0	0	0	0	0	0	0	0	0	0	0	0	0	0	0	0	0	0	0	0	0	0	0	0	0	0	0	0	0	0	0	0	0	0	0	0	0	0	0	0	0	0	0	0	0	0	0	0	0	0
80	77	75	73	71	69	67	65	64	64	62	59	57	54	51	49	47	43	37	33	31	31	31	31	31	31	31	31	31	31	31	31	31	31	31	31	31	31	31	31	31	31	31	31	31	31	31	31	31	31	31	31	31	31	31	31	31	31	31	31	31	31	31	31	31	31	31	31	31	31	31	31	31	31	31	31	31	31	31	31	31	31	31	31	31	31	31	31	31	31	31	31	31	31	31	31	31	31	31	31	31	31	31	31	31	31	31	31	31	31	31	31	31	31	31	31	31	31	31	31	31	31	31	31	31	31	31	31	31	31	31	31	32	33	35	39	40	40	40	41	42	42	41	39	37	35	31	28	27	25	21	18	15	13	11	9	7	7	5	4	6	9	10	10	9	9	9	10	9	8	5	3	3	3	3	3	3	2	2	2	2	2	2	2	2	2	2	2	2	1	1	1	1	0	0	0	0	0	0	0	0	0	0	0	0	0	0	1	2	2	2	3	6	10	11	11	10	10	11	14	18	21	21	22	23	25	26	28	32	35	38	40	42	43	44	46	48	48	48	49	51	52	51	52	54	57	58	60	62	65	67	70	72	74	77	80	83	86	88	90	92	95	99	102	104	105	107	109	111	112	113	113	112	111	109	109	109	110	111	112	112	114	116	118	119	121	123	125	126	126	126	126	128	131	135	137	139	141	144	148	151	152	153	153	154	153	151	148	144	140	138	135	132	130	126	123	119	116	113	110	107	104	101	97	95	93	91	88	85	83	80	78	75	72	69	66	63	61	58	56	53	50	48	47	45	42	40	39	38	36	36	36	37	38	38	38	37	38	43	48	50	53	54	54	56	57	58	59	61	65	69	73	75	77	79	82	86	89	91	93	96	99	102	104	106	108	109	109	110	111	111	110	109	107	108	111	114	117	120	123	125	127	129	132	136	139	142	145	147	148	148	145	145	150	153	155	156	157	159	161	163	165	168	170	172	173	173	174	175	176	178	180	182	183	184	185	186	187	188	189	190	191	192	193	195	197	200	202	204	206	208	210	213	216	219	222	224	225	225	224	221	218	215	214	213	214	215	216	217	219	220	221	222	224	226	228	231	233	234	235	236	236	235	235	235	234	234	234	234	235	235	237	237	237	235	232	230	227	224	222	219	216	213	211	208	205	202	199	197	194	190	187	183	179	175	171	166	161	158	155	152	149	146	142	139	136	132	127	125	123	120	116	113	109	107	104	101	99	98	96	95	93	91	90	89	88	86	84	82	80	78	77	77	76	75	74	72	70	69	67	66	65	63	61	59	57	56	54	52	50	49	49	48	47	46	45	45	45	44	43	42	41	41	41	40	40	40	40	39	39	40	41	42	43	43	44	44	44	45	44	44	43	42	40	38	36	35	33	31	30	29	27	26	24	22	17	13	12	13	13	12	11	11	13	15	15	13	10	9	8	9	9	9	9	10	13	15	17	19	20	19	18	18	18	17	16	15	15	15	15	15	14	13	13	13	14	15	17	18	20	21	18	13	8	6	5	5	4	3	3	3	3	3	2	2	2	2	2	1	1	1	0	0	0	0	0	0	0	0	0	0	0	0	0	0	0	0	0	0	0	0	0	0	0	0	0	0	0	0	0	0	0	0	0	0	0	0	0	0	0	0	0	0	0	0	0	0	0	0	0	0	0	0	0	0	0	0	0	0	0	0	0	0	0	0	0	0	0	0	0	0	0	0	0	0	0	0	0	0	0	0	0	0	0	0	0	0	0	0	0	0	0	0	0	0	0	0	0	0	0	0	0	0	0	0	0	0	0	0	0	0	0	0	0	0	0	0	0	0	0	0	0	0	0	0	0	0	0	0	0	0	0	0	0	0	0	0	0	0	0	0	0	0	0	0	0	0	0	0	0	0	0	0	0	0	0	0	0	0	0	0	0	0	0	0	0	0	0	0	0	0	0	0	0	0	0	0	0	0	0	0	0	0	0	0	0	0	0	0	0	0	0	0	0	0	0	0	0	0	0	0	0	0	0	0	0	0	0	0	0	0	0	0	0	0	0	0	0	0	0	0	0	0	0	0	0	0	0	0	0	0	0	0	0	0	0	0	0	0	0	0	0	0	0	0	0	0	0	0	0	0	0	0	0	0	0	0	0	0	0	0	0	0	0	0	0	0	0	0	0	0	0	0	0	0	0	0	0	0	0	0	0
80	77	75	73	70	68	66	64	64	64	61	58	56	53	51	50	48	45	40	34	32	31	31	31	31	31	31	31	31	31	31	31	31	31	31	31	31	31	31	31	31	31	31	31	31	31	31	31	31	31	31	31	31	31	31	31	31	31	31	31	31	31	31	31	31	31	31	31	31	31	31	31	31	31	31	31	31	31	31	31	31	31	31	31	31	31	31	31	31	31	31	31	31	31	31	31	31	31	31	31	31	31	31	31	31	31	31	31	31	31	31	31	31	31	31	31	31	31	31	31	31	31	31	31	31	31	31	31	31	32	32	32	33	35	38	41	41	40	41	43	43	42	41	39	37	34	31	29	27	24	21	18	15	13	11	10	8	6	5	6	9	10	10	10	10	10	10	10	9	8	5	3	2	2	3	3	3	3	2	2	2	2	2	2	2	2	2	2	2	1	1	0	0	0	0	0	0	0	0	0	0	0	0	0	0	0	0	1	2	2	2	4	9	11	11	11	12	12	13	17	22	24	24	24	25	26	28	30	33	35	38	40	42	43	44	46	47	47	47	48	50	52	51	52	54	56	58	60	63	66	68	71	73	76	78	82	84	87	89	92	94	97	101	104	106	107	108	110	112	113	114	113	113	111	110	110	110	111	112	113	114	116	118	120	121	123	125	126	127	128	127	127	129	132	135	137	139	141	144	148	150	152	152	152	152	151	149	146	142	139	136	133	130	128	125	122	118	115	112	109	106	103	100	96	94	92	90	88	86	83	80	77	75	72	69	66	64	61	59	56	53	50	49	47	44	42	40	39	38	37	37	37	38	39	40	40	39	40	43	47	50	52	53	54	56	59	60	62	64	67	71	74	76	78	80	82	85	88	91	93	96	99	102	104	106	107	108	109	110	111	111	111	111	109	109	112	114	117	121	124	126	128	130	133	136	139	142	145	147	149	148	145	146	151	154	155	156	158	160	162	164	166	169	171	173	174	174	175	176	178	179	181	182	184	185	186	188	189	190	191	192	193	194	195	197	199	201	204	206	207	209	212	215	218	221	224	225	226	226	225	222	219	216	215	214	214	215	216	217	219	220	222	224	226	228	230	232	234	236	237	238	238	238	238	238	237	236	236	236	236	237	238	238	237	235	233	230	228	225	222	219	216	213	210	208	205	202	199	196	193	189	186	182	178	174	170	165	160	156	154	151	147	144	141	137	134	130	125	123	121	118	115	112	109	106	102	99	96	95	94	93	91	89	88	87	86	84	82	81	79	76	75	74	73	73	72	70	69	67	65	64	63	61	58	56	55	53	52	50	48	47	47	46	46	45	44	43	43	42	41	40	39	39	39	38	38	38	37	37	38	39	39	40	41	42	42	42	42	42	42	42	41	39	38	36	34	33	31	29	28	27	26	25	23	18	13	12	13	13	12	11	11	11	12	14	14	14	12	9	8	8	9	9	9	10	12	14	16	15	15	15	16	17	16	16	15	15	15	15	14	13	13	13	12	13	13	14	17	19	20	19	14	9	8	6	5	5	5	4	3	3	3	2	2	2	2	2	2	2	1	1	0	0	0	0	0	0	0	0	0	0	0	0	0	0	0	0	0	0	0	0	0	1	1	1	1	1	1	1	1	1	1	0	0	0	0	0	0	0	0	0	0	0	0	0	0	0	0	0	0	0	0	0	0	0	0	0	0	0	0	0	0	0	0	0	0	0	0	0	0	0	0	0	0	0	0	0	0	0	0	0	0	0	0	0	0	0	0	0	0	0	0	0	0	0	0	0	0	0	0	0	0	0	0	0	0	0	0	0	0	0	0	0	0	0	0	0	0	0	0	0	0	0	0	0	0	0	0	0	0	0	0	0	0	0	0	0	0	0	0	0	0	0	0	0	0	0	0	0	0	0	0	0	0	0	0	0	0	0	0	0	0	0	0	0	0	0	0	0	0	0	0	0	0	0	0	0	0	0	0	0	0	0	0	0	0	0	0	0	0	0	0	0	0	0	0	0	0	0	0	0	0	0	0	0	0	0	0	0	0	0	0	0	0	0	0	0	0	0	0	0	0	0	0	0	0	0	0	0	0	0	0	0	0	0	0	0	0	0	0	0	0	0	0	0	0	0	0	0	0	0	0	0	0	0	0	0	0	0	0	0	0	0	0	0	0	0	0	0	0	0	0	0	0	0	0	0	0	0	0	0	0
79	77	75	73	71	68	64	63	63	63	60	57	55	52	50	48	47	45	41	36	33	32	31	31	31	31	31	31	31	31	31	31	31	31	31	31	31	31	31	31	31	31	31	31	31	31	31	31	31	31	31	31	31	31	31	31	31	31	31	31	31	31	31	31	31	31	31	31	31	31	31	31	31	31	31	31	31	31	31	31	31	31	31	31	31	31	31	31	31	31	31	31	31	31	31	31	31	31	31	31	31	31	31	31	31	31	31	31	31	31	31	31	31	31	31	31	31	31	31	31	31	31	31	31	31	31	31	31	31	32	33	34	36	39	42	43	42	40	42	43	43	43	42	39	36	33	30	28	26	24	21	18	15	12	12	11	8	5	5	8	9	9	10	10	10	10	11	11	10	9	7	5	3	2	2	2	3	3	2	2	2	2	2	2	2	2	2	2	2	2	0	0	0	0	0	0	0	0	0	0	0	0	0	0	0	0	0	1	2	2	3	7	10	11	12	12	13	14	16	21	26	28	27	26	27	29	30	32	34	36	38	41	42	42	44	45	46	46	46	47	49	51	51	51	54	56	58	60	63	66	69	71	74	77	80	83	85	88	91	94	96	99	103	105	107	108	110	112	113	114	114	114	113	111	110	110	111	111	113	114	115	117	119	121	122	125	126	128	128	129	128	128	129	131	134	137	139	141	144	147	150	151	151	151	151	149	147	145	141	138	135	132	129	127	124	121	117	113	110	108	106	103	99	95	93	91	89	87	85	83	80	77	75	73	70	68	65	62	59	56	53	50	49	47	44	41	40	39	39	38	38	39	40	41	42	43	42	42	43	47	49	51	52	54	57	60	63	65	68	71	74	76	78	80	81	83	85	88	90	93	95	98	101	103	105	107	108	109	110	112	113	114	114	114	115	117	119	119	122	125	127	129	131	133	135	138	141	144	146	148	148	146	147	153	156	156	157	159	161	163	165	168	170	172	173	174	175	176	178	179	181	182	183	185	186	187	189	190	191	192	194	195	197	198	199	201	203	206	207	209	211	215	218	221	224	226	227	228	227	224	222	219	217	216	215	215	215	216	217	219	221	222	225	227	230	231	233	235	237	239	240	240	240	240	240	239	238	237	238	238	239	239	239	237	235	233	231	228	226	223	220	217	214	211	208	205	202	199	196	192	189	185	181	177	173	168	163	159	156	153	150	146	143	140	136	132	128	124	122	120	117	114	111	108	105	101	97	94	93	92	90	88	86	85	83	82	81	80	79	78	75	74	73	71	70	70	69	67	65	63	62	60	58	56	54	52	51	50	48	46	46	46	45	44	44	43	42	41	40	38	38	38	37	36	35	36	36	35	36	37	37	37	38	39	40	40	40	40	40	40	39	38	37	36	34	32	30	29	28	26	25	24	24	20	14	12	12	12	12	11	11	11	10	11	13	13	12	11	8	8	10	12	11	10	11	11	11	12	13	14	14	15	15	15	14	14	14	14	14	13	12	12	13	13	13	13	15	17	19	18	15	9	8	7	6	5	5	5	4	4	3	3	2	3	3	2	2	2	2	1	1	1	0	0	0	0	0	0	0	0	0	0	0	0	0	0	0	0	0	0	0	1	2	3	3	2	2	2	2	2	2	2	1	1	0	0	0	0	0	0	0	0	0	0	0	0	0	0	0	0	0	0	0	0	0	0	0	0	0	0	0	0	0	0	0	0	0	0	0	0	0	0	0	0	0	0	0	0	0	0	0	0	0	0	0	0	0	0	0	0	0	0	0	0	0	0	0	0	0	0	0	0	0	0	0	0	0	0	0	0	0	0	0	0	0	0	0	0	0	0	0	0	0	0	0	0	0	0	0	0	0	0	0	0	0	0	0	0	0	0	0	0	0	0	0	0	0	0	0	0	0	0	0	0	0	0	0	0	0	0	0	0	0	0	0	0	0	0	0	0	0	0	0	0	0	0	0	0	0	0	0	0	0	0	0	0	0	0	0	0	0	0	0	0	0	0	0	0	0	0	0	0	0	0	0	0	0	0	0	0	0	0	0	0	0	0	0	0	0	0	0	0	0	0	0	0	0	0	0	0	0	0	0	0	0	0	0	0	0	0	0	0	0	0	0	0	0	0	0	0	0	0	0	0	0	0	0	0	0	0	0	0	0	0	0	0	0	0	0	0	0	0	0	0	0	0	0	0	0	0	0	0
78	76	73	72	70	67	64	62	62	61	59	55	52	50	49	47	46	42	37	34	33	32	31	31	31	31	31	31	31	31	31	31	31	31	31	31	31	31	31	31	31	31	31	31	31	31	31	31	31	31	31	31	31	31	31	31	31	31	31	31	31	31	31	31	31	31	31	31	31	31	31	31	31	31	31	31	31	31	31	31	31	31	31	31	31	31	31	31	31	31	31	31	31	31	31	31	31	31	31	31	31	31	31	31	31	31	31	31	31	31	31	31	31	31	31	31	31	31	31	31	31	31	31	31	31	31	31	31	32	34	36	38	41	43	44	45	43	41	42	43	43	42	41	39	36	33	30	27	26	24	21	18	15	13	13	12	7	4	6	8	9	9	10	10	10	10	10	11	11	10	9	7	5	3	2	2	2	2	2	2	2	2	2	2	2	2	2	2	2	2	0	0	0	0	0	0	0	0	0	0	0	0	0	0	0	0	0	2	3	3	6	10	12	12	14	15	15	16	19	24	28	28	27	26	28	30	32	34	36	37	39	41	42	42	43	44	44	45	46	47	48	50	51	51	54	56	58	61	64	66	69	72	75	78	81	83	86	89	93	96	98	101	103	105	107	109	111	113	115	115	115	115	113	112	111	111	111	112	113	115	116	118	120	122	124	126	128	130	130	129	129	128	129	131	133	136	139	141	144	147	150	151	151	150	149	147	145	142	140	137	133	130	127	125	122	118	115	112	110	108	105	102	98	95	92	90	87	85	83	81	79	77	75	73	70	68	65	62	59	57	53	50	48	46	43	41	40	39	40	40	40	41	42	43	44	44	44	43	44	46	49	50	52	55	58	61	64	67	70	73	76	79	81	82	83	84	86	88	90	92	95	98	100	102	104	106	107	109	110	113	115	117	117	118	120	121	122	122	123	125	128	129	131	133	135	138	141	144	146	149	149	147	149	154	157	157	158	160	162	163	166	169	171	172	173	174	175	177	178	180	182	183	185	186	187	188	190	191	192	194	195	197	199	200	201	203	205	207	208	210	213	217	220	223	225	227	228	228	226	224	221	219	218	217	216	216	216	217	218	220	221	222	225	228	231	232	234	236	238	240	241	242	243	242	242	241	240	239	240	240	240	240	239	237	235	233	231	229	226	223	220	217	214	211	208	205	202	198	195	191	188	184	180	176	172	167	162	159	155	152	149	145	142	138	134	130	126	123	120	117	114	112	110	107	104	100	96	93	91	89	87	85	84	83	81	80	79	78	77	75	74	73	71	69	68	67	66	64	62	61	60	58	55	54	52	51	49	48	46	44	44	44	43	43	43	42	41	39	38	37	36	36	36	34	33	33	34	34	35	35	35	35	36	36	37	37	38	38	38	38	37	36	35	33	32	30	29	28	26	23	21	21	20	15	11	11	12	12	11	10	10	11	10	10	11	10	9	8	7	8	13	16	14	11	11	11	11	11	12	14	14	14	14	14	14	14	13	13	13	13	12	12	14	15	14	14	16	16	16	14	9	6	7	6	5	4	4	4	4	4	4	3	3	3	3	3	2	2	2	1	1	1	1	0	0	0	0	0	0	0	0	0	0	0	0	0	0	0	0	0	1	3	4	4	5	4	4	4	4	4	3	3	3	3	2	1	0	0	0	0	0	0	0	0	0	0	0	0	0	0	0	0	0	0	0	0	0	0	0	0	0	0	0	0	0	0	0	0	0	0	0	0	0	0	0	0	0	0	0	0	0	0	0	0	0	0	0	0	0	0	0	0	0	0	0	0	0	0	0	0	0	0	0	0	0	0	0	0	0	0	0	0	0	0	0	0	0	0	0	0	0	0	0	0	0	0	0	0	0	0	0	0	0	0	0	0	0	0	0	0	0	0	0	0	0	0	0	0	0	0	0	0	0	0	0	0	0	0	0	0	0	0	0	0	0	0	0	0	0	0	0	0	0	0	0	0	0	0	0	0	0	0	0	0	0	0	0	0	0	0	0	0	0	0	0	0	0	0	0	0	0	0	0	0	0	0	0	0	0	0	0	0	0	0	0	0	0	0	0	0	0	0	0	0	0	0	0	0	0	0	0	0	0	0	0	0	0	0	0	0	0	0	0	0	0	0	0	0	0	0	0	0	0	0	0	0	0	0	0	0	0	0	0	0	0	0	0	0	0	0	0	0	0	0	0	0	0	0	0	0	0	0
77	74	72	70	68	65	62	61	60	59	55	51	48	48	47	45	41	36	34	33	32	32	31	31	31	31	31	31	31	31	31	31	31	31	31	31	31	31	31	31	31	31	31	31	31	31	31	31	31	31	31	31	31	31	31	31	31	31	31	31	31	31	31	31	31	31	31	31	31	31	31	31	31	31	31	31	31	31	31	31	31	31	31	31	31	31	31	31	31	31	31	31	31	31	31	31	31	31	31	31	31	31	31	31	31	31	31	31	31	31	31	31	31	31	31	31	31	31	31	31	31	31	31	31	31	31	31	32	35	38	40	43	44	45	46	47	44	42	42	42	42	41	39	37	35	32	30	27	26	24	21	18	15	13	12	10	5	5	7	8	8	9	10	10	10	10	10	10	10	10	10	9	7	6	4	2	2	2	3	3	3	2	2	2	2	2	2	2	2	2	1	0	0	0	0	0	0	0	0	0	0	0	0	0	0	0	1	3	4	6	9	11	13	14	16	16	16	17	19	24	27	28	26	26	29	31	33	35	36	38	39	41	43	43	42	42	42	44	46	47	48	49	51	52	54	56	59	62	64	67	69	72	75	78	81	83	86	90	93	96	99	101	104	106	108	110	112	114	115	116	116	116	114	112	112	111	112	113	114	116	117	119	121	124	126	128	130	131	131	130	130	129	129	131	133	135	138	140	143	147	149	150	150	149	148	145	143	140	137	135	132	128	126	123	120	116	114	112	110	107	104	101	98	94	92	89	86	83	81	80	78	76	74	72	70	67	64	61	59	56	53	50	48	46	42	40	39	40	40	41	42	43	44	45	45	46	45	44	44	46	48	50	53	56	59	63	66	69	72	75	78	80	82	84	86	87	88	89	91	93	95	98	100	103	104	105	107	108	110	113	115	117	119	121	123	124	125	125	126	127	128	130	131	133	135	138	140	143	146	149	147	147	152	156	157	158	159	161	163	165	167	170	171	172	173	174	176	177	179	181	183	184	185	186	188	188	189	191	193	195	196	198	200	201	202	203	205	207	209	212	215	218	221	224	226	228	229	228	226	224	222	219	217	216	216	216	217	217	219	221	222	222	225	229	232	233	234	236	238	240	242	243	244	244	243	242	241	241	241	241	240	240	238	237	235	233	231	228	226	223	220	217	214	211	208	204	201	197	194	191	187	184	180	176	171	166	162	158	155	151	148	144	140	136	132	128	124	121	118	114	111	110	108	105	102	99	96	93	90	87	85	83	82	81	79	78	77	75	74	72	70	69	68	67	66	65	63	61	59	59	58	56	54	53	51	50	49	47	45	43	42	42	41	41	42	41	39	38	37	36	36	35	34	33	32	32	33	33	33	34	34	33	33	34	34	35	36	36	36	35	35	34	32	31	30	29	28	27	24	20	18	17	14	12	11	12	11	10	9	9	10	10	9	9	9	8	7	7	7	9	14	17	14	11	11	11	11	11	12	13	14	14	14	14	14	13	13	12	12	12	12	13	14	15	15	16	14	11	9	7	5	6	6	6	5	5	4	4	4	5	4	4	3	3	3	3	2	2	2	1	1	1	1	1	0	0	0	0	0	0	0	0	0	0	0	0	0	0	0	1	3	4	5	6	7	7	8	8	8	7	6	6	5	5	4	3	1	0	0	0	0	0	0	0	0	0	0	0	0	0	0	0	0	0	0	0	0	0	0	0	0	0	0	0	0	0	0	0	0	0	0	0	0	0	0	0	0	0	0	0	0	0	0	0	0	0	0	0	0	0	0	0	0	0	0	0	0	0	0	0	0	0	0	0	0	0	0	0	0	0	0	0	0	0	0	0	0	0	0	0	0	0	0	0	0	0	0	0	0	0	0	0	0	0	0	0	0	0	0	0	0	0	0	0	0	0	0	0	0	0	0	0	0	0	0	0	0	0	0	0	0	0	0	0	0	0	0	0	0	0	0	0	0	0	0	0	0	0	0	0	0	0	0	0	0	0	0	0	0	0	0	0	0	0	0	0	0	0	0	0	0	0	0	0	0	0	0	0	0	0	0	0	0	0	0	0	0	0	0	0	0	0	0	0	0	0	0	0	0	0	0	0	0	0	0	0	0	0	0	0	0	0	0	0	0	0	0	0	0	0	0	0	0	0	0	0	0	0	0	0	0	0	0	0	0	0	0	0	0	0	0	0	0	0	0	0	0	0	0	0	0	0
76	73	70	68	66	63	61	60	58	56	52	48	46	47	44	40	35	32	32	32	32	31	31	31	31	31	31	31	31	31	31	31	31	31	31	31	31	31	31	31	31	31	31	31	31	31	31	31	31	31	31	31	31	31	31	31	31	31	31	31	31	31	31	31	31	31	31	31	31	31	31	31	31	31	31	31	31	31	31	31	31	31	31	31	31	31	31	31	31	31	31	31	31	31	31	31	31	31	31	31	31	31	31	31	31	31	31	31	31	31	31	31	31	31	31	31	31	31	31	31	31	32	32	32	32	31	32	33	37	41	43	45	47	47	48	48	46	43	44	44	42	40	38	36	34	32	30	28	26	24	20	18	15	12	10	6	5	7	8	8	9	11	12	12	11	10	10	10	10	9	9	8	8	7	5	3	2	2	3	3	3	3	2	2	2	2	2	2	2	2	1	1	0	0	0	0	0	0	0	0	0	0	0	0	0	0	2	4	6	8	11	13	14	15	17	18	17	18	19	22	26	26	25	26	30	32	33	35	37	38	39	41	42	41	41	41	40	41	44	45	46	49	51	52	53	56	59	62	64	66	69	72	75	78	82	84	86	90	93	96	99	102	104	106	108	110	112	114	116	116	116	116	114	113	113	113	113	115	116	118	120	121	122	124	127	129	131	132	131	131	130	130	130	131	133	135	138	140	143	147	149	150	150	149	147	144	141	138	135	133	130	127	124	120	117	114	113	112	110	107	103	100	97	94	91	89	85	83	80	78	76	75	73	71	69	66	63	60	58	55	52	50	47	45	42	40	39	40	41	42	44	46	46	47	47	48	48	47	46	47	49	51	54	57	61	64	68	71	73	76	79	82	84	86	88	90	91	92	94	96	97	99	101	103	105	106	107	108	109	111	114	117	120	122	124	125	127	128	129	130	130	131	132	133	135	138	140	143	146	146	144	146	153	156	157	159	160	162	164	165	167	170	171	172	173	174	176	178	180	182	184	185	186	186	187	187	188	189	192	195	196	198	200	201	201	202	205	207	209	212	216	219	222	225	227	229	229	229	227	224	222	220	217	215	215	216	217	219	220	222	223	223	226	230	232	232	234	236	238	240	242	244	245	246	245	244	243	243	242	241	240	239	238	236	234	232	230	228	225	223	220	217	213	210	207	204	200	197	193	190	186	183	179	175	171	166	162	158	154	151	147	143	138	135	131	127	124	119	116	112	110	108	106	103	100	97	95	92	89	86	83	81	80	79	78	76	74	72	70	68	67	66	66	66	65	63	61	59	57	57	56	55	53	52	50	49	48	46	44	42	40	39	39	40	40	39	38	38	37	36	35	33	32	31	31	31	31	31	31	32	32	32	32	32	32	33	34	34	34	33	32	31	30	30	28	27	27	25	22	18	17	15	12	11	11	11	11	9	8	8	9	9	8	8	8	7	7	7	7	10	15	16	14	11	11	11	11	11	12	12	13	13	13	13	13	13	12	11	12	12	13	12	13	14	15	13	8	6	5	5	5	5	5	5	5	4	4	4	4	4	3	4	4	4	4	3	3	3	2	2	2	1	1	1	1	0	0	0	0	0	0	0	0	0	0	1	1	1	2	3	4	5	7	8	9	10	11	12	12	10	9	8	8	7	6	4	2	1	0	0	0	0	0	0	0	0	0	0	0	0	0	0	0	0	0	0	0	0	0	0	0	0	0	0	0	0	0	0	0	0	0	0	0	0	0	0	0	0	0	0	0	0	0	0	0	0	0	0	0	0	0	0	0	0	0	0	0	0	0	0	0	0	0	0	0	0	0	0	0	0	0	0	0	0	0	0	0	0	0	0	0	0	0	0	0	0	0	0	0	0	0	0	0	0	0	0	0	0	0	0	0	0	0	0	0	0	0	0	0	0	0	0	0	0	0	0	0	0	0	0	0	0	0	0	0	0	0	0	0	0	0	0	0	0	0	0	0	0	0	0	0	0	0	0	0	0	0	0	0	0	0	0	0	0	0	0	0	0	0	0	0	0	0	0	0	0	0	0	0	0	0	0	0	0	0	0	0	0	0	0	0	0	0	0	0	0	0	0	0	0	0	0	0	0	0	0	0	0	0	0	0	0	0	0	0	0	0	0	0	0	0	0	0	0	0	0	0	0	0	0	0	0	0	0	0	0	0	0	0	0	0	0	0	0	0	0	0	0	0	0	0	0
75	72	70	67	64	62	60	59	57	54	49	46	46	44	38	34	32	31	31	31	31	31	31	31	31	31	31	31	31	31	31	31	31	31	31	31	31	31	31	31	31	31	31	31	31	31	31	31	31	31	31	31	31	31	31	31	31	31	31	31	31	31	31	31	31	31	31	31	31	31	31	31	31	31	31	31	31	31	31	31	31	31	31	31	31	31	31	31	31	31	31	31	31	31	31	31	31	31	31	31	31	31	31	31	31	31	31	31	31	31	31	31	31	31	31	31	31	31	31	31	32	32	33	33	32	32	33	36	40	43	45	47	48	48	48	48	46	45	45	45	43	39	37	36	34	32	30	28	27	24	20	18	15	12	8	4	6	8	9	9	11	12	12	12	11	10	10	10	10	9	8	8	8	7	6	3	3	3	3	2	3	3	2	2	2	2	2	2	2	2	2	1	1	0	0	0	0	0	0	0	0	0	0	0	0	1	3	6	7	10	13	15	15	16	17	18	19	19	18	20	23	24	24	26	29	31	33	35	36	38	39	40	40	39	40	40	39	39	41	43	45	49	51	51	53	55	58	61	63	65	68	72	74	78	81	84	87	90	94	96	99	102	104	106	109	111	113	114	115	116	116	115	114	114	114	115	115	116	118	120	122	123	123	125	128	129	131	132	131	131	131	130	130	132	134	136	138	140	143	147	149	149	149	148	146	143	140	136	134	131	128	125	121	118	115	113	112	111	109	106	102	99	96	93	91	88	85	82	80	77	75	73	72	70	67	65	62	60	57	54	51	49	47	44	42	40	40	41	43	44	45	47	47	48	49	50	50	50	49	49	50	52	55	58	62	66	69	72	74	77	80	82	85	87	89	91	92	94	96	98	99	100	102	104	106	107	108	108	109	110	112	116	120	122	125	126	128	129	131	132	132	133	133	133	135	137	140	143	146	145	144	148	153	156	158	159	161	163	164	165	167	169	170	172	173	174	176	178	180	182	184	185	185	185	185	186	186	188	191	193	195	196	198	199	199	201	204	207	210	213	217	220	223	226	228	229	230	229	227	224	222	220	218	216	216	218	219	220	222	224	224	225	227	230	231	232	234	236	239	241	243	245	247	247	247	246	245	244	243	241	239	238	237	235	233	231	229	227	224	222	219	216	213	209	206	203	199	196	193	189	185	182	178	174	170	166	162	158	154	150	146	142	137	133	131	127	123	119	115	112	109	107	105	102	98	95	93	90	87	85	81	79	77	77	75	74	72	70	68	66	64	64	64	65	64	62	60	58	56	55	54	53	52	51	49	48	47	45	43	41	40	39	39	39	39	38	37	36	36	35	34	33	31	30	30	29	29	29	29	30	30	30	31	31	31	32	32	32	31	31	30	30	29	28	27	26	26	25	21	17	15	13	11	11	11	11	9	8	8	8	8	8	7	8	8	8	7	7	8	11	14	15	13	11	11	11	11	11	11	11	11	12	12	12	12	12	11	11	11	12	12	12	12	13	11	8	6	5	5	4	5	5	5	5	5	4	5	5	5	4	3	4	4	4	4	3	3	3	2	2	2	2	1	1	1	1	0	0	0	0	0	0	0	0	0	1	2	3	3	4	5	6	9	11	12	12	13	13	13	13	13	12	10	9	8	5	4	2	1	1	0	0	0	0	0	0	0	0	0	0	0	0	0	0	0	0	0	0	0	0	0	0	0	0	0	0	0	0	0	0	0	0	0	0	0	0	0	0	0	0	0	0	0	0	0	0	0	0	0	0	0	0	0	0	0	0	0	0	0	0	0	0	0	0	0	0	0	0	0	0	0	0	0	0	0	0	0	0	0	0	0	0	0	0	0	0	0	0	0	0	0	0	0	0	0	0	0	0	0	0	0	0	0	0	0	0	0	0	0	0	0	0	0	0	0	0	0	0	0	0	0	0	0	0	0	0	0	0	0	0	0	0	0	0	0	0	0	0	0	0	0	0	0	0	0	0	0	0	0	0	0	0	0	0	0	0	0	0	0	0	0	0	0	0	0	0	0	0	0	0	0	0	0	0	0	0	0	0	0	0	0	0	0	0	0	0	0	0	0	0	0	0	0	0	0	0	0	0	0	0	0	0	0	0	0	0	0	0	0	0	0	0	0	0	0	0	0	0	0	0	0	0	0	0	0	0	0	0	0	0	0	0	0	0	0	0	0	0	0	0	0	0
74	72	69	67	64	61	60	58	56	52	47	45	44	38	34	33	32	31	31	31	31	31	31	31	31	31	31	31	31	31	31	31	31	31	31	31	31	31	31	31	31	31	31	31	31	31	31	31	31	31	31	31	31	31	31	31	31	31	31	31	31	31	31	31	31	31	31	31	31	31	31	31	31	31	31	31	31	31	31	31	31	31	31	31	31	31	31	31	31	31	31	31	31	31	31	31	31	31	31	31	31	31	31	31	31	31	31	31	31	31	31	31	31	31	31	31	31	31	31	32	32	33	35	36	35	34	37	41	44	46	47	48	48	48	48	48	46	44	45	45	43	40	37	35	33	32	30	29	27	24	20	17	14	10	6	5	9	11	11	11	12	13	13	12	11	11	11	12	11	10	9	9	8	7	5	3	3	3	3	2	2	3	3	2	2	2	2	2	2	2	2	2	1	0	0	0	0	0	0	0	0	0	0	0	1	2	4	7	10	12	14	16	16	16	17	19	20	20	19	19	21	23	24	26	29	30	32	34	36	36	37	37	37	37	38	38	38	38	39	42	45	48	50	51	52	55	58	60	62	65	68	72	74	77	81	84	87	91	94	96	99	102	104	107	109	112	113	114	115	115	115	114	114	114	115	116	117	118	120	121	123	124	125	127	128	130	131	131	131	131	130	130	131	132	134	136	138	140	143	146	148	148	147	147	145	142	138	135	133	129	125	122	120	117	114	112	110	109	107	104	101	99	96	93	91	88	85	82	80	77	75	72	70	68	66	64	62	59	56	53	51	49	47	44	42	42	41	42	44	45	47	48	49	49	50	51	51	51	50	50	51	53	55	59	63	67	70	72	75	78	80	83	85	87	90	92	94	95	97	99	100	102	103	104	106	108	109	109	109	110	112	115	118	121	124	127	129	130	132	133	134	135	135	135	135	137	140	143	146	145	144	150	155	157	158	160	161	163	163	164	166	167	169	170	171	172	174	177	180	182	183	184	183	183	183	184	185	187	189	191	193	194	196	197	198	200	204	207	210	213	217	221	224	226	228	229	229	228	226	224	222	221	219	218	220	221	221	222	223	225	225	226	228	230	232	233	235	237	239	242	245	247	248	249	248	247	246	245	243	241	239	237	235	234	232	230	228	225	223	221	218	215	211	208	205	201	198	195	192	188	184	181	177	173	169	165	161	157	153	149	145	140	136	133	130	127	123	119	115	112	109	106	104	100	97	95	92	89	86	83	80	78	76	74	72	71	70	68	67	64	63	63	63	64	64	62	60	58	55	54	52	51	50	50	48	47	46	44	43	41	40	39	38	38	38	36	35	35	35	34	33	32	30	29	29	28	28	28	28	28	29	29	30	30	30	30	30	30	30	29	29	28	27	26	26	25	25	23	20	16	15	13	11	11	11	10	8	8	8	9	9	8	8	9	9	9	8	8	10	11	13	13	11	10	10	10	10	11	11	11	11	11	11	11	11	11	11	10	10	11	11	10	10	11	8	5	5	5	5	4	4	5	5	5	4	4	4	5	5	5	4	5	4	4	4	4	3	3	3	2	2	2	2	1	1	1	1	1	0	0	0	0	1	1	1	2	3	3	4	5	6	9	13	15	16	16	15	15	15	16	17	16	13	11	9	8	6	5	3	2	1	0	0	0	0	0	0	0	0	0	0	0	0	0	0	0	0	0	0	0	0	0	0	0	0	0	0	0	0	0	0	0	0	0	0	0	0	0	0	0	0	0	0	0	0	0	0	0	0	0	0	0	0	0	0	0	0	0	0	0	0	0	0	0	0	0	0	0	0	0	0	0	0	0	0	0	0	0	0	0	0	0	0	0	0	0	0	0	0	0	0	0	0	0	0	0	0	0	0	0	0	0	0	0	0	0	0	0	0	0	0	0	0	0	0	0	0	0	0	0	0	0	0	0	0	0	0	0	0	0	0	0	0	0	0	0	0	0	0	0	0	0	0	0	0	0	0	0	0	0	0	0	0	0	0	0	0	0	0	0	0	0	0	0	0	0	0	0	0	0	0	0	0	0	0	0	0	0	0	0	0	0	0	0	0	0	0	0	0	0	0	0	0	0	0	0	0	0	0	0	0	0	0	0	0	0	0	0	0	0	0	0	0	0	0	0	0	0	0	0	0	0	0	0	0	0	0	0	0	0	0	0	0	0	0	0	0	0	0	0	0	0
74	71	69	66	64	61	59	56	54	50	46	45	41	35	33	32	32	31	32	31	31	31	31	31	31	31	31	31	31	31	31	31	31	31	31	31	31	31	31	31	31	31	31	31	31	31	31	31	31	31	31	31	31	31	31	31	31	31	31	31	31	31	31	31	31	31	31	31	31	31	31	31	31	32	32	32	32	32	32	32	31	31	31	31	31	31	31	31	31	31	31	31	31	31	31	31	31	31	31	31	31	31	31	31	31	31	31	31	31	31	31	31	31	31	31	31	31	31	31	32	33	36	39	40	39	39	41	44	46	47	49	50	49	49	48	47	44	42	44	44	43	41	37	34	33	31	29	28	26	23	19	16	12	8	7	11	13	13	13	13	13	13	13	13	13	14	15	15	13	12	11	11	9	8	6	4	3	3	3	2	2	3	3	2	2	2	2	2	2	2	2	2	1	1	0	0	0	0	0	0	0	0	0	1	1	2	4	8	12	14	15	15	15	16	17	19	20	20	19	19	21	22	24	26	28	29	31	33	35	35	35	35	34	35	36	35	36	37	38	41	46	48	50	50	52	55	58	61	62	65	68	72	74	77	80	83	87	90	93	96	98	101	104	107	110	112	113	113	113	113	114	114	114	115	117	118	119	120	121	122	123	124	126	128	129	130	130	131	131	131	130	131	132	133	135	137	139	141	144	146	147	147	146	146	144	141	138	135	132	128	124	121	119	117	114	111	108	106	104	102	100	98	96	93	90	87	84	82	80	77	74	71	69	67	66	63	61	58	55	52	50	48	46	44	43	43	44	44	46	47	49	50	50	51	52	52	52	52	51	49	50	52	55	59	64	68	70	73	75	78	80	83	86	88	91	93	95	96	98	99	101	103	104	105	107	108	109	110	110	111	112	114	117	120	123	127	129	131	133	135	137	138	138	138	137	138	140	143	145	145	144	150	155	157	158	159	161	162	162	163	164	165	166	167	168	170	173	176	179	181	181	181	180	179	180	181	183	186	188	189	191	192	194	195	197	200	204	207	210	213	216	220	223	225	227	228	228	228	226	223	222	221	221	222	225	225	224	223	224	225	226	228	230	232	234	235	236	238	240	243	246	249	250	250	249	248	246	245	243	240	238	236	234	232	230	228	226	224	222	220	217	213	210	206	203	200	197	194	191	187	183	180	176	172	168	164	160	155	151	148	144	140	136	133	129	126	122	119	115	112	109	106	103	100	97	95	92	89	86	83	80	77	75	73	70	68	66	66	65	63	62	62	63	63	63	61	59	56	54	53	52	50	50	48	47	46	45	44	42	41	40	38	38	37	36	35	35	35	35	34	33	32	30	29	28	27	27	27	27	27	28	28	28	28	28	27	28	28	28	28	28	27	26	25	25	24	23	21	17	15	13	12	11	10	9	8	8	8	8	10	10	10	9	9	9	9	9	9	10	12	13	12	10	9	9	8	8	9	10	11	11	11	11	11	11	11	10	9	10	10	10	9	9	9	7	5	5	5	4	4	4	5	5	5	5	4	4	5	6	5	5	4	4	4	4	4	4	3	3	3	2	2	2	1	1	1	1	1	1	1	0	1	2	2	2	2	3	5	6	8	12	15	17	19	19	19	20	19	19	20	21	21	19	14	11	10	9	8	6	3	2	2	1	1	1	0	0	0	0	0	0	0	0	0	0	0	0	0	0	0	0	0	0	0	0	0	0	0	0	0	0	0	0	0	0	0	0	0	0	0	0	0	0	0	0	0	0	0	0	0	0	0	0	0	0	0	0	0	0	0	0	0	0	0	0	0	0	0	0	0	0	0	0	0	0	0	0	0	0	0	0	0	0	0	0	0	0	0	0	0	0	0	0	0	0	0	0	0	0	0	0	0	0	0	0	0	0	0	0	0	0	0	0	0	0	0	0	0	0	0	0	0	0	0	0	0	0	0	0	0	0	0	0	0	0	0	0	0	0	0	0	0	0	0	0	0	0	0	0	0	0	0	0	0	0	0	0	0	0	0	0	0	0	0	0	0	0	0	0	0	0	0	0	0	0	0	0	0	0	0	0	0	0	0	0	0	0	0	0	0	0	0	0	0	0	0	0	0	0	0	0	0	0	0	0	0	0	0	0	0	0	0	0	0	0	0	0	0	0	0	0	0	0	0	0	0	0	0	0	0	0	0	0	0	0	0	0	0	0	0	0	0
73	70	68	66	63	61	58	56	54	50	47	46	44	40	36	34	33	32	32	32	31	31	31	31	31	31	31	31	31	31	31	31	31	31	31	31	31	31	31	31	31	31	31	31	31	31	31	31	31	31	31	31	31	31	31	31	31	31	31	31	31	31	31	31	31	31	31	31	31	31	32	32	32	33	34	35	35	34	34	33	32	31	31	31	32	32	31	31	31	31	31	31	31	31	31	31	31	31	31	31	31	31	31	31	31	31	31	31	31	31	31	31	31	31	31	31	31	31	31	32	34	38	41	42	43	43	45	47	48	50	50	51	50	49	48	46	43	42	43	43	42	40	37	34	33	31	28	26	24	22	18	15	12	10	12	15	15	15	14	14	14	14	14	15	16	17	19	19	17	15	14	13	12	11	9	7	5	3	3	2	2	2	2	2	2	2	2	2	2	2	2	2	2	2	1	1	0	0	0	0	0	0	0	0	1	2	4	7	11	14	15	16	16	16	17	19	20	19	19	19	20	21	22	24	27	29	30	32	34	34	33	32	32	32	33	32	34	36	37	41	46	49	50	50	52	55	59	62	63	65	68	72	75	78	80	82	86	89	93	95	98	101	104	107	110	111	111	111	111	111	112	113	115	116	118	120	121	122	123	124	124	125	127	129	130	130	130	130	130	130	130	131	132	134	136	138	140	142	144	146	146	145	145	144	143	140	137	134	132	129	125	122	120	118	115	111	108	106	103	101	99	97	95	93	90	87	84	81	79	77	74	70	68	67	65	62	59	56	53	51	49	47	45	44	43	45	46	47	48	50	51	52	52	52	53	52	52	52	51	49	49	52	55	59	64	68	71	73	75	78	80	83	86	89	92	94	96	97	98	99	101	103	104	105	107	108	109	110	111	112	113	115	117	120	123	126	129	132	135	138	139	140	140	140	138	138	141	143	145	144	145	150	155	156	158	159	160	160	159	160	160	161	162	164	165	167	170	173	177	179	180	178	176	176	177	178	181	183	186	187	189	191	193	195	197	200	204	207	210	212	216	220	222	224	226	227	227	228	226	224	224	224	225	226	227	228	226	224	224	226	227	230	232	234	236	236	237	239	241	244	247	249	251	251	250	249	247	245	243	240	238	236	233	231	229	226	224	223	221	218	215	212	208	205	202	199	196	193	190	186	183	180	176	172	167	163	159	155	151	148	144	140	136	133	130	126	122	119	116	112	109	106	103	99	97	95	92	89	87	85	82	78	76	75	72	70	67	65	64	61	60	61	61	61	60	59	57	55	53	52	51	50	49	47	46	45	45	44	42	41	40	39	37	36	35	33	34	35	34	33	32	31	29	28	27	26	25	26	27	26	26	26	26	26	25	26	26	26	26	26	26	25	24	24	24	23	22	20	16	13	12	11	10	9	9	8	8	7	8	11	12	11	10	10	9	9	9	9	9	11	12	11	9	8	7	7	7	8	9	10	11	11	11	11	11	10	9	8	8	9	9	9	10	9	7	5	5	5	4	3	4	5	5	5	4	4	4	5	6	6	5	4	3	4	4	4	4	3	4	3	2	2	2	2	1	1	1	1	1	1	1	2	3	2	2	3	5	8	10	13	16	18	20	21	22	23	23	23	23	24	24	25	24	19	15	13	12	10	9	7	5	4	3	3	2	0	0	0	0	0	0	0	0	0	0	0	0	0	0	0	0	0	0	0	0	0	0	0	0	0	0	0	0	0	0	0	0	0	0	0	0	0	0	0	0	0	0	0	0	0	0	0	0	0	0	0	0	0	0	0	0	0	0	0	0	0	0	0	0	0	0	0	0	0	0	0	0	0	0	0	0	0	0	0	0	0	0	0	0	0	0	0	0	0	0	0	0	0	0	0	0	0	0	0	0	0	0	0	0	0	0	0	0	0	0	0	0	0	0	0	0	0	0	0	0	0	0	0	0	0	0	0	0	0	0	0	0	0	0	0	0	0	0	0	0	0	0	0	0	0	0	0	0	0	0	0	0	0	0	0	0	0	0	0	0	0	0	0	0	0	0	0	0	0	0	0	0	0	0	0	0	0	0	0	0	0	0	0	0	0	0	0	0	0	0	0	0	0	0	0	0	0	0	0	0	0	0	0	0	0	0	0	0	0	0	0	0	0	0	0	0	0	0	0	0	0	0	0	0	0	0	0	0	0	0	0	0	0	0	0	0	0
70	68	66	65	62	60	58	56	55	53	50	49	48	46	42	38	35	33	32	31	31	31	31	31	31	31	31	31	31	31	31	31	31	31	31	31	31	31	31	31	31	31	31	31	31	31	31	31	31	31	31	31	31	31	31	31	31	31	31	31	31	31	31	31	31	31	31	31	31	31	32	33	34	36	38	39	39	38	36	35	33	33	32	32	33	33	33	32	32	31	31	31	31	31	31	31	31	31	31	31	31	31	31	31	31	31	31	31	31	31	31	31	31	31	31	31	31	31	31	32	35	40	43	44	45	47	49	51	52	52	52	52	51	50	48	45	43	42	43	42	41	39	37	34	32	30	28	25	23	20	17	14	12	12	15	16	16	15	15	15	14	14	15	17	19	21	22	23	21	19	17	15	15	15	13	10	7	5	3	3	2	2	2	2	2	2	2	2	2	2	2	2	2	2	2	1	1	1	0	0	0	0	0	0	1	2	3	5	9	12	15	17	16	16	17	17	18	18	18	18	19	19	20	22	24	27	29	30	32	33	32	31	31	31	31	31	33	35	38	42	47	50	51	51	53	55	59	62	65	67	69	72	76	79	80	82	85	88	92	94	97	101	104	106	108	110	110	109	109	110	111	113	116	118	120	122	123	124	125	125	125	127	129	130	131	130	130	130	130	130	130	131	133	134	136	138	140	142	144	145	145	144	144	143	141	139	137	134	132	130	127	124	121	118	116	113	110	108	104	101	98	96	95	93	90	87	83	81	78	76	73	70	68	66	63	61	58	55	52	50	48	46	44	43	43	45	48	50	51	51	52	52	53	53	53	53	53	53	52	50	50	52	56	60	64	68	71	74	76	78	81	84	87	90	93	95	97	98	99	100	101	102	104	105	106	108	109	111	112	113	114	116	118	120	123	126	128	132	136	139	140	142	142	141	139	139	141	144	144	143	146	151	154	156	157	158	159	158	158	158	158	159	161	163	164	165	168	170	173	176	177	176	174	175	176	178	179	181	184	186	188	190	192	194	197	200	203	207	210	212	215	219	221	223	225	226	227	228	227	225	226	228	228	229	229	229	229	226	226	228	229	231	234	236	237	239	239	241	242	245	247	250	251	251	250	249	247	245	243	240	238	235	233	230	228	225	223	221	219	216	213	210	207	203	200	198	195	192	189	186	183	179	175	171	167	163	159	156	152	148	144	140	137	134	130	127	123	119	116	113	110	106	104	101	98	95	93	90	89	87	85	81	79	78	76	73	70	66	64	61	59	58	58	58	58	56	55	53	52	51	50	49	48	46	45	44	44	43	42	41	40	39	38	36	34	32	32	33	32	31	30	29	28	27	26	25	25	25	25	25	25	25	24	23	23	24	24	25	24	24	23	23	22	22	23	23	22	19	15	11	10	10	9	9	9	8	7	7	9	12	12	11	11	10	9	9	9	8	7	8	9	8	8	7	7	7	7	7	8	9	10	10	10	10	9	8	8	7	7	8	8	9	10	10	7	5	5	5	4	2	3	5	5	5	4	4	4	5	5	6	5	4	3	4	4	4	4	4	4	4	3	2	2	2	2	1	1	1	1	1	1	2	2	2	2	4	7	11	13	16	18	20	21	23	24	25	25	26	26	26	27	27	27	24	18	15	14	12	11	10	9	7	6	5	3	2	1	0	0	0	0	0	0	0	0	0	0	0	0	0	0	0	0	0	0	0	0	0	0	0	0	0	0	0	0	0	0	0	0	0	0	0	0	0	0	0	0	0	0	0	0	0	0	0	0	0	0	0	0	0	0	0	0	0	0	0	0	0	0	0	0	0	0	0	0	0	0	0	0	0	0	0	0	0	0	0	0	0	0	0	0	0	0	0	0	0	0	0	0	0	0	0	0	0	0	0	0	0	0	0	0	0	0	0	0	0	0	0	0	0	0	0	0	0	0	0	0	0	0	0	0	0	0	0	0	0	0	0	0	0	0	0	0	0	0	0	0	0	0	0	0	0	0	0	0	0	0	0	0	0	0	0	0	0	0	0	0	0	0	0	0	0	0	0	0	0	0	0	0	0	0	0	0	0	0	0	0	0	0	0	0	0	0	0	0	0	0	0	0	0	0	0	0	0	0	0	0	0	0	0	0	0	0	0	0	0	0	0	0	0	0	0	0	0	0	0	0	0	0	0	0	0	0	0	0	0	0	0	0	0	0	0
67	66	64	63	61	59	58	56	55	54	52	52	51	49	45	41	38	33	32	31	31	31	31	31	31	31	31	31	31	31	31	31	31	31	31	31	31	31	31	31	31	31	31	31	31	31	31	32	32	32	32	32	32	32	31	31	31	31	31	31	31	31	31	31	31	31	31	31	31	32	33	35	37	40	42	43	43	42	40	38	36	35	34	34	35	35	34	33	32	31	31	31	31	31	31	31	31	31	31	31	31	31	31	31	31	31	31	31	31	31	31	31	31	31	31	31	31	31	32	32	36	40	43	45	48	50	52	53	54	54	54	53	51	50	49	46	43	43	44	43	41	39	36	33	32	29	27	24	21	18	16	14	12	13	15	16	16	16	15	14	14	15	18	20	22	23	25	26	25	23	20	18	17	17	15	12	9	7	5	4	2	2	2	2	2	2	2	2	2	2	2	2	2	2	2	2	2	1	1	1	1	1	0	1	1	2	2	5	7	9	14	16	16	16	16	16	16	16	16	16	16	17	18	20	22	24	26	27	29	31	31	30	31	31	30	31	33	36	39	43	48	52	53	52	53	55	59	63	66	68	70	72	77	80	81	82	85	88	91	94	96	99	102	104	106	107	107	107	108	109	111	114	116	119	121	122	124	125	126	126	127	128	130	131	131	131	130	130	130	131	131	131	133	135	136	138	140	142	144	145	144	144	143	142	141	139	136	134	132	130	127	125	122	119	116	114	112	109	106	102	99	96	94	92	89	86	82	79	77	74	72	69	67	64	62	59	57	54	51	49	47	45	44	44	45	47	50	51	51	52	53	53	54	54	55	55	56	56	54	52	51	53	58	62	66	69	72	75	77	80	83	86	89	92	94	96	98	99	100	101	101	102	104	105	106	107	109	111	113	114	116	117	119	121	123	125	128	131	135	138	141	142	143	143	140	141	144	146	146	143	147	151	153	155	155	156	157	157	157	158	159	160	162	164	165	166	167	168	170	172	173	173	174	175	177	178	179	180	182	185	187	189	192	194	197	200	202	206	209	211	215	217	219	222	224	225	227	228	228	227	228	230	230	231	231	231	231	228	228	230	231	233	235	237	239	240	241	242	244	246	248	250	251	251	250	249	247	245	243	240	238	235	232	230	227	224	222	220	217	214	211	208	205	202	199	196	194	191	187	184	181	178	174	169	165	162	159	156	152	149	144	140	137	133	130	126	122	119	116	114	111	108	106	103	100	97	94	92	90	89	88	85	82	81	79	76	72	69	66	63	60	58	56	56	55	53	51	51	50	49	48	48	47	45	44	43	42	42	41	40	40	39	38	36	35	32	31	31	30	29	28	27	27	26	26	25	25	24	24	23	22	22	22	21	21	21	22	22	22	21	21	21	22	22	22	22	20	16	11	10	9	9	9	8	8	7	7	8	10	12	12	11	10	9	9	9	9	9	7	6	7	8	7	7	7	7	7	7	7	8	8	8	9	9	8	7	7	7	7	7	7	8	9	9	6	5	5	4	2	-1	2	4	5	5	4	4	4	5	5	5	5	4	4	4	4	4	3	3	3	3	3	2	2	2	2	2	1	1	2	2	2	2	2	3	3	5	8	13	16	18	19	21	23	25	26	27	27	28	28	29	29	29	29	28	24	19	17	15	14	13	12	11	10	7	5	3	2	0	0	0	0	0	0	0	0	0	0	0	0	0	0	0	0	0	0	0	0	0	0	0	0	0	0	0	0	0	0	0	0	0	0	0	0	0	0	0	0	0	0	0	0	0	0	0	0	0	0	0	0	0	0	0	0	0	0	0	0	0	0	0	0	0	0	0	0	0	0	0	0	0	0	0	0	0	0	0	0	0	0	0	0	0	0	0	0	0	0	0	0	0	0	0	0	0	0	0	0	0	0	0	0	0	0	0	0	0	0	0	0	0	0	0	0	0	0	0	0	0	0	0	0	0	0	0	0	0	0	0	0	0	0	0	0	0	0	0	0	0	0	0	0	0	0	0	0	0	0	0	0	0	0	0	0	0	0	0	0	0	0	0	0	0	0	0	0	0	0	0	0	0	0	0	0	0	0	0	0	0	0	0	0	0	0	0	0	0	0	0	0	0	0	0	0	0	0	0	0	0	0	0	0	0	0	0	0	0	0	0	0	0	0	0	0	0	0	0	0	0	0	0	0	0	0	0	0	0	0	0	0	0	0	0
