0	0	0	0	0	0	0	0	0	0	0	0	0	0	0	0	0	0	0	0	0	0	0	0	0	0	0	0	0	0	0	0	0	0	0	0	0	0	0	0	0	0	0	0	0	0	0	0	0	0	0	0	0	0	0	0	0	0	0	0	0	0	1	2	3	4	4	5	5	5	5	5	5	5	5	5	5	4	4	4	6	9	11	13	15	16	16	15	15	17	19	20	20	20	20	21	21	21	21	20	18	16	16	17	17	16	14	13	12	11	11	12	10	9	10	11	10	10	9	8	8	7	6	6	5	6	7	9	10	9	8	9	9	8	7	7	7	6	6	6	6	6	6	6	7	7	7	6	6	6	6	6	6	6	7	7	7	7	7	7	7	7	7	7	7	7	7	7	7	7	7	7	7	7	7	7	7	7	7	7	7	7	7	7	7	7	7	7	7	7	7	7	7	7	7	7	7	7	7	7	7	7	7	7	7	7	7	7	7	7	7	7	7	7	7	7	7	7	7	7	7	7	7	7	7	8	8	8	8	8	8	8	8	8	8	8	7	6	6	6	6	6	6	6	6	6	6	6	6	6	6	6	6	6	6	6	7	7	7	7	7	6	6	6	5	5	5	5	5	5	5	5	5	5	6	6	6	6	6	6	6	6	6	6	6	7	7	7	7	15	19	19	20	20	19	18	17	20	23	26	29	32	36	39	41	43	47	49	51	54	56	57	59	61	64	66	68	70	72	74	75	76	78	79	83	86	88	88	87	86	86	87	88	90	92	93	94	94	94	93	92	92	91	88	88	90	93	96	100	104	108	110	109	109	111	116	119	122	124	123	121	119	117	117	118	119	122	126	134	140	144	146	148	151	152	151	151	152	154	155	156	156	157	158	159	159	158	158	157	158	159	161	165	168	168	168	168	168	170	171	172	172	173	177	181	183	184	185	186	186	187	186	184	183	184	186	189	192	194	195	197	197	196	196	198	200	202	204	205	206	208	209	210	211	216	218	220	221	221	223	225	227	228	230	233	233	233	234	236	240	245	247	247	249	250	251	252	254	255	257	260	262	264	266	267	267	267	265	265	266	268	270	272	274	276	278	279	279	280	280	280	280	280	280	279	279	278	277	276	274	272	270	268	266	264	262	260	258	255	252	249	247	244	242	241	239	236	233	229	226	223	220	218	216	214	212	210	209	207	206	205	204	202	201	199	196	194	192	191	189	187	186	184	183	182	180	179	176	174	172	170	168	166	163	162	161	160	159	158	158	157	155	153	151	148	145	145	147	149	149	149	149	148	147	146	146	146	146	146	145	145	144	142	141	140	140	139	138	137	135	134	133	132	131	131	130	128	127	127	127	127	126	126	126	126	126	126	126	125	122	121	119	112	109	108	108	111	116	117	116	115	114	113	112	110	111	111	110	108	107	106	104	102	102	103	105	107	108	107	106	105	105	106	106	105	104	103	107	113	114	114	114	115	114	114	114	112	110	110	113	115	115	116	116	115	115	115	116	116	118	118	119	121	123	125	127	131	136	141	144	146	148	151	154	156	159	161	163	163	165	166	168	170	173	176	178	179	180	180	181	183	185	187	188	188	188	188	188	186	186	186	188	190	192	194	197	199	201	202	202	202	203	203	204	203	201	199	198	196	193	190	190	192	193	193	192	191	189	189	190	192	194	195	196	197	197	198	199	201	202	204	205	206	206	207	210	212	215	216	218	220	222	223	223	224	225	226	227	228	229	230	231	232	234	236	238	240	242	244	245	247	248	250	251	252	252	252	253	253	253	253	253	252	251	249	248	248	249	249	249	249	248	247	247	246	246	246	246	246	247	248	249	250	250	251	251	251	252	252	253	254	255	256	256	257	258	258	258	259	259	260	261	261	261	261	261	262	262	262	261	261	261	261	262	262	262	263	263	263	263	263	264	264	265	265	265	265	264	263	262	261	259	258	257	256	255	253	252	251	250	249	248	247	245	244	242	240	239	237	236	235	234	233	232	231	230	229	228	227	226	225	224	223	221	219	216	214	211	208	206	203	201	198	196	194	191	190	189	187	186	184	182	179	177	174	172	169	166	163	159	156	155	153	151	149	147	145	144	142	140	139	137	135	134	132	129	128	126	124	121	118	116	113	111	109	106	104	101	99	97	95	93	91	89	87	84	82	79	77	74	71	69	67	65	64	63	61	60	59	59	59	59	60	60	61	62	63	64	64	64	63	62	61	58	53	46	37	30	23	14	6	2	2	1	1	1	1	0	0	0	0	0	0	0	0	0	0	0	0	0
0	0	0	0	0	0	0	0	0	0	0	0	0	0	0	0	0	0	0	0	0	0	0	0	0	0	0	0	0	0	0	0	0	0	0	0	0	0	0	0	0	0	0	0	0	0	0	0	0	0	0	0	0	0	0	0	0	0	0	0	0	1	2	3	4	4	5	6	5	5	5	5	5	5	5	4	4	4	4	5	8	12	14	16	17	17	17	18	18	20	21	21	21	21	22	22	22	22	21	20	19	18	18	19	18	17	17	16	15	14	14	15	13	13	15	16	16	15	13	12	12	11	10	9	8	6	6	6	7	7	7	9	10	9	8	9	9	9	8	7	6	6	6	6	6	6	6	6	6	6	6	6	6	7	7	7	7	7	7	7	7	7	6	6	7	7	7	7	7	7	7	7	7	7	7	7	7	7	7	7	7	7	7	7	7	7	7	7	7	7	7	7	7	7	7	7	7	7	7	7	7	7	7	7	7	7	7	7	7	7	7	7	7	7	7	7	7	7	7	7	7	7	7	7	8	8	9	8	8	8	8	8	8	8	8	7	7	6	6	6	6	6	6	6	6	6	6	6	6	6	6	6	6	6	6	6	7	7	7	7	7	6	6	6	6	5	5	5	5	5	5	5	5	5	5	6	6	6	6	5	6	6	6	6	6	6	6	6	8	16	19	19	20	21	20	18	17	19	22	24	27	31	35	38	40	43	46	49	51	54	56	57	59	61	63	65	67	69	71	73	74	76	77	78	81	84	84	84	82	82	83	84	85	87	89	89	90	89	88	88	87	85	84	84	86	88	91	94	96	95	98	102	101	103	108	112	115	118	121	120	118	116	116	116	118	119	122	125	131	138	143	146	150	151	151	150	150	152	153	155	156	156	157	159	160	161	160	160	160	160	158	160	166	168	168	168	168	169	171	173	174	174	175	179	182	183	184	185	186	187	187	187	185	183	184	188	192	195	196	196	197	197	197	198	199	201	203	205	206	208	211	213	214	216	218	220	222	224	226	227	228	229	230	231	233	233	233	234	236	239	243	245	246	248	250	251	254	255	256	257	259	262	264	266	268	269	270	270	269	268	269	271	273	275	277	279	280	280	281	280	280	280	280	279	278	277	276	276	274	272	270	268	266	264	262	260	258	256	253	250	247	244	242	240	239	237	234	230	228	225	222	220	217	215	213	211	209	208	207	205	203	202	200	199	197	195	193	191	189	187	186	184	183	182	181	180	178	175	173	171	168	166	164	162	161	161	159	158	157	156	155	154	153	151	148	147	147	147	148	149	148	148	146	143	142	144	145	146	146	146	146	146	144	142	141	140	139	138	136	134	133	131	130	131	131	129	127	126	124	124	125	125	125	125	125	125	126	125	122	119	117	113	109	108	109	113	116	118	117	114	112	112	111	110	110	110	110	109	107	106	103	100	99	99	99	101	104	106	105	104	103	103	105	106	107	106	104	104	109	112	112	112	112	113	113	113	111	109	110	113	115	115	115	115	115	115	115	115	116	117	117	117	118	121	124	127	132	137	140	143	145	147	150	153	155	157	159	160	161	162	163	165	168	171	174	176	177	178	179	180	183	185	187	187	187	187	187	186	185	184	185	186	188	190	193	195	197	199	200	199	199	200	201	202	202	200	199	197	194	192	190	189	190	191	192	191	189	188	187	188	189	192	193	195	196	196	197	198	199	200	202	203	204	205	206	209	212	214	216	218	219	221	222	222	222	224	225	226	227	228	229	230	231	233	236	238	240	242	244	246	248	249	250	251	252	252	253	254	254	254	254	253	252	250	249	248	247	248	248	248	248	247	246	246	245	245	244	244	245	246	247	248	249	249	250	250	250	251	251	252	254	255	256	256	257	258	258	259	259	260	261	261	262	262	263	263	263	263	263	263	263	263	263	263	264	264	264	265	265	265	265	266	266	266	266	266	266	265	265	264	262	261	260	259	258	257	256	255	253	252	251	250	248	247	245	243	242	240	239	238	237	236	235	234	233	232	231	230	229	228	227	226	224	222	220	217	215	212	210	207	205	202	200	198	196	194	192	191	190	188	186	184	182	179	177	174	173	170	167	163	160	158	156	154	152	150	149	148	148	146	144	142	140	139	137	135	132	130	127	124	121	118	116	114	111	109	107	104	102	100	97	95	93	91	89	86	84	81	79	76	73	71	68	66	64	62	61	60	59	57	56	56	56	56	57	59	60	61	61	61	60	59	58	55	49	43	34	26	16	7	4	2	2	1	1	1	1	0	0	0	0	0	0	0	0	0	0	0	0	0
0	0	0	0	0	0	0	0	0	0	0	0	0	0	0	0	0	0	0	0	0	0	0	0	0	0	0	0	0	0	0	0	0	0	0	0	0	0	0	0	0	0	0	0	0	0	0	0	0	0	0	0	0	0	0	0	0	0	0	0	1	2	3	4	4	5	6	6	5	5	5	5	5	5	5	5	7	8	8	10	13	15	16	18	19	18	18	20	21	21	22	22	21	21	21	21	21	21	20	20	19	18	19	19	18	18	19	20	19	18	18	18	17	17	19	19	18	17	17	15	14	13	12	11	10	9	8	8	6	5	6	6	7	7	7	9	10	11	11	10	9	7	6	6	6	6	6	6	6	6	6	7	7	7	7	7	7	7	7	7	7	7	7	6	7	7	7	7	7	7	7	7	7	7	7	7	7	7	7	7	7	7	7	7	7	7	7	7	7	7	7	7	7	7	7	7	7	7	7	7	7	7	7	7	7	7	7	7	7	7	7	7	7	7	7	7	7	7	7	7	7	7	7	8	8	9	9	9	9	8	8	8	8	8	7	7	6	6	6	6	6	6	6	6	6	6	6	6	6	6	6	6	6	6	6	6	7	7	7	7	7	6	6	6	6	5	5	5	6	6	6	6	6	6	6	6	6	6	6	6	6	6	6	6	6	6	6	6	7	15	18	19	20	21	20	19	18	19	21	24	27	31	35	37	40	42	45	48	50	53	55	56	59	61	63	65	67	69	70	71	73	75	76	77	79	81	81	80	79	79	80	81	82	83	83	84	84	84	83	82	81	79	79	81	84	86	88	90	92	91	93	97	97	98	103	109	112	114	116	116	115	115	115	116	118	120	123	126	129	134	139	145	149	150	150	150	150	151	152	155	156	156	157	158	161	162	163	163	162	161	159	161	166	167	168	169	170	172	174	175	175	175	177	180	182	183	184	185	187	188	189	189	188	186	186	190	194	196	197	197	197	198	199	200	202	203	205	206	208	210	213	215	217	218	220	221	224	227	229	230	231	232	233	233	233	232	233	234	236	240	244	245	246	249	251	253	255	257	258	258	260	263	265	266	268	270	272	273	273	272	272	273	274	276	278	279	281	282	282	281	280	279	278	277	276	275	274	274	273	271	269	267	264	262	259	257	255	253	250	247	245	242	240	238	237	234	231	228	225	223	221	219	217	214	212	210	208	207	205	203	201	199	197	196	195	194	191	189	187	186	184	182	181	181	180	179	177	174	172	170	167	164	162	161	160	160	159	158	156	155	154	153	152	151	149	148	148	148	149	149	148	147	146	142	140	143	145	145	146	146	146	147	146	144	142	141	140	138	136	134	131	130	130	130	129	127	126	125	124	123	124	125	125	124	124	124	124	122	119	116	113	109	109	113	115	117	118	118	116	113	111	111	111	109	109	109	109	108	106	104	102	99	99	99	98	99	101	103	103	101	100	101	103	106	108	107	104	103	106	109	110	110	110	111	111	111	110	109	111	114	115	115	115	115	115	115	115	115	116	116	116	117	118	120	124	128	134	137	139	142	144	146	149	151	153	155	156	157	158	159	161	163	165	168	171	173	174	175	177	179	182	184	186	186	186	185	185	184	183	183	183	184	186	188	190	193	195	197	197	197	197	198	200	200	200	199	198	196	193	190	188	187	189	190	191	190	189	187	187	187	189	191	192	194	195	195	196	197	198	199	200	202	202	203	205	208	211	213	215	217	218	220	220	220	221	223	224	225	226	227	228	229	231	233	236	238	241	243	245	247	249	250	250	250	251	252	252	253	254	254	253	253	251	250	248	247	246	246	247	247	247	247	245	245	244	244	243	243	243	244	245	246	247	248	249	249	250	250	251	252	254	255	256	257	258	258	259	259	260	261	261	262	262	263	264	264	264	264	264	264	264	265	265	264	265	265	265	266	266	267	267	267	268	268	268	268	268	267	266	265	264	263	262	261	260	259	258	257	256	254	253	252	250	249	247	245	244	243	241	240	239	238	237	236	235	234	233	232	231	230	228	227	225	223	221	219	216	213	211	209	206	204	202	200	198	196	195	194	192	191	189	187	184	182	179	178	176	173	170	167	163	161	159	158	156	155	154	153	153	151	149	147	145	143	141	139	137	134	131	127	124	122	119	117	115	112	110	107	104	102	100	98	95	93	91	88	86	83	80	77	75	72	69	67	64	62	61	60	58	56	55	54	52	50	52	55	56	57	57	57	56	55	53	50	47	40	31	24	15	8	5	2	2	2	1	1	1	0	0	0	0	0	0	0	0	0	0	0	0	0
0	0	0	0	0	0	0	0	0	0	0	0	0	0	0	0	0	0	0	0	0	0	0	0	0	0	0	0	0	0	0	0	0	0	0	0	0	0	0	0	0	0	0	0	0	0	0	0	0	0	0	0	0	0	0	0	0	0	0	1	2	3	4	5	5	5	6	6	5	5	5	5	5	5	5	8	11	12	13	15	18	18	19	19	20	19	19	20	21	21	21	20	19	19	19	19	19	19	19	19	18	18	18	18	18	18	19	20	21	21	21	20	19	19	20	21	20	20	19	18	17	16	14	13	11	11	11	10	7	6	7	6	6	5	5	6	7	9	11	11	12	11	10	8	7	6	6	6	6	6	6	6	7	7	7	7	7	7	7	7	7	7	7	7	7	7	7	7	7	7	7	7	7	7	7	7	7	7	7	7	7	7	7	7	7	7	7	7	7	7	7	7	7	7	7	7	7	7	7	7	7	7	7	7	7	7	7	7	7	7	7	7	7	7	7	7	7	7	7	7	7	7	7	8	9	9	9	9	9	9	8	8	8	8	7	6	6	6	6	6	6	6	6	6	6	6	6	6	6	6	6	6	6	6	6	6	7	7	7	7	7	6	6	6	6	6	5	6	6	6	6	6	6	6	7	7	7	6	7	7	7	6	6	6	6	6	6	6	7	14	17	19	20	21	21	18	17	18	21	24	27	32	35	38	40	42	44	46	50	53	54	55	58	61	62	64	65	67	69	70	71	72	74	76	77	78	79	78	78	77	77	77	78	78	78	79	79	78	77	76	77	77	77	79	81	83	84	85	86	87	90	94	95	96	99	103	107	109	112	113	114	114	114	116	119	121	124	127	129	131	134	140	147	148	147	148	150	151	152	155	156	156	157	158	161	163	164	165	165	164	163	164	166	167	168	170	172	174	175	176	176	176	178	180	182	183	184	186	188	190	191	191	192	191	188	191	194	196	197	198	198	200	201	203	204	206	207	208	209	211	213	216	218	219	220	222	225	227	229	231	233	234	234	234	233	232	233	235	238	243	246	247	248	251	253	254	257	259	260	261	262	264	266	267	268	270	272	274	275	275	275	275	276	278	279	281	282	283	283	282	281	279	278	276	275	274	273	271	270	269	267	265	263	260	257	254	252	250	247	244	242	240	237	236	234	231	228	225	224	221	219	218	216	213	210	209	207	205	203	201	198	196	194	194	194	192	189	187	186	185	183	181	180	180	179	177	176	173	171	169	166	163	161	159	158	158	158	156	155	154	153	152	151	150	149	149	149	149	149	149	148	148	147	144	140	142	144	145	145	146	147	147	146	145	143	142	141	139	137	134	131	129	129	128	126	125	124	124	124	124	125	125	124	123	124	123	121	119	117	115	110	109	113	117	118	118	118	117	115	112	111	111	110	108	108	108	108	107	106	105	103	101	100	99	98	98	100	101	100	99	98	99	101	104	105	105	103	102	103	106	108	108	108	109	110	110	109	109	111	114	115	115	115	115	115	115	114	115	115	115	116	117	118	121	125	130	134	136	138	141	143	145	146	149	151	152	153	154	155	157	159	161	164	166	168	170	172	173	175	178	180	182	183	184	184	183	183	182	181	181	182	183	184	186	188	190	192	194	194	194	195	197	199	199	199	199	197	194	192	189	186	186	187	188	189	190	189	188	188	189	190	191	192	193	194	194	195	196	196	198	199	200	201	202	204	206	209	211	213	215	217	218	219	219	220	221	223	224	225	226	228	229	231	233	236	239	241	244	246	248	250	250	250	249	249	250	251	251	252	252	252	251	250	248	247	245	244	245	245	245	246	245	245	244	243	242	241	241	242	243	244	245	246	247	248	249	249	250	251	252	254	255	256	257	258	259	260	260	261	261	262	262	263	264	264	264	265	265	265	265	265	265	265	266	266	266	266	267	267	268	268	268	268	269	269	269	269	269	268	267	266	265	264	263	262	261	260	259	258	257	255	254	252	251	249	248	246	245	244	242	241	240	239	238	237	236	235	234	233	232	230	229	227	225	223	221	218	215	213	210	208	206	204	202	201	200	199	197	195	193	191	189	187	185	182	181	179	177	173	169	166	164	163	162	161	160	159	158	157	155	154	151	149	148	146	144	141	138	135	131	128	126	124	121	118	116	113	110	107	104	102	100	98	95	93	90	87	85	82	79	77	74	71	68	66	64	62	60	58	56	54	52	50	48	47	50	52	53	53	52	51	50	49	47	44	37	30	24	18	9	4	2	2	1	1	1	0	0	0	0	0	0	0	0	0	0	0	0	0	0
0	0	0	0	0	0	0	0	0	0	0	0	0	0	0	0	0	0	0	0	0	0	0	0	0	0	0	0	0	0	0	0	0	0	0	0	0	0	0	0	0	0	0	0	0	0	0	0	0	0	0	0	0	0	0	0	0	0	0	1	3	4	5	5	5	5	5	5	5	5	5	5	5	5	9	12	14	14	15	16	19	20	20	20	20	20	20	19	19	19	19	19	18	18	18	18	18	18	18	18	18	18	18	18	18	18	18	18	19	19	19	20	19	20	21	22	22	21	21	20	20	18	17	15	14	14	14	13	9	8	9	9	8	6	5	5	5	6	8	9	10	13	13	12	10	9	8	7	6	6	6	6	6	6	7	7	7	7	7	7	7	7	7	7	7	7	7	7	7	7	7	7	7	7	7	7	7	7	7	7	7	7	7	7	7	7	7	7	7	7	7	7	7	7	7	7	7	7	7	7	7	7	7	7	7	7	7	7	7	7	7	7	7	7	7	7	7	7	7	7	7	7	8	9	9	9	9	9	9	9	9	9	8	8	7	6	6	6	6	6	6	6	6	6	6	6	6	6	6	6	6	6	6	6	6	6	7	7	7	7	7	7	6	6	6	6	6	6	6	6	6	6	7	7	7	7	7	7	7	7	7	7	7	7	7	7	7	6	7	14	17	19	19	20	20	17	16	18	21	24	27	32	37	39	40	42	43	45	48	52	53	55	57	60	61	62	63	65	67	68	69	70	71	73	75	75	75	76	76	75	74	73	74	75	75	75	74	74	73	72	72	73	74	76	77	79	81	81	82	83	86	89	92	94	97	99	103	107	109	110	112	114	115	117	120	122	125	128	129	131	133	135	140	143	144	146	149	151	153	155	156	157	158	159	161	163	165	166	166	167	167	167	167	168	168	170	173	175	176	177	177	178	179	181	183	185	186	188	189	191	193	194	194	194	192	191	192	194	196	197	199	201	203	205	207	209	210	210	211	213	214	216	218	219	221	223	226	227	228	230	232	233	233	233	233	233	234	236	240	245	248	250	251	252	254	255	257	260	261	262	263	265	266	267	268	270	272	274	275	276	277	277	278	279	281	282	283	284	284	283	281	279	277	275	274	272	271	270	268	267	265	263	261	258	255	252	250	247	244	242	240	237	235	233	231	228	226	224	222	220	218	217	214	211	209	207	205	203	201	199	197	194	192	192	191	189	187	185	185	184	182	179	178	177	177	176	174	172	170	168	166	163	160	157	156	156	155	154	153	153	152	150	149	148	149	149	150	150	149	148	148	148	147	145	141	142	144	145	146	146	147	147	146	144	143	142	141	140	138	136	133	130	128	126	125	124	124	124	124	124	125	124	122	121	122	121	118	114	113	112	110	113	119	119	118	117	117	116	114	112	112	112	110	108	108	108	107	105	104	104	104	103	101	98	97	97	99	99	100	100	100	99	100	103	102	100	100	100	101	103	106	106	106	109	111	111	110	110	111	112	113	113	114	115	115	115	115	115	115	115	115	116	118	121	126	129	132	134	136	139	142	143	144	145	148	150	150	152	153	155	157	160	162	164	166	168	170	172	174	176	178	180	181	181	181	181	181	180	179	179	180	181	182	183	185	187	189	190	191	192	194	196	198	199	199	198	196	194	191	189	186	184	185	186	188	189	189	189	191	192	193	194	194	195	194	194	195	195	196	196	197	198	199	201	202	204	207	209	211	213	215	216	217	217	218	220	221	223	224	226	228	229	231	234	236	239	242	244	247	249	250	251	250	249	248	248	249	249	249	250	250	250	248	247	245	243	242	242	243	243	244	244	243	242	241	240	239	240	241	242	243	244	245	246	247	248	249	250	252	253	254	256	257	258	259	259	260	261	261	262	262	263	264	264	264	264	265	265	266	266	266	266	267	267	267	267	268	268	268	268	269	269	269	270	270	270	271	271	270	269	268	267	266	265	264	264	263	262	261	259	257	256	254	253	252	250	249	248	246	245	244	243	242	241	240	239	238	237	236	234	233	231	229	227	225	223	220	217	214	212	210	208	207	205	204	203	202	200	198	196	193	191	189	188	186	184	182	179	176	173	170	168	167	166	165	164	163	162	160	159	158	156	154	152	150	148	145	142	139	135	133	130	128	125	122	119	116	113	110	107	105	102	100	98	95	92	89	87	84	81	78	76	73	70	68	65	63	61	59	56	54	52	50	48	46	46	47	48	48	48	47	46	46	44	41	36	31	25	14	6	3	2	2	1	1	1	0	0	0	0	0	0	1	1	1	1	1	0	0	0
0	0	0	0	0	0	0	0	0	0	0	0	0	0	0	0	0	0	0	0	0	0	0	0	0	0	0	0	0	0	0	0	0	0	0	0	0	0	0	0	0	0	0	0	0	0	0	0	0	0	0	0	0	0	0	0	0	0	1	3	4	5	5	5	5	5	5	5	5	5	4	5	6	8	13	15	15	15	16	17	19	21	21	21	20	20	19	19	18	18	18	18	18	18	18	18	18	18	18	18	18	18	18	18	18	18	18	18	18	18	18	18	18	19	20	21	21	22	22	22	21	21	20	19	18	17	17	16	13	12	12	12	10	8	7	6	6	6	5	6	7	11	13	12	12	12	11	8	6	6	6	6	6	6	6	6	7	7	7	7	7	7	7	7	7	7	7	7	7	7	7	7	7	7	7	7	7	7	7	7	7	7	7	7	7	7	7	7	7	7	7	7	7	7	7	7	7	7	7	7	7	7	7	7	7	7	7	7	7	7	7	7	7	7	7	7	7	7	7	7	7	7	9	10	10	9	9	9	9	9	9	9	8	7	7	6	6	6	6	6	6	6	6	6	6	6	6	6	6	6	6	6	6	6	6	6	7	7	7	7	7	7	7	7	7	7	7	7	7	7	7	7	7	7	7	7	7	7	7	7	7	7	7	7	7	7	7	7	7	12	17	18	17	17	16	13	12	16	20	23	26	32	38	40	41	42	43	44	46	50	52	54	55	58	59	60	62	63	65	67	68	69	69	70	71	71	72	73	74	73	71	71	71	71	72	71	70	70	69	68	67	67	70	72	73	75	77	79	79	81	84	86	89	92	95	98	102	106	109	110	112	115	117	119	121	124	126	128	130	132	133	135	137	140	143	145	148	151	153	155	156	157	158	159	162	163	165	166	167	168	168	169	169	169	168	170	173	175	175	177	178	179	181	183	185	188	189	190	192	194	195	196	195	196	196	195	193	193	195	196	198	200	203	206	209	210	211	211	213	215	216	216	218	220	222	224	226	227	228	230	231	232	232	232	232	233	235	238	243	247	249	251	252	254	255	256	257	259	261	262	264	266	267	267	269	271	272	273	275	276	278	279	279	281	282	284	284	284	283	282	281	279	277	274	273	271	270	268	267	266	264	261	259	257	253	250	247	243	241	240	238	235	232	230	228	226	224	222	221	219	217	215	212	210	207	206	204	201	199	198	196	193	191	191	189	187	185	185	184	182	179	177	175	175	175	175	173	171	169	167	165	162	159	156	154	154	154	153	152	151	150	148	147	146	147	149	150	149	148	147	146	147	146	144	141	142	144	145	146	146	146	146	145	144	143	142	141	140	139	138	135	132	128	126	125	124	124	124	124	124	124	123	121	119	119	118	114	110	109	110	114	118	119	119	118	117	117	116	114	112	111	111	109	108	107	106	105	104	103	103	104	102	100	97	96	97	98	99	100	101	101	99	100	103	100	97	97	99	100	102	103	105	106	109	113	113	113	111	111	111	111	112	112	113	115	115	115	115	115	115	115	116	118	121	124	126	128	130	131	134	136	138	139	141	144	146	148	149	151	152	155	157	160	162	164	165	168	170	172	174	176	177	178	179	179	179	179	178	177	178	179	180	180	181	182	184	186	187	189	191	193	196	197	198	198	197	196	194	192	189	186	183	183	184	185	188	189	191	192	194	195	196	197	197	197	196	196	196	196	196	196	197	198	199	201	202	204	207	209	211	213	214	214	215	217	218	220	222	224	226	228	229	231	234	236	239	242	244	247	249	250	251	250	247	246	246	246	246	247	248	248	248	247	245	244	242	240	240	241	242	242	242	242	241	240	239	238	239	240	241	242	244	245	246	247	248	250	251	252	254	255	257	258	259	259	259	260	260	261	262	263	263	264	265	265	265	265	266	267	267	267	268	268	268	269	269	269	269	269	269	269	270	270	271	271	272	272	272	272	271	270	269	268	267	267	266	266	265	263	261	259	258	257	256	254	253	252	251	249	248	247	245	244	244	243	242	241	240	238	237	235	233	231	229	227	224	221	218	216	214	212	210	209	208	208	207	205	203	201	198	196	194	192	191	189	187	185	182	179	176	174	173	171	170	169	168	167	165	164	162	161	159	158	156	154	151	149	146	143	140	137	135	132	129	126	122	119	116	113	110	107	105	102	100	97	94	91	89	86	83	80	78	75	72	70	68	65	63	60	58	55	53	51	49	46	44	43	43	44	44	43	43	42	41	39	36	31	21	8	5	4	3	2	2	1	1	0	0	0	0	1	2	3	3	2	2	1	0	0	0
0	0	0	0	0	0	0	0	0	0	0	0	0	0	0	0	0	0	0	0	0	0	0	0	0	0	0	0	0	0	0	0	0	0	0	0	0	0	0	0	0	0	0	0	0	0	0	0	0	0	0	0	0	0	0	0	0	1	2	4	5	5	5	5	5	5	5	5	5	5	5	7	10	13	15	16	15	17	19	19	20	20	20	19	19	19	18	18	18	18	18	18	18	18	18	18	18	18	18	18	18	18	18	18	18	18	18	18	18	18	18	18	18	18	19	19	19	20	20	21	21	21	21	21	20	20	19	18	17	15	14	13	12	10	9	9	9	8	7	6	6	7	8	9	10	13	13	10	6	6	6	8	8	7	6	6	6	6	7	7	7	7	7	7	7	7	7	7	7	7	7	7	7	7	7	7	7	7	7	7	7	7	7	7	7	7	7	7	7	7	7	7	7	7	7	7	7	7	7	7	7	7	7	7	7	7	7	7	7	7	7	7	7	7	7	7	7	7	7	7	7	8	10	10	10	10	10	9	9	9	9	9	8	7	6	6	6	6	6	6	6	6	6	6	6	6	6	6	6	6	6	6	6	6	6	6	7	7	7	7	7	7	7	7	7	7	7	7	7	7	7	7	7	7	7	7	7	7	7	7	7	7	7	7	7	7	7	7	8	9	13	15	14	14	13	9	9	13	19	23	25	31	37	40	42	43	44	44	45	48	51	53	54	55	57	59	60	62	64	65	66	67	68	68	68	68	69	70	71	71	69	68	68	68	69	68	67	67	66	65	64	64	67	70	71	72	74	77	78	81	85	87	89	92	96	100	104	107	110	112	115	118	120	122	124	126	127	129	131	133	134	135	136	141	145	147	149	150	152	154	155	157	158	160	162	164	165	166	167	168	170	171	171	170	168	169	172	174	175	176	178	179	182	185	188	190	192	194	195	196	197	197	196	197	198	199	198	197	197	197	198	200	204	207	209	210	211	212	214	216	217	217	218	220	222	224	226	228	229	230	230	231	232	232	232	235	240	243	245	247	249	251	254	255	256	257	257	258	260	261	263	265	267	267	269	271	272	273	275	277	278	279	280	281	283	283	284	283	282	281	279	278	275	273	271	270	268	267	265	264	262	260	257	255	252	248	243	239	237	237	235	232	230	228	226	224	222	220	218	217	215	213	210	208	206	204	202	200	198	196	195	192	190	189	187	185	184	184	182	180	177	175	174	173	174	173	172	170	168	166	164	162	158	154	152	153	153	152	151	149	147	146	145	145	146	148	149	148	147	146	145	145	145	142	140	141	143	144	145	146	146	145	145	143	143	142	140	139	138	137	135	132	130	129	128	126	125	124	124	123	122	121	120	118	117	117	111	108	110	115	118	118	118	117	117	116	116	115	112	110	109	109	108	107	106	105	103	102	101	102	102	101	99	96	95	96	97	98	99	100	100	99	100	102	101	97	96	98	100	101	102	103	106	109	113	114	114	112	111	111	111	111	111	112	113	113	114	113	113	114	115	116	118	119	120	122	123	125	126	128	130	132	134	136	138	142	145	147	149	151	153	155	158	160	162	163	166	168	170	172	174	176	177	177	177	177	177	176	175	176	177	178	178	179	180	182	184	185	188	190	193	195	196	197	197	197	195	194	192	189	186	183	182	182	183	186	188	191	193	195	196	197	199	199	199	199	198	198	198	198	197	198	198	199	200	200	202	204	207	209	210	212	212	213	215	218	220	222	224	226	227	229	231	234	236	239	241	244	246	248	250	250	249	246	244	243	242	243	244	245	246	246	245	244	242	240	238	238	239	240	241	241	241	240	239	238	237	237	239	241	242	244	245	246	247	248	250	251	252	254	256	257	258	259	259	259	259	260	261	262	263	264	265	265	266	266	266	267	267	268	269	270	270	270	270	270	269	269	269	270	270	271	272	272	272	273	273	273	273	272	271	270	269	269	269	269	268	267	266	264	262	260	259	258	257	256	255	253	252	251	249	248	247	247	246	245	244	243	241	239	237	236	233	231	228	226	223	220	218	216	214	213	212	211	211	209	208	205	203	201	199	197	196	194	192	190	187	185	182	180	178	176	175	173	172	171	169	168	166	165	164	162	161	159	157	154	152	149	146	143	141	138	136	132	129	125	122	119	116	113	110	107	104	102	99	96	94	91	88	85	83	80	77	75	72	70	67	65	63	60	58	55	52	50	47	44	42	41	41	40	39	38	38	38	36	34	29	16	7	6	5	3	2	2	2	2	1	0	1	2	4	4	5	4	3	2	1	0	0	0
0	0	0	0	0	0	0	0	0	0	0	0	0	0	0	0	0	0	0	0	0	0	0	0	0	0	0	0	0	0	0	0	0	0	0	0	0	0	0	0	0	0	0	0	0	0	0	0	0	0	0	0	0	0	0	0	0	1	3	5	5	5	5	5	5	5	5	5	5	5	8	11	14	16	16	17	17	19	21	21	20	19	19	18	18	18	18	18	18	18	18	18	18	18	18	18	18	18	18	18	18	18	18	18	18	18	18	18	18	18	18	18	18	18	18	18	18	18	18	19	20	20	20	20	21	20	20	20	19	18	16	14	14	13	12	12	11	10	10	9	8	7	6	6	7	10	13	11	6	6	8	11	11	10	8	8	7	6	6	7	7	7	7	7	7	7	7	7	7	7	7	7	7	7	7	7	7	7	7	7	7	7	7	7	7	7	7	7	7	7	7	7	7	7	7	7	7	7	7	7	7	7	7	7	7	7	7	7	7	7	7	7	7	7	7	7	7	7	7	7	8	10	11	10	10	10	10	10	9	9	9	8	7	7	6	6	6	6	6	6	6	6	6	6	6	6	6	6	6	6	6	6	6	6	6	6	7	7	7	7	7	7	7	7	7	7	7	7	7	7	7	7	7	7	7	7	7	7	7	7	7	7	7	7	7	7	7	7	7	7	9	10	9	13	12	9	8	11	17	21	25	30	36	39	41	43	45	45	45	47	50	51	52	54	55	56	58	60	62	63	64	65	66	66	65	65	66	67	67	67	66	65	64	64	64	64	64	64	63	62	62	63	66	68	71	72	73	76	78	82	86	88	91	95	99	103	106	109	112	114	117	120	122	124	126	129	130	131	133	135	136	136	138	142	145	147	149	150	151	153	155	157	159	161	162	164	166	167	168	169	171	172	172	171	170	170	171	173	175	176	177	179	181	185	189	192	194	196	197	198	199	199	199	199	201	202	202	202	202	203	203	203	206	208	210	211	212	214	216	217	218	219	220	221	223	225	227	228	229	229	229	231	233	234	236	241	246	246	246	247	249	252	254	256	257	258	258	259	261	262	263	264	266	267	269	270	272	273	275	276	277	278	279	280	282	282	282	281	280	278	277	276	274	272	270	268	267	265	264	262	260	258	255	253	250	246	241	237	234	233	232	230	228	226	224	222	220	217	215	214	213	210	208	206	204	202	200	198	197	195	193	191	189	187	186	184	183	181	179	177	175	174	172	171	171	170	169	167	165	163	161	159	156	152	151	152	152	152	150	148	146	145	145	145	146	147	147	147	147	146	145	144	144	142	140	140	142	143	144	145	145	145	144	143	143	142	140	138	137	136	134	132	131	132	131	128	126	125	124	123	121	120	119	117	116	117	113	109	115	120	119	118	116	114	114	114	114	112	110	108	107	107	106	105	104	104	102	101	100	101	101	100	98	96	95	95	96	96	97	98	99	99	98	100	101	98	98	100	102	102	101	102	106	109	111	112	113	112	111	111	111	111	111	111	111	111	111	112	112	112	114	117	118	118	118	119	120	121	122	123	125	127	129	132	136	140	144	146	148	150	152	154	156	158	160	162	164	167	169	170	172	174	175	176	176	175	175	174	174	174	175	176	176	177	178	180	182	184	187	189	191	193	195	196	196	196	195	193	191	189	186	183	181	181	182	184	187	191	194	196	197	198	199	200	201	201	201	201	201	200	200	199	199	199	199	200	201	202	204	206	208	209	211	212	215	217	219	221	223	225	227	229	231	234	236	238	241	243	246	248	249	248	247	245	242	240	239	239	240	242	243	244	243	242	241	239	237	236	237	238	239	240	240	239	238	237	236	236	238	240	241	243	244	246	247	248	250	251	253	254	256	257	258	258	258	259	259	260	261	262	263	264	265	266	266	266	267	267	268	269	270	271	271	272	271	271	270	270	270	270	271	272	273	273	273	274	274	274	274	273	272	272	271	271	271	271	270	269	268	266	264	263	262	261	260	259	258	256	255	254	253	251	250	250	249	248	246	245	243	241	239	237	235	232	229	227	224	222	220	218	216	215	214	214	213	212	210	207	205	203	202	200	199	196	194	192	190	187	185	183	182	180	178	176	174	173	171	170	169	168	166	165	163	161	159	157	154	151	149	146	144	141	138	135	131	128	124	121	118	115	112	109	106	104	101	98	96	93	90	87	85	82	80	77	75	72	70	67	65	63	60	57	54	51	48	45	42	40	39	37	35	33	33	33	33	31	27	15	7	7	5	3	2	2	2	2	3	3	4	5	6	6	6	5	3	2	1	0	0	0
0	0	0	0	0	0	0	0	0	0	0	0	0	0	0	0	0	0	0	0	0	0	0	0	0	0	0	0	0	0	0	0	0	0	0	0	0	0	0	0	0	0	0	0	0	0	0	0	0	0	0	0	0	0	0	0	1	3	5	5	5	5	5	5	5	5	4	4	5	8	12	14	16	17	17	18	20	21	21	20	19	18	18	18	18	18	18	18	18	18	18	18	18	18	18	18	18	18	18	18	18	18	18	18	18	18	17	18	18	18	18	18	18	18	18	18	18	18	18	18	18	18	18	19	19	20	20	20	21	20	17	15	14	15	15	14	13	12	11	11	11	10	10	10	9	9	11	10	6	6	9	12	11	11	11	11	10	9	7	7	7	7	7	7	7	7	7	7	7	7	7	7	7	7	7	7	7	7	7	7	7	7	7	7	7	7	7	7	7	7	7	7	7	7	7	7	7	7	7	7	7	7	7	7	7	7	7	7	7	7	7	7	7	7	7	7	7	7	7	7	9	11	11	11	10	10	10	10	10	10	9	8	7	6	6	6	6	6	6	6	6	6	6	6	6	6	6	6	6	6	6	6	6	6	6	7	7	7	7	7	7	7	7	7	7	7	7	7	7	7	7	7	7	7	7	7	7	7	7	7	7	7	7	7	7	7	7	7	7	7	7	8	11	13	12	9	8	9	15	20	23	28	34	38	39	41	44	46	47	48	48	49	51	52	53	54	56	59	60	61	61	62	62	60	60	61	63	64	63	63	61	60	60	60	60	60	60	59	58	57	60	64	65	68	71	72	73	76	80	84	88	91	94	98	102	105	108	111	113	116	119	122	124	125	128	131	133	134	135	136	137	138	140	141	142	145	149	150	151	152	153	157	160	161	163	164	166	167	168	170	172	173	173	173	172	171	172	173	175	177	177	179	181	184	189	193	195	197	199	200	200	201	202	203	203	204	204	204	205	205	205	205	208	210	211	212	214	216	218	219	220	221	223	223	224	226	227	227	227	228	229	231	234	236	241	245	247	247	247	247	248	251	254	256	257	258	258	259	261	262	262	263	265	267	268	270	271	273	274	275	277	278	278	279	280	281	280	279	278	276	275	273	272	270	268	267	265	263	262	260	258	256	253	251	248	244	240	236	232	230	228	226	225	223	221	219	217	215	213	211	210	209	207	205	203	201	198	197	195	194	192	190	188	186	184	183	181	179	177	176	175	173	171	169	168	167	166	165	163	161	159	156	153	150	150	151	151	151	149	146	145	145	145	145	145	146	145	145	145	145	144	144	144	142	140	140	141	143	144	145	145	144	143	144	144	143	140	138	137	136	135	133	132	132	132	129	127	125	124	123	121	119	117	115	116	116	113	110	118	120	117	115	113	112	112	111	111	109	107	106	106	106	105	104	103	103	102	100	99	99	99	99	98	96	95	95	95	94	94	95	97	98	95	96	98	99	101	104	105	105	103	102	104	108	108	109	109	111	111	111	111	111	111	111	111	111	111	111	111	112	114	117	118	118	118	118	118	118	119	120	121	124	128	131	137	141	144	146	147	149	151	153	155	157	160	162	164	166	168	170	171	173	174	175	175	175	174	173	172	172	172	173	174	175	177	179	181	183	186	188	190	192	194	195	195	195	194	192	190	188	185	182	181	181	182	184	186	190	194	196	197	198	200	201	201	202	203	203	203	203	202	202	201	200	200	200	200	201	203	205	206	207	209	212	214	216	219	221	223	225	227	229	231	233	235	237	239	242	244	246	247	246	245	242	240	238	236	236	237	238	240	241	241	240	239	237	235	234	234	236	238	238	238	238	237	235	234	234	236	238	240	241	243	245	247	248	250	251	252	253	254	255	256	257	258	258	259	260	261	262	263	265	266	266	267	267	267	267	268	270	271	272	272	272	272	271	270	270	270	271	272	273	273	274	274	275	275	275	275	274	274	273	273	272	272	272	272	271	270	268	267	266	265	264	263	262	260	259	258	257	256	255	254	253	252	250	249	247	245	243	241	238	235	233	230	228	226	224	222	220	218	217	216	215	214	213	211	209	207	206	205	203	201	199	196	194	192	190	188	186	185	183	180	178	177	175	173	172	171	170	168	167	165	164	162	160	157	154	151	148	146	143	140	137	133	130	126	124	120	117	114	111	108	106	103	100	98	95	92	90	87	85	83	80	78	75	72	70	67	65	62	59	56	53	50	46	43	40	38	35	31	29	27	27	29	27	24	18	10	6	5	4	3	2	2	3	5	6	7	7	7	7	6	4	3	2	0	0	0	0
0	0	0	0	0	0	0	0	0	0	0	0	0	0	0	0	0	0	0	0	0	0	0	0	0	0	0	0	0	0	0	0	0	0	0	0	0	0	0	0	0	0	0	0	0	0	0	0	0	0	0	0	0	0	0	0	2	4	5	5	5	5	5	5	5	4	4	5	7	12	15	17	18	18	19	20	22	22	20	19	18	18	18	18	18	18	18	18	18	18	18	18	18	18	18	18	18	18	18	18	18	18	18	18	18	18	18	18	18	18	18	18	18	18	18	18	18	18	18	18	18	18	18	18	18	18	19	19	20	20	18	16	15	16	16	15	15	14	13	13	13	13	13	13	12	11	11	9	5	6	8	11	9	8	11	13	13	12	10	8	7	7	7	7	7	7	7	7	7	7	7	7	7	7	8	7	7	7	7	7	7	7	7	7	7	7	7	7	7	7	7	7	7	7	7	7	7	7	7	7	7	7	7	7	7	7	7	7	7	7	7	7	7	7	7	7	7	7	7	8	10	12	11	11	11	11	10	10	10	10	9	8	7	6	6	6	6	6	6	6	6	6	6	6	6	6	6	6	6	6	6	6	6	6	6	7	7	7	7	7	7	7	7	7	7	7	7	7	7	7	7	7	7	7	7	7	7	7	7	7	7	7	7	7	7	7	7	7	7	7	6	8	13	13	12	10	8	8	12	18	21	25	30	35	37	38	41	44	46	46	45	46	49	51	52	53	55	57	59	59	59	58	56	54	54	57	59	59	59	57	55	55	56	57	58	58	58	56	55	57	62	64	65	68	71	73	75	78	82	87	90	93	97	101	105	108	111	113	115	118	121	124	126	127	129	131	134	136	136	137	137	138	139	140	141	144	148	150	150	150	152	155	158	160	162	164	165	166	168	170	172	174	175	176	175	173	173	174	176	177	179	180	181	184	188	192	194	197	200	201	201	201	204	205	206	206	205	204	204	204	204	205	210	212	213	213	215	217	218	219	221	222	223	224	224	225	225	226	227	229	230	232	235	239	243	246	247	248	248	248	249	250	252	254	256	256	256	257	259	260	262	263	264	266	268	269	271	272	273	274	276	276	277	278	279	279	278	277	275	274	273	271	270	268	266	265	263	261	259	258	255	253	250	248	245	242	239	235	232	228	225	223	222	221	218	216	214	212	211	209	208	207	205	203	201	198	197	195	194	192	190	189	186	185	183	182	180	178	176	175	174	172	170	168	166	165	164	163	160	158	156	154	151	150	150	151	150	149	146	144	144	144	145	145	145	145	145	145	145	144	143	143	143	142	140	140	141	143	144	144	144	143	143	144	144	143	141	139	138	137	136	134	132	131	131	129	127	125	124	123	122	120	117	116	115	112	109	112	116	117	114	112	110	110	110	109	108	107	106	105	105	104	104	103	102	102	102	100	97	96	97	97	97	95	95	95	95	94	93	92	93	95	95	96	97	98	101	104	105	106	106	102	101	103	103	103	103	108	113	112	112	111	111	111	111	111	111	111	111	112	114	117	118	118	118	118	118	118	118	118	120	124	128	133	138	141	143	145	147	148	151	153	155	157	160	162	164	165	167	169	170	171	173	174	175	174	173	172	170	170	170	171	172	173	175	177	180	183	185	187	189	191	192	193	194	193	193	191	189	187	184	182	180	181	182	184	187	191	194	196	198	199	200	201	202	203	204	204	204	204	204	204	203	202	202	201	201	201	202	203	205	206	208	211	214	216	218	221	223	225	227	229	230	232	234	236	238	240	243	244	243	242	241	240	238	235	234	233	234	235	236	238	238	238	236	235	233	232	232	234	236	237	237	236	235	234	233	232	234	236	238	239	241	244	246	247	249	250	251	251	252	253	254	256	257	258	259	259	261	262	264	265	266	266	267	267	267	267	268	270	271	271	272	271	271	270	270	270	270	271	272	273	274	275	275	276	276	277	277	276	275	275	274	274	274	274	273	273	272	271	270	269	268	266	265	264	263	262	261	259	258	257	256	255	254	252	251	249	246	244	241	238	236	233	231	229	227	225	223	221	219	218	218	217	216	214	213	211	210	209	208	206	203	201	199	197	195	193	190	188	187	185	183	181	179	177	176	174	173	172	170	169	167	165	164	162	159	156	152	150	147	144	141	138	135	131	128	125	122	119	116	113	110	108	105	102	100	97	95	92	90	88	86	83	81	78	75	72	70	67	64	61	58	55	52	48	45	42	40	36	32	28	25	23	23	20	19	18	10	7	5	4	4	3	2	4	6	8	9	8	7	6	5	3	2	1	0	0	0	0
0	0	0	0	0	0	0	0	0	0	0	0	0	0	0	0	0	0	0	0	0	0	0	0	0	0	0	0	0	0	0	0	0	0	0	0	0	0	0	0	0	0	0	0	0	0	0	0	0	0	0	0	0	0	0	1	3	5	5	5	5	5	5	5	5	4	4	7	11	14	16	17	18	19	20	21	21	20	19	18	18	18	18	18	18	18	18	18	18	18	18	18	18	18	18	18	18	18	18	18	18	18	18	18	18	18	18	18	18	18	18	18	18	18	18	18	18	18	18	18	18	18	18	18	18	18	18	18	18	19	18	17	17	17	17	16	15	16	16	15	15	14	14	13	11	10	11	10	7	6	6	7	6	6	11	14	14	14	11	8	7	7	7	7	7	7	7	7	7	7	7	7	7	7	8	7	7	7	7	7	7	7	7	7	7	7	7	7	7	7	7	7	7	7	7	7	7	7	7	7	7	7	7	7	7	7	7	7	7	7	7	7	7	7	7	7	7	7	7	9	11	12	11	11	11	11	11	11	10	10	8	7	6	6	6	6	6	6	6	6	6	6	6	6	6	7	7	6	6	6	6	6	6	6	6	7	7	7	7	7	7	7	7	7	7	7	7	7	7	7	7	7	7	7	7	7	7	7	7	7	7	7	7	7	7	7	7	7	7	7	6	7	11	13	14	12	9	9	10	15	19	23	27	32	34	34	37	41	43	44	43	45	47	49	50	52	54	55	56	57	57	53	51	50	51	52	53	54	54	51	50	51	53	55	55	56	56	55	56	59	63	65	67	70	73	75	78	82	86	90	93	96	100	104	108	111	114	116	118	120	123	125	127	129	130	132	134	136	137	138	139	139	140	141	143	145	148	150	149	150	152	155	156	157	160	162	164	166	168	170	172	176	178	178	176	176	175	175	177	179	180	181	183	186	188	191	193	197	200	202	202	202	204	206	207	206	206	205	206	207	208	209	212	214	214	216	216	216	218	219	221	222	222	223	224	224	225	226	229	231	232	234	237	240	243	246	247	248	248	249	250	251	252	252	254	254	255	256	258	260	261	262	264	265	267	269	270	271	273	274	275	275	276	277	277	277	275	274	273	271	270	269	267	266	264	262	261	258	257	255	253	250	248	245	243	240	237	234	231	227	224	221	219	218	216	214	212	211	209	207	205	204	203	201	198	196	195	193	192	190	189	187	185	184	182	181	179	177	175	173	171	170	169	168	166	165	163	160	157	155	153	152	150	149	148	148	148	146	143	142	142	142	143	143	144	144	145	145	145	144	142	141	141	141	140	139	140	142	143	143	143	143	143	143	143	142	141	139	138	138	136	135	133	131	130	128	126	123	122	123	123	120	118	116	112	108	109	113	114	112	110	110	109	109	108	108	107	106	105	104	104	103	102	101	100	101	101	98	95	95	95	95	95	94	95	95	94	94	93	92	92	95	96	96	96	97	100	103	104	106	108	106	102	101	102	104	108	113	117	116	115	112	111	111	111	111	111	111	111	113	116	118	118	118	118	118	118	118	118	118	120	125	129	134	138	140	142	144	146	148	151	154	156	158	160	162	164	165	166	167	169	170	172	173	173	173	172	170	169	168	169	170	171	173	174	176	179	182	184	186	188	190	191	192	193	192	192	190	188	186	183	180	179	180	182	185	188	191	193	196	197	199	200	202	203	204	205	205	205	205	205	205	205	204	204	203	202	202	202	203	204	206	208	211	213	215	218	220	223	225	227	228	230	231	233	235	237	239	240	240	239	239	238	237	235	233	231	230	231	232	233	235	235	235	234	233	231	230	230	232	234	235	235	234	233	232	231	231	232	234	236	238	240	243	245	246	247	248	248	249	249	251	253	254	256	257	258	259	260	262	263	265	266	266	266	266	266	267	268	269	270	271	271	270	270	269	269	269	269	270	271	272	274	275	276	276	277	278	279	278	277	276	275	275	275	275	275	275	274	274	273	272	271	269	268	267	266	265	263	262	261	260	259	258	256	254	253	250	248	245	242	239	237	235	232	230	228	226	224	222	221	220	220	219	217	216	215	213	212	212	210	208	205	203	201	199	197	194	192	190	188	186	184	183	181	179	178	176	174	173	172	170	168	167	165	163	160	157	154	151	148	145	142	139	136	133	130	127	124	121	118	115	112	110	107	104	102	100	97	95	93	91	89	87	84	81	78	75	73	70	67	64	61	57	54	51	48	45	42	39	36	31	26	22	19	17	14	12	10	8	6	5	4	3	3	3	5	8	9	8	7	5	3	2	2	1	0	0	0	0
0	0	0	0	0	0	0	0	0	0	0	0	0	0	0	0	0	0	0	0	0	0	0	0	0	0	0	0	0	0	0	0	0	0	0	0	0	0	0	0	0	0	0	0	0	0	0	0	0	0	0	0	0	0	0	2	4	5	5	5	5	5	5	5	4	4	6	11	14	16	17	18	18	19	21	21	20	19	18	18	18	18	18	18	18	18	18	18	18	18	18	18	18	18	18	18	18	18	18	18	18	18	18	18	18	18	18	18	18	18	18	18	18	18	18	18	18	18	18	18	18	18	18	18	18	18	18	18	18	18	18	18	18	18	18	17	17	17	17	16	16	16	15	13	11	10	11	11	9	9	8	6	6	6	9	13	13	12	8	7	7	7	7	7	7	7	7	7	7	7	7	7	7	7	7	7	8	8	7	7	7	7	7	7	7	7	7	7	7	7	7	7	7	7	7	7	7	7	7	7	7	7	7	7	7	7	7	7	7	7	7	7	7	7	7	7	7	7	7	9	12	12	12	11	11	11	11	11	10	9	8	7	6	6	6	6	6	6	6	6	6	6	6	6	6	7	7	6	6	6	6	6	6	6	7	7	7	7	7	7	7	7	7	7	7	7	7	7	7	7	7	7	7	7	7	7	7	7	7	7	7	7	7	7	7	7	7	7	7	7	7	7	9	11	12	12	9	9	9	11	16	20	24	28	30	30	33	36	40	41	43	45	46	47	49	50	52	51	51	53	51	48	47	46	47	47	47	48	48	48	49	51	52	53	54	55	55	55	58	61	65	69	72	74	75	78	81	85	89	92	96	99	103	107	111	114	116	118	121	123	125	126	128	130	131	133	135	136	138	139	140	141	143	145	146	148	149	150	150	150	153	155	155	156	158	160	162	165	167	170	173	177	178	177	177	177	177	178	179	181	182	183	185	188	190	191	193	197	202	203	204	204	206	207	207	208	209	210	211	211	212	212	213	214	216	217	217	217	218	219	221	221	222	223	224	225	226	228	230	232	234	236	239	239	241	245	248	249	248	250	252	253	253	253	253	254	254	256	258	259	261	262	263	265	267	269	270	271	272	274	274	275	275	276	276	275	273	272	270	269	268	266	265	263	262	260	258	256	254	252	250	247	245	243	240	237	234	231	229	226	222	219	217	216	214	212	211	209	207	205	203	202	201	198	196	194	193	191	189	188	187	186	184	183	181	180	178	176	173	170	168	167	167	166	165	163	160	157	154	151	150	150	149	147	145	145	144	143	142	141	141	141	141	142	142	143	144	144	144	143	141	140	140	140	139	138	139	141	142	142	142	142	142	142	142	141	140	139	138	137	136	134	132	131	129	128	126	122	120	122	123	121	118	114	108	108	110	113	112	109	108	108	108	107	107	107	106	105	104	103	102	101	100	99	99	99	99	96	94	93	94	94	94	93	94	94	93	93	92	92	94	95	95	95	95	95	98	100	103	106	109	108	103	101	104	110	113	115	117	118	118	112	109	111	111	111	111	111	112	113	116	118	118	118	118	118	118	118	118	119	121	126	130	134	137	139	141	143	146	148	151	154	156	158	160	161	163	164	165	166	168	169	170	171	172	171	170	169	168	167	168	169	171	173	174	176	179	181	183	185	187	189	190	191	192	191	191	190	188	185	182	180	179	180	183	185	188	191	193	195	197	199	201	202	203	204	205	206	206	206	207	207	207	206	206	205	205	205	204	204	204	205	207	210	212	215	217	219	222	224	226	228	229	230	232	234	236	237	238	237	236	235	235	234	233	231	229	228	227	229	231	232	233	232	232	231	230	228	228	229	231	232	233	233	231	230	229	229	231	233	235	237	240	242	244	244	245	245	245	246	247	249	251	253	255	257	258	259	260	261	263	264	265	265	265	265	265	266	267	268	269	270	270	269	268	268	268	268	269	270	271	272	273	274	276	277	278	279	280	280	278	277	276	276	276	276	277	277	277	277	276	274	273	272	271	270	269	268	266	265	264	262	261	260	258	256	254	252	249	246	243	241	238	236	234	231	229	228	226	224	222	222	221	220	219	218	217	216	215	214	212	209	207	205	203	201	198	196	194	192	190	188	186	184	183	181	179	177	176	174	173	171	170	168	166	163	161	158	156	152	149	146	143	141	138	135	132	129	126	123	120	117	114	112	109	107	104	102	100	98	97	95	92	90	88	85	81	79	76	73	70	67	63	60	56	53	50	47	44	42	39	35	30	24	20	17	14	14	12	10	7	6	5	4	4	5	7	8	9	9	7	5	2	1	1	2	1	1	0	0
0	0	0	0	0	0	0	0	0	0	0	0	0	0	0	0	0	0	0	0	0	0	0	0	0	0	0	0	0	0	0	0	0	0	0	0	0	0	0	0	0	0	0	0	0	0	0	0	0	0	0	0	0	0	1	3	5	5	5	5	5	5	5	4	4	5	10	14	16	17	18	19	19	19	20	20	19	18	18	18	18	18	18	18	18	18	18	18	18	18	18	18	18	18	18	18	18	18	18	18	18	18	18	18	18	18	18	18	18	18	18	18	18	18	18	18	18	18	18	18	18	18	18	18	18	18	18	18	18	18	18	18	18	18	18	18	18	18	17	17	17	17	16	16	14	13	12	12	11	11	10	8	8	9	9	10	10	8	7	7	7	7	7	7	7	7	7	7	7	7	7	7	7	7	7	7	8	8	8	7	7	7	7	7	7	7	7	7	7	7	7	7	7	7	7	7	7	7	7	7	7	7	7	7	7	7	7	7	7	7	7	7	7	7	7	7	7	7	7	10	12	12	12	12	12	11	11	11	10	9	7	6	6	6	6	6	6	6	6	6	6	6	6	6	6	7	6	6	6	6	6	7	7	7	7	7	7	7	7	7	7	7	7	7	7	7	7	7	7	7	7	7	7	7	7	7	7	7	7	7	7	7	7	7	7	7	7	7	7	7	7	7	8	8	7	10	10	9	8	9	12	17	21	24	25	27	29	32	36	40	43	45	46	46	47	47	47	46	46	45	43	41	41	41	42	43	45	45	46	49	52	54	55	56	57	57	57	59	62	65	70	74	77	79	80	81	84	87	91	95	99	102	106	110	113	116	118	121	123	125	127	128	129	131	133	135	136	136	138	139	140	143	148	149	150	150	151	151	152	153	154	155	155	156	159	160	161	164	167	170	174	176	177	177	178	179	180	182	184	185	186	187	189	192	192	193	194	199	204	206	206	208	209	209	209	210	213	215	214	213	212	213	214	215	217	218	218	217	218	219	220	221	222	225	226	227	228	230	231	233	236	239	241	240	241	245	249	250	250	251	254	255	255	255	255	254	255	257	258	260	262	263	265	266	268	269	270	271	273	274	274	274	275	275	274	273	271	270	268	267	266	264	262	260	259	257	255	253	251	249	247	244	242	239	236	234	231	228	227	224	221	218	215	214	212	210	208	206	205	203	202	200	198	196	194	193	192	190	188	186	185	184	183	181	180	178	176	174	171	168	167	167	166	164	162	160	158	155	152	149	147	147	147	145	143	141	141	141	142	141	140	140	140	141	141	142	143	143	143	143	141	140	139	139	139	138	139	140	141	141	141	141	141	141	141	140	139	138	138	137	135	134	132	131	130	128	126	122	120	121	122	119	114	109	108	108	110	112	111	108	108	107	106	106	106	105	104	102	102	101	100	100	99	98	98	97	97	95	93	93	93	94	93	93	93	92	91	90	91	92	94	95	95	94	94	95	96	99	103	106	108	108	103	100	104	111	113	114	117	119	117	110	109	111	111	111	111	112	113	115	117	118	118	118	118	118	118	118	118	119	123	128	132	135	137	139	141	143	146	149	151	154	156	158	159	160	162	163	164	165	166	167	168	168	169	169	168	167	166	166	168	170	172	173	175	176	178	180	182	185	187	188	189	190	191	191	191	190	188	186	182	180	179	180	182	185	187	190	192	194	197	199	200	202	203	204	205	206	207	207	208	208	208	208	207	207	207	207	207	206	205	205	207	209	211	214	216	218	221	223	225	226	228	230	231	233	234	235	235	234	233	232	232	231	230	228	226	225	224	226	228	230	230	230	229	228	227	226	226	227	229	230	231	231	229	228	227	228	230	232	234	236	238	240	242	242	242	242	242	243	246	248	250	252	255	257	258	259	260	260	261	262	263	263	263	263	263	265	266	267	268	269	268	268	267	267	267	267	268	269	270	272	273	274	275	277	278	279	280	280	279	278	277	277	277	278	279	280	280	280	278	277	276	275	274	273	272	271	269	268	266	265	263	262	260	258	255	253	249	247	244	242	240	238	235	233	232	230	228	226	225	224	223	222	221	220	219	218	217	215	213	211	208	206	204	202	200	198	195	193	191	190	188	186	184	182	181	179	178	176	174	173	171	169	166	164	162	160	157	154	151	148	145	142	140	137	134	131	128	125	122	119	116	114	112	109	107	105	103	101	100	98	95	93	90	87	84	81	79	76	73	70	66	62	59	55	53	50	46	43	41	38	34	29	24	21	19	18	16	13	11	9	7	7	7	11	14	15	14	13	9	4	2	2	3	4	3	1	1	0
0	0	0	0	0	0	0	0	0	0	0	0	0	0	0	0	0	0	0	0	0	0	0	0	0	0	0	0	0	0	0	0	0	0	0	0	0	0	0	0	0	0	0	0	0	0	0	0	0	0	0	0	0	0	2	4	5	5	5	5	5	5	4	4	4	7	12	15	16	17	19	19	20	20	19	19	18	18	18	18	18	18	18	18	18	18	18	18	18	18	18	18	18	18	18	18	18	18	18	18	18	18	18	18	18	18	18	18	18	18	18	18	18	18	18	18	18	18	18	18	18	18	18	18	18	18	18	18	18	18	18	18	18	18	18	18	18	18	18	18	18	18	18	18	17	16	15	14	13	13	12	10	11	13	12	9	6	6	6	7	7	7	7	7	7	7	7	7	7	7	7	7	7	7	7	7	8	8	8	8	8	8	8	8	7	7	7	7	7	7	7	7	7	7	7	7	7	7	7	7	7	7	7	7	7	7	7	7	7	7	7	7	7	7	7	7	7	7	8	11	12	12	12	12	12	12	12	11	10	8	7	6	6	6	6	6	6	6	6	6	6	6	6	6	7	7	6	6	6	6	7	7	7	7	7	7	7	7	7	7	7	7	7	7	7	7	7	7	7	7	7	7	7	7	7	7	7	7	7	7	7	7	7	7	7	7	7	7	7	7	7	7	7	9	8	7	9	9	8	9	11	15	19	21	23	25	28	31	34	39	42	44	46	45	44	42	41	41	41	38	36	36	37	39	41	42	44	45	47	51	54	56	58	59	61	62	63	65	66	68	72	76	80	83	84	85	87	89	93	97	101	105	108	112	115	117	120	123	126	127	129	130	131	132	133	136	138	138	138	139	141	144	149	151	151	151	152	153	154	155	155	155	155	157	160	160	162	165	168	171	174	176	177	178	179	181	184	187	189	190	190	192	194	195	195	195	196	200	206	208	209	211	212	212	213	214	215	216	215	214	213	214	216	218	219	220	219	218	218	220	221	222	224	226	228	229	231	233	234	235	238	241	242	242	243	246	250	251	252	254	255	256	257	257	256	256	257	258	260	262	263	264	266	267	269	270	271	272	273	273	273	273	274	273	272	271	269	268	267	265	263	261	259	258	256	254	252	250	249	246	244	241	239	236	233	231	228	226	225	223	220	217	214	212	210	208	206	205	203	202	200	198	196	194	193	192	191	189	187	185	184	182	181	180	179	177	175	173	170	168	167	166	164	162	160	158	155	153	150	148	146	145	144	142	141	140	139	140	141	141	140	139	139	140	140	141	142	142	142	142	141	140	139	139	138	138	139	139	140	140	140	140	140	140	140	139	138	137	137	136	134	133	132	131	130	128	126	122	120	120	119	114	109	107	108	108	109	110	110	108	107	106	105	104	104	103	101	100	99	99	99	98	97	97	96	96	96	95	93	93	93	94	93	92	91	91	90	89	89	91	93	94	95	95	95	95	97	99	102	104	105	105	102	100	102	110	114	115	116	119	118	111	110	113	115	114	112	112	114	116	120	120	118	118	118	118	118	118	119	120	125	130	133	135	138	140	142	143	146	148	151	153	155	157	158	159	160	161	162	163	164	165	165	166	166	166	165	165	164	165	168	170	172	174	175	177	178	180	182	184	186	188	189	190	191	191	191	190	188	186	183	180	179	179	181	183	186	189	191	194	196	198	199	201	202	203	205	206	207	208	208	208	209	209	209	209	209	209	209	207	206	206	206	208	210	213	215	217	219	221	223	225	227	229	231	232	233	233	232	231	230	229	228	228	227	225	223	222	221	222	225	227	228	228	227	226	225	224	223	224	226	228	229	228	227	226	225	226	228	230	233	235	237	238	239	240	239	239	240	242	245	247	250	252	254	256	258	258	259	259	260	260	261	261	261	261	262	263	265	266	267	267	267	266	266	266	266	266	267	269	270	271	273	274	275	276	277	278	279	280	279	279	278	278	279	280	281	282	283	282	280	279	278	277	276	275	274	273	272	271	269	267	265	263	261	259	256	253	250	248	245	243	241	239	237	235	234	232	231	229	227	226	225	224	223	223	222	221	219	217	214	212	210	208	206	204	201	199	197	195	193	191	189	187	185	184	183	181	179	178	176	174	172	170	168	166	164	161	159	156	153	150	147	145	142	139	136	133	129	127	124	121	118	116	114	111	109	107	105	104	102	100	98	95	92	89	87	84	82	79	75	72	69	65	61	58	55	52	49	46	43	41	38	34	30	27	25	23	20	18	15	13	12	11	14	20	22	22	19	15	9	4	4	5	5	5	4	2	1	0
0	0	0	0	0	0	0	0	0	0	0	0	0	0	0	0	0	0	0	0	0	0	0	0	0	0	0	0	0	0	0	0	0	0	0	0	0	0	0	0	0	0	0	0	0	0	0	0	0	0	0	0	0	1	3	4	5	5	5	5	5	5	4	4	5	8	12	14	16	18	19	20	19	19	18	18	18	18	18	18	18	18	18	18	18	18	18	18	18	18	18	18	18	18	18	18	18	18	18	18	18	18	18	18	18	18	18	18	18	18	18	18	18	18	18	18	18	18	18	18	18	18	18	18	18	18	18	18	18	18	18	18	18	18	18	18	18	18	18	18	18	18	19	19	19	19	18	17	16	15	14	13	13	13	13	12	8	7	7	8	7	6	7	7	7	7	7	7	7	7	7	7	7	7	7	7	8	8	8	8	8	9	9	9	9	9	8	8	7	7	7	7	7	7	7	7	7	7	7	7	7	7	7	7	7	7	7	7	7	7	7	7	7	7	7	7	6	7	9	12	13	13	12	12	12	12	12	12	10	8	6	6	6	6	6	6	6	6	6	6	6	6	6	7	7	6	6	6	6	7	7	7	7	7	7	7	7	7	7	7	7	7	7	7	7	7	7	7	7	7	7	7	7	7	7	7	7	7	7	7	7	7	7	7	7	7	7	7	7	7	7	7	7	9	10	6	7	8	8	8	10	13	16	18	21	23	26	29	33	37	40	42	45	43	39	36	35	35	34	33	34	34	36	39	41	42	44	46	49	53	56	58	60	63	66	68	69	69	70	72	75	79	82	85	87	89	91	93	96	99	102	106	110	114	117	119	122	127	129	130	131	132	133	133	134	137	139	139	139	140	141	143	147	150	151	152	153	154	155	156	156	156	156	157	159	161	163	166	170	173	175	176	177	179	181	184	188	191	193	194	195	196	196	197	197	198	198	202	208	211	212	213	214	215	217	217	217	216	215	215	214	216	219	220	220	220	219	219	220	222	224	224	225	227	229	232	235	238	239	240	241	242	243	245	246	248	251	253	255	256	257	257	258	258	258	258	259	260	261	263	264	265	267	269	270	271	272	273	274	274	273	273	273	272	271	270	268	267	265	264	262	259	257	255	253	251	249	248	246	243	241	239	236	233	231	228	226	224	223	221	218	216	213	211	209	207	205	204	202	200	198	196	195	193	192	191	190	188	185	184	182	180	178	178	177	175	173	171	169	167	166	164	163	161	158	156	153	151	149	147	146	145	143	140	139	139	139	139	140	140	140	139	139	139	139	139	140	141	141	141	141	140	139	138	138	138	139	138	138	138	138	138	139	139	139	138	136	136	135	135	134	133	132	130	129	128	125	122	120	117	112	109	108	108	108	107	107	108	109	108	107	106	104	103	101	100	99	99	98	97	97	96	96	95	94	94	95	94	93	92	93	94	92	91	90	90	89	88	88	89	92	94	95	95	96	96	98	99	101	103	103	103	103	101	100	107	114	115	115	118	121	118	117	121	123	122	118	114	114	118	126	126	119	118	118	118	118	118	119	122	128	131	134	136	138	140	142	143	145	148	150	152	154	155	156	157	158	159	159	160	161	163	163	163	163	163	163	162	163	164	167	169	171	173	175	176	178	180	182	184	186	187	188	189	190	191	191	190	188	186	183	180	177	177	179	182	185	188	191	193	195	197	198	199	201	202	203	205	206	207	208	209	209	210	210	210	210	210	210	208	207	207	207	208	210	212	214	215	217	219	221	224	226	228	230	231	231	230	229	228	227	226	225	224	223	222	220	219	219	219	222	225	227	226	225	224	223	222	221	222	224	226	227	226	224	223	223	224	227	229	231	233	235	236	237	237	236	237	238	241	244	246	248	251	253	255	257	257	257	258	258	258	259	259	259	260	261	262	264	265	266	265	265	265	264	265	265	265	267	269	270	271	272	274	275	276	276	278	279	280	279	279	279	279	280	282	283	284	285	284	283	281	281	280	279	278	277	276	275	273	271	269	267	265	263	260	257	254	252	249	247	245	242	240	238	237	235	234	232	231	229	228	227	226	226	225	224	222	220	218	216	214	212	210	207	205	203	200	198	196	194	192	190	189	187	186	185	183	181	179	177	175	173	171	169	168	166	163	161	158	155	153	150	147	144	141	138	134	131	129	126	123	120	118	115	113	111	109	107	106	104	102	99	97	94	91	89	87	84	81	77	74	70	67	63	60	57	54	52	49	46	43	41	38	35	33	31	29	27	25	21	18	17	16	21	25	25	23	20	14	8	6	6	6	5	5	4	2	1	0
0	0	0	0	0	0	0	0	0	0	0	0	0	0	0	0	0	0	0	0	0	0	0	0	0	0	0	0	0	0	0	0	0	0	0	0	0	0	0	0	0	0	0	0	0	0	0	0	0	0	0	0	0	1	3	5	5	5	5	5	5	4	4	4	7	9	12	14	17	19	19	19	19	18	18	18	18	18	18	18	18	18	18	18	18	18	18	18	18	18	18	18	18	18	18	18	18	18	18	18	18	18	18	18	18	18	18	18	18	18	18	18	18	18	18	18	18	18	18	18	18	18	18	18	18	18	17	18	18	18	18	18	18	18	18	18	18	18	18	18	18	18	18	19	19	19	19	19	18	18	17	16	15	14	13	13	12	11	12	13	11	8	7	7	7	7	7	7	7	7	7	7	7	7	7	8	8	8	8	8	9	10	10	10	10	10	10	10	9	8	7	7	6	7	7	7	7	7	7	7	7	7	7	7	7	7	7	7	7	7	7	7	7	7	7	7	7	9	12	13	13	13	13	13	13	13	13	11	9	7	6	6	6	6	6	6	6	6	6	6	6	6	7	7	6	6	6	6	6	7	7	7	7	7	7	7	7	7	7	7	7	7	7	7	7	7	7	7	7	7	7	7	7	7	7	7	7	7	7	7	7	7	7	7	7	7	7	7	7	7	7	7	7	8	9	6	6	8	8	8	9	10	12	16	19	21	24	28	31	33	35	36	39	36	31	29	28	29	30	32	34	35	38	40	41	43	46	49	52	55	58	62	65	67	70	72	73	74	75	79	82	83	84	86	89	91	94	97	99	101	104	107	110	114	118	122	127	134	137	136	135	134	135	135	135	137	139	140	140	140	141	142	145	150	152	153	154	155	156	157	157	158	158	158	159	161	164	167	171	174	176	177	178	181	185	188	191	194	195	197	199	200	199	199	200	202	203	205	209	212	215	216	216	217	218	217	217	216	216	215	216	217	219	220	220	220	221	222	223	224	225	225	226	228	232	237	240	241	242	243	244	244	245	246	248	250	253	255	256	257	258	259	259	260	260	260	260	261	262	264	265	267	269	270	271	272	273	274	274	274	273	273	272	271	270	269	267	266	264	262	260	257	254	252	250	248	246	245	242	240	238	236	233	231	228	226	224	222	221	219	217	215	214	211	209	207	205	203	200	198	196	195	194	192	190	190	188	186	184	182	181	179	177	176	175	173	171	169	168	166	165	162	161	160	157	154	152	149	148	146	146	145	141	138	138	139	139	138	138	139	139	139	138	137	137	138	139	140	140	140	140	140	138	138	138	138	138	137	136	136	136	136	137	137	136	135	134	134	134	133	132	131	130	129	128	127	125	123	122	114	107	107	108	108	107	105	106	109	109	108	106	105	103	101	100	98	98	97	96	95	94	94	93	93	93	93	94	93	92	92	92	92	91	90	90	90	89	87	87	88	91	94	95	95	96	97	98	99	100	102	103	103	103	101	100	103	111	114	115	118	122	123	124	124	125	126	123	118	115	117	124	126	119	118	118	119	118	119	121	125	131	134	135	137	139	140	141	142	145	147	148	150	152	152	153	155	156	157	157	158	159	160	160	160	160	160	160	160	161	163	165	168	170	172	174	175	177	179	181	183	185	186	188	189	190	191	191	190	188	185	182	179	176	176	178	181	185	188	190	192	194	195	196	197	198	199	201	203	206	207	208	209	210	210	211	211	211	211	211	209	209	209	209	210	210	211	212	213	215	217	219	222	225	227	229	230	230	228	227	225	224	223	222	221	220	219	218	217	216	216	219	223	225	224	223	222	221	220	219	220	222	224	224	223	222	221	221	222	225	227	230	232	233	234	234	234	233	234	236	239	242	244	246	249	252	254	255	255	255	256	256	257	257	257	258	259	260	261	263	264	264	264	263	263	263	263	264	265	267	268	270	271	272	272	273	274	275	277	278	279	279	279	280	281	282	283	285	286	287	286	285	284	283	282	281	280	279	278	277	275	273	271	269	266	264	261	259	256	253	251	248	246	244	242	240	238	237	236	234	232	231	230	229	228	227	227	225	223	221	220	218	216	214	211	209	206	204	202	200	198	196	193	192	191	189	188	187	185	183	181	179	177	175	173	171	169	167	165	163	160	158	155	152	148	145	142	140	137	134	132	128	125	122	120	117	115	113	111	109	107	105	103	101	98	96	93	91	89	86	83	79	76	72	69	66	62	59	57	54	52	49	46	43	41	39	38	35	34	32	31	28	24	23	25	28	29	28	23	18	13	7	7	7	6	4	3	3	2	1	1
0	0	0	0	0	0	0	0	0	0	0	0	0	0	0	0	0	0	0	0	0	0	0	0	0	0	0	0	0	0	0	0	0	0	0	0	0	0	0	0	0	0	0	0	0	0	0	0	0	0	0	0	1	2	4	5	5	5	5	5	4	4	4	6	8	11	12	15	18	19	19	18	18	18	18	18	18	18	18	18	18	18	18	18	18	18	18	18	18	18	18	18	18	18	18	18	18	18	18	18	18	18	18	18	18	18	18	18	18	18	18	18	18	18	18	18	18	18	18	18	18	18	18	18	18	18	17	17	18	18	17	18	18	18	18	18	18	18	18	18	18	18	18	18	18	18	19	20	20	20	19	18	17	16	15	14	14	14	14	15	15	13	9	7	7	7	7	7	7	7	7	7	7	7	7	8	8	8	8	9	10	10	10	10	11	11	11	11	11	11	10	9	8	7	7	6	7	7	7	7	7	7	7	7	7	7	7	7	7	7	7	7	7	7	7	7	10	13	14	14	13	13	13	13	13	13	12	10	8	7	6	6	6	6	6	6	6	6	6	6	6	6	7	7	6	6	6	6	7	7	7	7	7	7	7	7	7	7	7	7	7	7	7	7	7	7	7	7	7	7	7	7	7	7	7	7	7	7	7	7	7	7	7	7	7	7	7	7	7	7	7	7	7	7	7	4	5	8	8	8	8	8	10	13	17	19	22	26	29	29	29	29	30	29	27	25	26	28	31	34	36	38	39	40	42	45	48	51	54	57	61	65	68	70	73	75	77	79	81	85	87	87	86	88	92	95	98	100	102	104	107	109	112	116	121	125	130	138	140	141	138	137	138	137	137	138	140	141	141	141	142	143	147	151	153	154	155	156	157	157	158	158	159	160	161	162	165	168	171	173	176	180	182	186	189	190	193	196	198	201	203	203	203	203	204	206	207	208	210	213	216	217	217	218	217	216	216	216	217	217	218	219	220	220	221	222	223	224	225	225	225	225	226	229	235	239	241	243	244	245	246	247	247	248	250	252	254	255	257	258	259	259	260	260	261	261	261	262	264	266	267	268	270	271	273	274	274	274	274	274	273	272	271	270	269	268	266	265	263	261	259	256	253	251	248	245	243	241	239	237	235	232	230	228	226	224	221	220	219	217	215	214	213	211	208	207	204	202	199	197	195	193	192	190	189	188	186	184	183	181	180	177	176	175	174	172	170	169	167	165	163	161	159	158	155	152	150	147	145	144	143	141	137	135	137	139	138	136	136	137	138	138	137	136	135	135	137	139	140	140	140	139	137	137	138	138	137	136	136	135	135	135	135	135	134	133	133	133	132	132	131	129	129	128	127	126	125	124	120	110	107	108	108	107	105	104	107	109	108	106	104	103	103	101	98	97	96	96	95	94	93	91	91	91	91	92	92	92	92	92	91	90	89	89	90	89	88	87	86	88	91	94	95	95	95	96	97	98	99	100	102	103	103	102	101	100	106	111	113	117	121	123	124	124	125	126	125	122	118	117	118	119	118	118	118	118	118	122	126	129	132	134	136	137	138	139	140	142	144	145	146	148	149	149	150	152	153	154	154	155	156	157	157	157	157	158	158	158	159	162	164	166	169	171	173	174	176	178	180	181	183	185	187	188	189	190	190	189	187	185	182	179	176	175	178	181	184	187	190	192	193	193	194	194	195	197	199	202	205	206	208	209	210	211	211	212	212	212	211	211	211	211	212	212	211	211	210	211	213	214	217	220	223	226	227	228	227	226	225	223	221	220	219	218	217	217	216	215	214	214	217	220	222	222	221	220	219	218	218	218	220	221	222	221	219	218	219	221	224	226	228	229	231	231	231	231	230	232	234	237	240	242	244	247	250	251	253	253	253	254	254	255	255	256	257	258	259	260	261	262	262	262	262	262	262	263	263	264	266	268	269	270	271	271	272	273	275	276	277	278	278	279	280	282	283	285	286	287	287	287	287	286	285	285	284	283	281	280	278	277	275	273	270	268	265	262	260	257	254	252	250	247	246	244	242	240	239	237	236	234	232	231	230	229	228	227	226	224	223	221	219	217	215	213	210	208	205	203	201	199	197	195	194	193	191	190	188	186	184	182	180	178	176	174	172	171	169	166	164	162	160	156	153	150	147	144	142	139	137	134	131	127	124	121	119	117	115	113	111	109	107	105	102	100	98	95	93	91	88	84	81	78	74	71	68	65	62	60	57	55	52	49	46	44	42	40	38	37	36	35	33	30	30	32	34	33	30	26	19	13	9	8	7	6	4	3	3	3	2	2
0	0	0	0	0	0	0	0	0	0	0	0	0	0	0	0	0	0	0	0	0	0	0	0	0	0	0	0	0	0	0	0	0	0	0	0	0	0	0	0	0	0	0	0	0	0	0	0	0	0	1	1	1	2	4	5	5	5	5	5	4	4	6	8	10	11	13	16	18	19	19	18	18	18	18	18	18	18	18	18	18	18	18	18	18	18	18	18	18	18	18	18	18	18	18	18	18	18	18	18	18	18	18	18	18	18	18	18	18	18	18	18	18	18	18	18	18	18	18	18	18	18	18	18	18	18	17	17	17	17	17	17	17	18	18	18	18	18	18	18	18	18	18	18	18	18	18	19	20	20	20	20	19	19	18	16	15	14	14	14	15	14	10	7	7	7	7	7	7	7	7	7	7	7	7	7	7	8	8	9	10	10	10	10	11	11	11	12	12	13	12	12	11	10	9	8	7	7	7	7	7	7	7	7	7	7	7	7	7	7	7	7	7	7	7	8	12	15	14	14	14	14	13	14	14	13	10	8	7	7	7	6	6	6	6	6	6	6	6	6	6	7	7	7	7	6	7	7	7	7	7	7	7	7	7	7	7	7	7	7	7	7	7	7	7	7	7	7	7	7	7	7	7	7	7	7	7	7	7	7	7	7	7	7	7	7	7	7	7	7	7	7	7	7	6	5	6	10	9	8	8	8	9	11	14	18	21	25	27	27	27	27	29	29	26	23	24	28	31	34	38	41	42	42	43	46	49	52	55	58	61	66	70	72	74	76	78	81	83	85	88	90	89	91	95	99	101	104	106	108	110	112	114	117	122	126	132	138	141	142	141	139	140	140	139	139	140	141	142	142	141	145	150	152	154	155	156	156	157	158	157	158	160	161	162	164	166	168	170	173	179	184	187	189	191	192	196	200	202	204	205	205	205	206	207	208	209	211	212	214	216	217	217	216	216	216	217	218	219	220	221	222	222	222	223	224	225	226	226	225	225	226	228	231	236	239	241	243	245	246	248	248	248	249	252	254	255	256	257	258	259	260	260	261	262	262	263	264	266	268	270	271	272	273	274	275	275	275	274	273	271	270	269	268	267	266	265	264	262	260	257	255	252	250	246	243	240	238	236	234	232	230	227	226	223	220	218	217	216	214	212	211	211	209	207	206	204	201	198	196	195	192	190	188	187	185	184	182	181	180	178	176	174	174	172	171	169	167	165	162	160	159	157	155	153	150	148	145	143	141	139	136	132	132	134	136	135	135	135	136	137	137	136	136	135	134	135	137	139	139	139	138	137	137	137	137	136	135	135	135	135	134	133	133	132	132	132	132	132	131	130	128	127	127	126	125	125	123	116	108	108	109	108	106	104	105	108	108	106	104	103	102	101	100	98	96	95	94	93	92	91	90	89	89	90	90	91	90	91	91	91	89	88	89	89	88	86	85	84	86	89	92	94	95	95	95	96	97	97	98	101	103	103	102	101	100	101	106	111	114	118	121	122	123	124	125	126	124	121	120	120	120	118	118	118	118	119	124	128	130	132	134	135	136	137	138	139	141	142	143	144	145	146	147	148	148	149	150	151	153	154	154	154	154	155	155	155	156	158	160	163	165	167	169	171	173	175	177	179	180	183	185	186	187	188	189	189	189	187	184	182	178	175	175	178	181	184	187	190	191	192	192	192	192	193	196	199	202	204	205	207	209	210	211	212	212	212	212	212	212	213	214	215	214	213	211	210	209	211	212	215	218	221	223	225	225	225	224	223	221	219	217	216	216	215	214	213	212	212	212	215	218	220	220	219	218	216	215	215	216	218	219	219	218	217	217	217	219	222	224	226	227	228	229	228	228	228	229	232	235	237	239	242	245	248	249	250	250	251	252	253	254	255	255	256	257	258	259	259	260	260	259	259	260	261	261	262	263	265	267	269	269	269	269	271	272	274	275	276	277	278	279	280	283	285	286	287	288	288	288	288	288	287	287	286	285	283	281	280	278	276	273	271	268	266	263	261	258	256	253	251	249	247	246	244	242	241	239	237	236	234	233	232	231	229	228	227	226	224	222	220	218	216	214	211	209	206	204	202	200	198	197	196	194	192	191	189	187	185	183	181	180	178	176	174	172	170	168	166	164	161	157	154	151	148	146	144	142	139	136	133	129	126	124	121	119	116	115	113	110	108	106	104	102	100	97	95	92	89	86	83	79	76	73	70	68	66	63	60	57	54	52	49	47	45	44	42	41	40	39	37	36	36	36	36	35	32	28	21	16	12	10	8	6	6	5	5	5	4	4
0	0	0	0	0	0	0	0	0	0	0	0	0	0	0	0	0	0	0	0	0	0	0	0	0	0	0	0	0	0	0	0	0	0	0	0	0	0	0	0	0	0	0	0	0	0	0	0	0	1	2	2	2	3	4	5	5	5	5	4	4	5	7	10	11	12	14	17	19	19	18	18	18	18	18	18	18	18	18	18	18	18	18	18	18	18	18	18	18	18	18	18	18	18	18	18	18	18	18	18	18	18	19	18	18	18	18	18	18	18	18	18	18	18	18	18	18	18	18	18	18	18	18	18	18	18	17	17	17	17	17	17	17	17	18	18	17	17	18	18	18	18	18	18	18	18	18	18	19	19	20	20	20	20	20	19	17	16	14	13	14	14	9	7	7	7	7	7	7	6	6	7	7	7	7	7	7	7	8	8	8	10	11	11	11	12	12	12	12	13	13	13	13	13	13	12	11	10	8	7	7	7	7	7	7	7	7	7	7	7	7	7	7	7	7	10	14	15	14	14	14	14	14	14	14	11	7	7	7	7	7	7	7	7	7	7	7	7	7	7	7	7	7	7	7	7	7	7	7	7	7	7	7	7	7	7	7	7	7	7	7	7	7	7	7	7	7	7	7	7	7	7	7	7	7	7	7	7	7	7	7	7	7	7	7	7	7	7	7	7	7	7	7	7	7	6	6	10	9	8	8	8	8	9	11	15	19	24	25	26	26	26	27	27	27	24	24	27	30	35	42	46	46	46	46	47	50	52	54	57	61	66	71	73	75	76	79	82	83	84	89	92	92	93	97	101	104	107	110	112	113	115	116	120	123	130	137	140	143	145	145	143	142	141	140	140	140	141	141	142	141	145	150	151	153	156	155	155	157	158	157	158	160	162	163	165	167	169	171	177	183	186	188	191	192	194	198	202	204	205	205	205	207	208	208	209	211	212	214	215	216	216	215	215	216	218	219	220	221	222	223	224	225	225	225	226	226	227	228	227	227	228	231	232	235	239	242	243	245	247	250	250	250	251	254	257	258	257	257	258	260	260	261	263	264	264	265	267	270	272	273	273	274	275	276	276	276	275	273	272	270	268	267	266	265	264	263	262	260	258	255	253	250	248	244	241	238	236	234	232	230	227	225	223	221	218	216	215	214	212	210	209	208	207	205	204	202	200	198	196	194	192	189	187	185	183	181	180	180	179	177	175	173	172	171	169	167	165	161	159	158	156	155	153	151	148	145	143	141	138	135	132	130	130	132	133	132	133	134	135	136	136	136	136	135	133	133	135	136	137	137	137	136	136	136	136	136	135	135	135	133	132	132	131	131	131	132	131	131	130	129	127	126	126	126	125	124	120	114	109	108	109	108	105	104	105	107	107	106	104	102	101	99	99	97	95	94	93	92	91	90	89	89	89	89	89	88	88	89	90	90	89	88	88	87	86	85	84	83	84	87	90	93	94	94	94	95	95	95	97	100	102	103	102	102	101	99	102	108	113	117	120	120	121	123	123	125	125	123	122	123	121	120	118	118	118	119	125	128	130	132	133	134	134	135	136	136	138	139	140	141	142	143	144	145	145	146	147	148	150	151	151	152	152	152	153	153	154	156	159	161	163	166	168	171	173	174	176	178	179	182	184	185	186	187	188	188	188	186	184	181	178	174	175	178	180	183	186	189	190	190	190	190	191	192	195	198	200	202	204	206	208	210	211	212	212	213	213	213	214	215	216	217	216	215	213	210	208	209	210	212	214	217	220	222	222	222	222	221	219	217	215	213	213	213	212	211	210	210	210	213	217	219	219	218	216	214	213	213	214	215	216	216	215	215	215	216	218	221	223	224	225	226	226	226	225	225	227	230	233	235	237	240	243	246	247	247	248	249	250	252	253	254	254	254	255	256	257	258	258	258	258	258	258	259	260	261	262	264	266	268	268	267	268	269	271	272	273	275	276	277	278	281	283	286	287	288	288	289	289	290	290	289	289	288	287	285	282	280	278	276	274	271	269	267	264	262	259	257	254	252	250	249	247	245	244	243	241	239	237	236	234	233	232	231	230	229	227	225	223	221	219	217	215	213	210	208	206	204	202	200	198	197	195	193	192	190	188	186	185	183	181	179	177	176	174	171	169	167	165	162	158	155	153	151	149	146	143	140	137	134	131	128	126	124	121	118	116	114	112	110	108	106	104	102	99	96	93	90	87	84	81	78	75	73	70	68	65	62	60	57	55	52	50	49	48	47	46	44	42	40	40	40	39	38	36	33	29	24	18	15	14	12	10	9	8	7	6	6	5
0	0	0	0	0	0	0	0	0	0	0	0	0	0	0	0	0	0	0	0	0	0	0	0	0	0	0	0	0	0	0	0	0	0	0	0	0	0	0	0	0	0	0	0	0	0	0	0	0	2	4	4	4	4	4	5	5	5	5	4	4	5	9	11	11	13	16	18	19	19	18	18	18	18	18	18	18	18	18	18	18	18	18	18	18	18	18	18	18	18	18	18	18	18	18	18	18	18	18	18	18	19	19	19	18	18	18	18	18	18	18	18	18	18	18	18	18	18	18	18	18	18	18	18	18	18	18	18	17	17	17	17	17	17	18	17	17	17	17	18	18	18	18	18	18	18	18	18	18	18	19	19	20	20	20	20	19	18	16	15	15	15	12	10	10	10	11	9	7	6	6	6	7	7	7	7	7	7	7	6	7	8	9	10	11	13	12	12	12	13	13	13	14	14	14	15	15	14	13	12	10	8	7	7	7	7	7	7	7	7	7	7	7	7	8	12	15	15	14	14	14	14	14	14	12	9	7	7	7	7	7	7	7	7	7	7	7	7	7	7	7	7	7	7	7	7	7	7	7	7	7	7	7	7	7	7	7	7	7	7	7	7	7	7	7	7	7	7	7	7	7	7	7	7	7	7	7	7	7	7	7	7	7	7	7	7	7	7	7	7	7	7	7	7	7	5	7	12	9	8	8	8	8	8	10	13	19	24	26	26	25	24	23	25	29	26	26	25	27	37	44	49	51	50	50	50	51	52	54	56	60	65	71	74	76	77	80	83	84	84	89	92	93	95	99	102	106	110	113	115	117	119	120	122	125	133	141	143	146	148	149	146	144	143	142	142	142	141	140	141	141	143	148	149	151	154	154	154	157	159	159	160	161	163	165	166	168	170	174	182	185	187	190	192	194	197	200	204	205	206	206	207	209	210	210	211	212	214	215	216	216	215	215	215	217	219	221	222	223	224	225	226	227	228	230	229	229	230	232	231	230	231	233	233	234	238	242	243	245	248	251	252	252	254	257	259	259	259	258	259	261	262	263	264	266	267	269	271	274	275	276	276	276	277	277	277	276	275	273	271	269	267	265	264	263	262	261	260	258	255	253	251	248	245	242	240	237	235	233	230	228	226	223	221	218	216	215	214	212	210	209	208	206	205	204	202	201	199	197	196	194	191	189	186	184	182	180	179	178	177	176	174	173	171	169	166	164	162	159	157	156	154	153	151	149	146	144	142	140	136	130	126	124	126	127	127	126	129	132	133	134	134	135	135	134	131	131	132	133	135	136	136	136	136	136	136	135	135	134	133	132	130	130	130	129	130	130	130	130	129	128	127	126	126	125	124	122	117	112	109	108	108	108	105	104	105	106	106	105	104	102	100	98	98	97	95	94	93	91	90	89	89	88	88	88	87	86	86	88	89	89	88	87	86	85	84	84	83	83	84	86	89	91	93	93	93	93	94	94	97	100	101	103	103	103	101	100	99	104	111	115	118	119	120	121	121	124	125	123	123	123	122	122	120	118	118	119	125	129	130	131	133	133	132	132	133	133	135	136	137	139	139	140	141	141	142	143	145	146	147	148	149	149	149	150	151	152	153	155	158	160	163	166	168	171	173	174	175	177	178	180	183	184	185	186	187	187	187	185	183	181	177	174	174	176	179	182	184	186	187	187	188	188	190	192	194	196	198	200	203	206	208	209	211	212	213	213	213	214	215	216	217	218	218	217	214	211	208	207	208	209	212	214	217	219	219	220	219	218	217	215	212	211	210	211	210	209	209	208	209	211	215	217	217	217	215	213	211	211	211	213	213	213	213	213	213	214	216	219	221	222	223	224	223	223	222	223	225	228	230	233	236	238	241	243	244	245	246	247	249	251	253	253	254	254	254	255	256	257	257	257	256	256	257	257	258	259	261	263	265	266	266	266	267	268	270	271	272	273	274	276	278	280	283	285	287	288	289	290	291	291	291	291	290	289	287	285	283	281	279	277	274	272	270	267	265	263	261	259	256	254	252	250	249	247	246	244	242	241	239	237	236	235	234	233	231	230	228	226	224	222	220	218	216	213	211	209	207	205	203	201	199	197	196	194	192	190	189	187	186	184	182	180	178	176	174	172	170	167	165	162	159	157	155	152	150	147	144	141	138	135	133	130	128	125	123	120	118	116	114	112	110	108	106	103	101	98	95	91	88	86	83	81	78	76	73	70	68	65	62	59	57	56	54	53	52	51	49	48	46	45	44	44	43	40	37	34	30	25	20	17	17	16	14	12	9	8	7	7	6
0	0	0	0	0	0	0	0	0	0	0	0	0	0	0	0	0	0	0	0	0	0	0	0	0	0	0	0	0	0	0	0	0	0	0	0	0	0	0	0	0	0	0	0	0	0	0	0	1	3	4	5	5	4	5	5	5	5	5	4	4	7	11	13	13	15	18	19	19	18	18	18	18	18	18	18	18	18	18	18	18	18	18	18	18	18	18	18	18	18	18	18	18	18	18	18	18	18	18	19	19	19	19	19	19	19	19	18	18	19	19	19	19	18	18	18	18	18	18	18	18	18	18	18	18	18	18	18	17	17	17	17	17	17	17	17	17	17	18	18	18	18	18	18	18	18	18	18	18	18	18	19	19	19	19	20	20	19	19	17	17	16	15	14	14	14	14	12	9	8	7	6	6	7	7	7	7	7	7	6	6	7	7	8	10	13	13	13	13	13	13	14	14	14	14	15	15	15	16	16	15	14	12	10	8	7	7	7	7	7	7	7	7	7	10	15	15	15	15	15	15	14	13	11	10	8	7	7	7	7	7	7	7	7	7	7	7	7	7	7	7	7	7	7	7	7	7	7	7	7	7	7	7	7	7	7	7	7	7	7	7	7	7	7	7	7	7	7	7	7	7	7	7	7	7	7	7	7	7	7	7	7	7	7	7	7	7	7	7	7	7	7	7	7	7	5	8	14	13	9	8	8	8	9	11	15	20	24	26	26	24	23	25	27	29	25	24	25	28	39	46	51	54	54	53	53	53	54	55	57	60	64	69	73	77	78	82	85	85	85	90	93	93	96	100	104	108	113	116	117	120	125	125	127	130	137	143	146	148	149	148	147	145	144	144	145	145	143	141	141	142	143	145	147	149	150	153	156	160	162	162	162	163	165	166	168	169	172	178	184	186	189	191	193	195	198	201	203	205	207	209	210	212	212	212	213	214	215	216	216	215	215	215	216	218	220	223	224	226	227	228	230	234	236	237	236	234	234	235	233	232	233	234	234	234	237	241	244	246	249	251	253	254	256	259	260	260	259	259	260	262	263	265	267	269	271	272	274	276	278	278	278	278	278	278	278	276	274	271	269	267	265	263	262	261	260	259	258	256	253	251	249	247	244	241	238	235	233	231	229	227	224	222	219	217	215	213	212	210	209	208	206	204	203	202	200	198	197	196	194	192	190	188	186	183	181	179	177	176	176	174	173	171	169	167	164	162	160	158	156	155	153	151	150	147	145	143	140	138	132	125	122	121	122	122	122	122	125	129	131	132	133	135	135	133	131	130	130	131	133	135	135	135	135	135	135	135	134	133	132	131	129	129	128	128	128	129	129	128	128	127	126	126	125	124	123	121	118	114	110	108	108	107	105	104	104	105	104	104	103	100	98	98	97	95	94	93	92	90	89	88	88	88	88	87	86	84	83	85	87	87	85	85	85	85	84	83	83	82	84	86	89	91	92	92	92	92	93	94	97	99	101	102	103	103	102	102	100	101	107	111	114	117	118	118	118	120	122	120	119	120	122	122	122	120	120	122	127	129	131	131	131	131	130	130	131	132	132	134	135	136	137	137	138	138	139	141	142	143	145	146	147	147	147	148	149	151	153	155	158	161	163	166	169	171	173	174	174	175	177	178	180	182	184	185	186	186	186	184	182	179	176	173	172	175	177	179	181	183	184	185	186	187	189	191	193	195	197	199	203	205	208	209	211	212	213	213	214	215	216	217	218	219	219	218	216	212	208	205	205	206	208	211	213	215	217	217	217	216	215	213	210	209	208	208	208	208	207	206	207	210	213	215	216	215	214	212	210	209	209	210	210	210	210	210	211	212	214	217	219	220	221	221	221	220	220	221	223	226	229	231	234	236	239	241	242	242	243	245	248	250	251	252	252	252	253	253	255	256	256	256	255	255	255	256	257	258	260	262	264	265	265	264	265	266	268	270	271	272	273	275	277	279	282	284	286	287	289	290	291	291	291	291	290	289	287	285	283	281	279	277	275	273	271	269	267	265	263	261	258	256	254	252	251	249	247	246	244	242	241	239	238	236	235	234	233	231	229	227	225	223	221	219	216	214	212	210	208	206	204	202	200	198	196	194	193	191	189	187	186	184	182	180	178	176	175	173	170	168	165	163	160	158	156	153	151	148	145	142	139	136	134	132	129	127	124	121	119	117	116	114	112	110	108	105	103	99	96	93	90	88	86	83	81	78	76	73	70	67	65	62	60	58	57	56	56	54	53	51	50	49	49	47	45	42	39	36	32	27	22	20	20	19	17	14	11	9	8	7	7
0	0	0	0	0	0	0	0	0	0	0	0	0	0	0	0	0	0	0	0	0	0	0	0	0	0	0	0	0	0	0	0	0	0	0	0	0	0	0	0	0	0	0	0	0	0	0	0	2	4	5	5	5	5	5	5	5	5	5	4	5	8	12	15	15	17	19	19	19	18	18	18	18	18	18	18	18	18	18	18	18	18	18	18	18	18	18	18	18	18	18	18	18	18	18	18	18	19	19	19	19	19	19	19	19	19	19	19	19	19	19	19	19	19	18	18	18	18	18	18	18	18	18	18	18	18	18	18	17	17	17	17	17	17	17	17	17	18	18	18	18	18	18	18	18	18	18	18	18	18	18	18	18	18	19	19	19	19	19	18	18	16	16	16	16	15	15	13	12	10	9	8	7	7	7	7	7	7	7	7	7	7	6	7	8	10	12	12	12	13	14	14	14	15	15	15	15	15	16	16	17	17	17	16	14	11	9	7	7	6	7	7	7	8	13	16	15	15	15	15	15	13	9	8	8	7	7	7	7	7	7	7	7	7	7	7	7	7	7	6	6	7	7	7	7	7	7	7	7	7	7	7	7	7	7	7	7	7	7	7	7	7	7	7	7	7	7	7	7	7	7	7	7	7	7	7	7	7	7	7	7	7	7	7	7	7	7	7	7	7	7	7	7	7	7	5	8	14	13	9	8	8	8	10	14	19	22	24	25	24	22	26	29	28	27	27	27	27	29	43	48	50	54	55	55	56	57	57	57	59	61	63	66	70	76	79	82	86	86	87	91	94	94	96	100	105	110	114	117	119	123	129	131	134	138	141	146	148	149	148	146	146	146	146	146	147	147	145	143	143	143	144	145	147	148	149	155	160	162	163	164	163	163	165	167	169	171	175	181	185	187	190	193	194	195	197	201	202	203	207	210	213	215	215	215	216	216	216	216	216	216	217	217	218	220	221	224	226	230	232	232	234	239	240	240	238	236	235	235	234	233	234	235	236	235	237	241	243	246	249	251	253	255	257	260	261	261	260	260	262	264	266	268	271	273	274	275	277	278	279	280	280	280	280	279	277	275	272	270	268	266	263	261	260	259	258	257	255	254	252	249	247	245	242	239	236	233	231	229	226	224	222	220	218	216	214	212	211	209	208	207	205	203	202	200	198	197	196	194	193	191	190	188	185	183	181	179	177	175	173	172	170	169	167	165	162	161	159	157	155	153	152	150	148	146	144	142	139	133	126	122	121	121	121	121	121	121	124	126	128	130	132	134	135	134	131	129	130	130	132	133	134	135	135	135	134	134	133	132	131	129	128	127	127	127	127	127	127	127	126	126	125	125	124	123	122	120	118	115	113	111	108	106	105	104	104	104	103	102	100	97	96	95	94	92	92	92	91	88	87	86	86	86	86	86	84	82	80	82	84	84	83	83	85	85	84	83	82	83	84	87	89	90	90	90	90	91	91	93	96	98	100	102	103	102	100	101	101	98	103	108	111	113	113	111	110	111	113	111	109	112	118	122	122	122	124	127	128	129	130	130	129	128	128	129	130	131	132	132	133	134	135	135	136	136	137	139	140	141	142	143	144	145	145	147	148	150	152	155	158	162	164	167	169	171	172	173	173	174	175	176	178	180	182	184	184	184	184	183	181	178	175	172	171	173	175	177	179	181	182	184	186	188	189	191	193	195	197	200	203	205	207	209	210	211	212	213	214	215	216	217	218	219	219	218	216	212	208	205	204	204	205	207	210	212	213	214	214	214	213	211	208	207	206	206	206	205	204	204	205	208	211	214	215	214	213	211	208	207	206	206	206	206	207	208	209	211	213	215	217	218	219	219	218	218	218	220	222	224	227	230	232	234	236	238	239	240	242	244	247	249	250	251	251	251	251	251	253	254	254	254	254	254	254	255	256	257	258	260	262	263	263	263	263	265	267	269	270	271	272	274	276	278	280	282	284	286	288	290	291	291	291	290	289	288	287	285	283	281	279	277	275	274	272	270	268	266	265	263	260	258	256	255	253	251	249	247	245	244	242	241	239	238	236	235	234	232	230	228	226	224	222	219	217	215	213	210	208	206	204	202	200	198	196	195	193	191	189	187	185	183	181	179	178	176	175	173	171	168	166	164	161	159	157	154	151	148	145	142	139	137	135	132	130	128	125	123	121	119	118	116	115	113	110	107	104	101	97	95	93	91	89	86	84	81	78	75	73	70	68	66	63	61	61	60	59	57	56	55	54	54	52	50	47	44	41	38	35	31	26	24	23	22	19	16	14	13	12	10	9
0	0	0	0	0	0	0	0	0	0	0	0	0	0	0	0	0	0	0	0	0	0	0	0	0	0	0	0	0	0	0	0	0	0	0	0	0	0	0	0	0	0	0	0	0	0	0	0	2	4	5	5	5	5	5	5	5	5	4	4	5	7	12	16	17	19	20	19	18	18	18	18	18	18	18	18	18	18	18	18	18	18	18	18	18	18	18	18	18	18	18	18	18	18	19	19	19	19	19	19	19	19	19	19	19	19	19	19	19	19	19	19	19	19	18	19	19	19	18	18	18	18	18	18	18	18	18	18	18	18	18	18	17	17	18	18	18	18	18	18	18	18	18	18	18	18	18	18	18	18	18	18	18	18	18	18	18	18	18	18	18	17	17	17	17	17	16	15	14	12	11	10	9	8	8	7	7	7	7	7	7	7	7	6	7	7	9	9	10	11	13	14	14	14	15	15	16	16	16	16	16	17	18	17	17	17	16	14	11	9	8	7	7	10	16	16	16	16	16	15	14	10	7	7	7	7	7	7	7	7	7	7	7	7	7	7	7	7	7	6	6	7	7	7	7	7	7	7	7	7	7	7	7	7	7	7	7	7	7	7	7	7	7	7	7	7	7	7	7	7	7	7	7	7	7	7	7	7	7	7	7	7	7	7	7	7	7	7	7	7	7	7	7	8	8	6	10	14	12	9	8	8	10	14	18	21	23	24	25	25	24	26	29	27	28	34	36	31	31	44	50	51	53	56	59	61	62	62	61	61	62	65	67	69	73	77	81	84	85	88	93	94	94	96	101	105	110	115	118	121	125	132	134	137	140	143	147	148	148	147	147	147	148	148	149	150	150	148	146	145	145	145	147	148	148	150	156	161	162	163	163	163	163	165	168	170	172	176	182	186	188	192	194	195	196	198	201	201	203	208	212	215	217	218	218	218	218	217	217	217	218	219	220	221	222	223	225	230	234	236	235	235	240	242	241	239	237	236	236	236	236	236	237	238	238	239	242	244	248	251	253	255	256	258	261	263	263	262	263	265	267	269	271	274	275	276	278	279	280	281	282	282	282	281	279	276	273	271	268	266	264	261	259	257	257	256	255	253	252	250	247	245	243	240	238	235	231	229	227	224	222	220	219	217	215	213	212	210	208	207	205	204	202	201	199	197	196	194	193	192	190	188	186	184	182	180	178	176	174	172	169	168	167	165	162	161	159	158	156	154	152	151	149	147	145	143	140	133	125	122	121	121	121	121	121	121	122	123	126	128	129	131	133	134	132	130	130	130	130	131	132	133	134	134	134	133	133	132	130	129	128	126	125	125	126	126	126	126	125	125	125	125	124	123	122	120	119	117	115	113	110	107	106	105	104	103	102	101	99	96	94	93	92	90	89	89	90	89	87	85	84	83	83	83	83	82	80	79	80	83	83	83	82	83	84	83	82	82	83	85	86	87	87	88	88	89	89	90	92	95	98	100	101	102	101	99	100	100	98	100	106	109	108	107	105	103	103	104	103	103	104	111	119	121	122	124	128	128	128	128	128	127	126	126	127	128	129	130	131	132	132	133	134	134	135	136	137	138	139	140	141	143	143	144	146	148	149	151	155	159	162	165	167	168	170	171	171	172	173	173	174	175	178	180	182	183	183	182	181	179	177	174	171	170	171	174	175	177	180	182	184	187	189	191	192	194	196	198	200	203	205	207	208	210	211	212	213	214	215	216	217	218	219	219	218	216	212	209	206	204	203	203	204	206	208	210	211	211	211	210	209	207	205	203	203	203	203	202	202	204	208	211	213	213	213	211	210	207	206	204	204	203	203	204	205	208	210	212	214	215	216	217	216	215	215	216	218	220	222	225	228	230	232	234	235	237	238	240	243	246	248	249	249	249	249	249	249	250	252	252	253	253	253	253	254	255	256	256	257	259	260	260	261	261	263	265	267	268	270	271	273	275	277	279	281	283	285	287	289	289	290	289	289	288	287	286	285	283	281	279	278	276	275	273	272	270	268	266	264	262	261	259	257	255	253	251	249	247	245	244	242	241	239	238	237	235	233	231	229	227	224	222	219	217	215	212	210	208	206	204	202	201	199	197	195	193	191	189	187	185	183	181	179	178	176	175	173	171	169	167	165	163	160	157	154	152	149	146	143	140	138	136	134	132	130	127	125	123	121	120	119	117	115	112	110	106	103	100	98	96	94	91	89	86	84	81	79	76	73	71	69	67	65	64	63	61	59	58	58	58	57	54	52	49	46	43	41	38	35	31	28	26	25	22	20	18	19	19	17	13
0	0	0	0	0	0	0	0	0	0	0	0	0	0	0	0	0	0	0	0	0	0	0	0	0	0	0	0	0	0	0	0	0	0	0	0	0	0	0	0	0	0	0	0	0	0	0	1	2	4	5	5	5	5	5	5	5	5	4	5	7	9	12	17	20	20	20	19	18	18	18	18	18	18	18	18	18	18	18	18	18	18	18	18	18	18	18	18	18	18	18	18	19	19	19	19	19	20	20	20	20	20	20	20	20	19	19	19	19	19	19	19	19	19	19	19	19	19	19	18	18	18	18	18	18	18	18	18	18	18	18	18	18	18	18	18	18	18	18	18	18	18	18	18	18	18	18	18	18	18	18	18	18	18	18	18	18	18	18	18	18	17	17	18	19	19	18	19	17	14	11	11	11	10	9	9	8	7	7	7	7	7	7	7	7	7	8	8	8	9	11	12	12	12	14	16	16	16	16	16	17	17	17	17	17	17	18	18	17	16	14	11	10	14	16	16	16	16	16	15	13	8	6	7	7	7	7	7	7	7	7	7	7	7	7	7	7	7	7	6	6	7	7	7	7	7	7	7	7	7	7	7	7	7	7	7	7	7	7	7	7	7	7	7	7	7	7	7	7	7	7	7	7	7	7	7	7	7	7	7	7	7	7	7	7	7	7	7	7	7	7	7	7	8	6	7	11	12	11	9	8	8	12	18	21	22	24	25	26	27	26	27	29	29	33	38	39	35	36	44	51	53	55	59	62	64	67	68	67	65	65	67	68	69	72	76	79	82	84	88	92	93	93	96	101	106	111	115	118	121	126	133	135	137	140	144	148	149	148	148	149	151	151	151	152	153	152	150	148	147	147	148	150	150	150	151	157	160	161	162	162	162	163	166	169	171	173	177	183	187	190	193	195	197	198	199	201	203	206	210	213	216	218	218	218	218	218	218	218	219	220	221	223	224	225	226	228	233	237	238	238	238	240	241	242	242	240	239	238	238	238	239	239	240	241	243	245	248	252	254	256	258	259	260	263	265	265	265	266	267	269	271	274	276	277	279	280	282	283	284	284	284	283	281	279	276	272	270	267	265	262	260	257	255	254	253	252	251	250	248	245	243	241	239	236	233	230	227	225	223	221	219	218	216	214	213	211	210	208	206	204	203	202	200	199	197	195	193	192	189	188	186	185	183	181	179	177	175	173	171	168	167	165	163	160	159	157	156	154	153	151	149	147	145	143	140	136	126	122	121	121	121	121	121	122	121	120	121	125	128	129	130	131	132	131	130	130	130	130	131	132	133	133	133	133	132	132	131	129	128	127	125	124	124	125	125	125	125	125	125	125	124	123	122	121	119	118	116	113	111	108	106	105	104	103	101	99	97	94	92	92	91	90	88	87	87	87	87	85	84	82	81	81	81	80	80	80	79	80	82	82	82	81	81	81	81	81	81	82	84	85	85	86	86	87	88	89	90	91	94	98	100	101	102	102	101	100	101	100	98	103	107	104	102	102	101	101	101	101	101	102	106	114	119	121	122	125	126	127	127	126	126	124	124	124	124	126	128	129	129	131	132	132	133	134	135	136	137	138	139	141	142	143	144	146	148	150	152	155	159	162	165	166	168	169	169	170	170	170	171	172	173	175	177	179	180	181	180	179	178	176	173	170	169	171	172	175	177	180	183	186	188	190	192	194	195	197	199	201	203	205	207	208	209	210	211	212	213	214	215	217	218	219	219	218	216	213	209	206	204	202	201	202	203	204	206	208	209	209	208	206	204	202	201	200	200	200	200	201	203	206	210	211	212	211	210	209	206	204	203	202	201	201	202	203	206	208	210	212	213	214	215	214	213	213	214	216	218	221	223	226	228	229	231	233	234	236	239	242	245	246	247	247	247	247	247	247	248	250	251	251	251	251	252	253	254	254	254	254	256	257	258	259	260	262	264	265	267	269	270	272	274	276	278	280	282	284	285	287	287	288	288	287	287	286	286	285	283	282	280	279	277	276	275	274	272	270	268	267	265	263	261	259	257	255	253	251	249	247	245	244	243	241	240	238	236	234	232	229	227	225	222	219	217	214	212	210	207	205	204	202	201	199	196	194	192	190	188	186	184	182	181	179	177	176	174	172	171	170	168	166	164	161	158	155	153	150	147	144	142	139	137	135	134	132	130	128	126	124	122	121	119	117	115	112	109	106	103	101	99	97	94	91	89	86	84	82	79	76	74	72	70	68	67	66	63	62	61	61	61	59	56	54	51	48	46	43	41	38	35	33	31	29	26	24	23	25	26	25	21
0	0	0	0	0	0	0	0	0	0	0	0	0	0	0	0	0	0	0	0	0	0	0	0	0	0	0	0	0	0	0	0	0	0	0	0	0	0	0	0	0	0	0	0	0	0	0	1	3	4	5	5	5	5	5	5	5	5	5	5	9	10	12	17	20	21	20	19	18	18	18	18	18	18	18	18	18	18	18	18	18	18	18	18	18	18	18	19	18	18	18	19	19	19	19	20	20	20	20	21	21	21	21	21	21	20	20	20	20	20	20	19	19	19	19	19	19	18	18	18	18	18	18	18	18	18	18	18	18	18	18	18	18	18	18	18	18	18	18	18	18	18	18	18	18	18	18	18	18	18	18	18	18	18	18	18	18	18	18	18	18	18	18	19	20	20	20	21	19	15	11	11	12	12	11	10	10	9	7	7	7	7	7	7	7	7	8	8	8	8	9	9	9	9	11	15	16	16	17	17	17	17	17	17	17	17	18	18	18	18	18	17	16	17	17	16	16	16	16	15	10	7	7	7	7	7	7	7	7	7	7	7	7	7	7	7	7	7	7	6	6	7	7	7	7	7	7	8	7	7	7	7	7	7	7	7	7	7	7	7	7	7	7	7	7	7	7	7	7	7	7	7	7	7	7	7	7	7	7	7	7	7	7	7	7	7	7	7	7	7	7	7	8	8	7	9	9	11	10	8	8	8	15	21	23	24	24	25	27	28	28	28	30	33	37	39	41	41	39	41	47	54	57	60	63	65	69	71	71	71	71	72	71	71	72	75	80	84	84	86	91	92	93	96	101	106	111	115	119	123	128	132	134	136	141	146	149	151	151	152	154	154	154	154	155	156	155	153	150	149	150	153	155	156	156	157	158	157	158	159	160	161	163	165	168	171	174	179	184	188	190	193	195	197	198	200	202	205	209	213	215	217	219	219	218	218	219	220	221	222	223	223	225	226	227	228	230	233	237	239	240	240	240	242	243	244	244	242	240	240	240	241	241	242	244	246	248	252	255	258	259	260	261	262	264	267	268	269	269	270	271	273	276	277	279	281	283	284	286	286	286	285	284	282	279	276	272	270	267	265	261	258	256	254	252	251	250	248	247	245	243	241	238	236	234	232	229	226	223	221	220	218	216	214	213	211	210	209	207	206	204	203	201	200	198	196	195	193	190	188	186	184	183	181	179	178	175	173	172	170	167	166	164	161	159	157	156	155	154	152	150	148	145	144	142	138	131	123	121	121	121	121	121	121	121	121	119	119	123	127	128	129	130	131	130	130	130	131	131	131	132	132	133	133	132	131	131	130	129	127	126	124	123	123	124	124	125	125	125	124	124	123	122	121	119	118	117	115	112	109	107	105	104	102	101	98	96	93	91	90	89	89	88	87	87	86	86	86	84	83	81	80	80	80	79	79	80	80	80	80	81	81	81	80	79	80	80	80	81	83	84	84	85	85	85	86	88	90	91	93	97	99	100	101	102	102	101	100	101	101	102	106	103	101	101	101	101	101	101	101	101	103	109	116	119	120	122	124	124	124	124	124	122	121	121	121	123	125	126	127	128	129	130	131	133	134	135	136	137	138	140	142	143	144	146	149	151	153	156	159	162	164	165	167	167	168	168	168	168	169	169	170	172	174	176	177	178	178	178	176	175	172	169	168	169	172	174	177	180	183	186	189	191	193	194	196	198	199	202	204	205	206	206	207	209	210	211	212	214	215	217	218	220	220	220	218	216	211	207	205	203	201	200	200	201	203	205	206	206	205	204	202	200	198	198	197	197	197	198	201	205	208	210	211	210	209	208	205	203	201	200	199	199	200	202	204	207	209	210	211	212	213	212	211	211	212	214	216	218	221	223	225	227	229	230	232	235	237	241	243	245	245	245	245	245	245	245	246	248	249	249	249	250	251	252	252	252	252	252	253	255	256	257	259	261	263	265	266	268	269	271	273	275	277	279	280	282	283	285	286	286	287	286	286	286	286	285	284	283	282	280	279	278	277	276	274	272	270	268	267	265	263	261	259	257	255	253	251	249	247	246	244	243	242	239	237	235	232	230	227	225	222	219	217	214	212	209	207	205	203	201	200	197	195	193	191	189	187	185	183	182	180	178	177	175	174	172	171	170	169	167	165	162	159	156	154	151	148	146	143	141	139	138	136	134	132	130	128	127	125	123	121	119	117	114	111	108	106	104	101	99	96	93	91	89	87	84	81	79	76	74	72	71	69	67	65	64	64	64	63	61	58	56	53	50	48	46	44	42	40	38	36	34	31	29	29	31	31	29	26
0	0	0	0	0	0	0	0	0	0	0	0	0	0	0	0	0	0	0	0	0	0	0	0	0	0	0	0	0	0	0	0	0	0	0	0	0	0	0	0	0	0	0	0	0	0	0	2	4	5	5	5	5	5	5	5	5	5	4	6	10	11	13	19	21	21	19	18	18	18	18	18	18	18	18	18	18	18	18	18	18	18	18	18	18	18	19	19	19	19	19	19	19	19	20	20	20	21	21	21	21	21	21	22	22	21	21	21	21	21	21	20	20	19	19	19	19	19	19	19	19	18	18	18	18	18	18	18	18	18	18	18	18	18	18	18	18	18	18	18	18	18	18	18	18	18	18	18	18	18	18	18	18	18	18	18	18	18	18	18	18	18	18	19	19	20	20	21	20	16	13	12	13	13	12	12	13	11	9	8	7	7	7	7	7	8	9	9	8	9	9	9	9	8	9	11	13	16	17	18	17	17	17	17	17	18	18	18	18	18	18	18	18	17	17	17	17	17	16	13	8	7	7	7	7	7	7	7	7	7	7	7	7	7	7	7	7	7	7	6	7	7	7	7	7	7	8	9	8	7	7	7	7	7	7	7	7	7	7	7	7	7	7	7	7	7	7	7	7	7	7	7	7	7	7	7	7	7	7	7	7	7	7	7	7	7	7	7	7	7	7	6	6	7	10	12	11	10	9	8	8	10	17	22	24	24	25	26	28	29	30	30	31	35	38	40	43	44	42	41	42	48	55	60	64	66	68	70	72	73	74	74	75	73	73	76	81	85	85	87	89	91	93	96	101	106	111	114	119	125	127	131	133	136	141	147	150	152	155	156	156	156	156	157	157	157	157	156	155	153	153	155	157	158	159	160	160	160	157	157	159	162	163	164	167	171	176	181	185	189	190	193	196	197	198	200	204	208	212	215	217	219	220	219	218	219	221	223	224	225	226	226	226	227	228	230	231	234	236	238	240	241	242	244	246	248	246	244	242	242	242	243	244	246	247	248	250	254	257	259	260	261	262	263	267	270	272	273	273	274	274	276	278	280	282	284	286	287	288	288	287	286	284	281	278	275	272	270	267	265	261	258	255	253	250	249	247	245	244	242	240	238	236	234	232	230	227	224	221	219	218	216	215	213	212	210	209	208	207	206	204	203	201	200	198	196	195	192	189	186	184	183	181	179	178	176	174	172	170	168	166	165	163	160	158	156	154	153	153	151	148	146	144	142	140	135	126	122	121	121	121	121	121	120	119	119	118	118	120	124	127	129	130	131	130	130	131	131	131	132	132	132	131	131	131	131	130	129	128	127	125	124	122	121	122	123	124	125	125	124	123	122	121	119	117	116	115	113	109	107	105	104	102	100	99	97	94	93	91	89	89	89	88	87	87	86	86	85	83	82	80	80	81	80	79	78	79	79	80	80	80	81	81	80	79	79	79	78	79	81	83	83	84	85	85	86	87	90	91	92	95	97	99	99	101	102	100	99	100	103	103	107	105	101	101	101	101	101	101	101	101	102	105	111	116	119	120	120	120	121	122	122	120	119	119	120	121	123	124	125	127	128	130	131	132	133	134	135	136	138	140	142	143	145	147	150	152	154	156	159	161	163	164	165	165	165	165	165	166	166	167	168	169	171	173	175	176	176	176	175	173	170	168	168	169	172	174	177	180	183	186	189	191	193	195	197	198	200	202	204	204	205	205	206	207	209	210	211	213	215	217	219	221	222	222	220	219	215	210	206	204	202	200	199	198	199	200	202	203	202	201	200	198	197	195	195	195	195	196	200	203	206	208	209	209	208	206	204	202	200	198	198	198	199	200	203	205	207	208	210	210	210	209	209	209	210	212	214	216	218	220	222	224	226	228	231	233	236	239	242	243	243	244	243	243	242	242	243	245	246	247	247	248	249	250	250	250	250	250	252	253	255	256	257	259	262	264	266	267	268	270	272	274	276	277	278	280	281	283	284	285	285	285	285	285	285	285	285	284	283	282	281	280	279	277	276	274	272	270	269	267	265	264	261	259	257	255	252	250	249	247	246	245	243	241	238	235	233	230	227	225	222	219	217	214	212	209	207	205	203	200	198	196	194	192	190	188	186	184	182	180	179	177	175	174	173	172	171	170	169	167	165	163	160	157	155	152	149	147	145	143	142	140	139	137	135	133	131	129	127	125	123	121	118	116	113	111	109	106	103	100	98	95	93	91	89	86	84	81	78	76	74	72	70	68	67	66	67	66	65	63	61	58	55	53	51	49	47	46	44	43	41	39	35	33	34	35	35	33	31
0	0	0	0	0	0	0	0	0	0	0	0	0	0	0	0	0	0	0	0	0	0	0	0	0	0	0	0	0	0	0	0	0	0	0	0	0	0	0	0	0	0	0	0	0	0	1	3	4	5	5	5	5	5	5	5	5	5	5	7	10	12	15	20	22	21	19	18	18	18	18	18	18	18	18	18	18	18	18	18	18	18	18	18	18	18	19	19	19	19	19	19	19	20	20	20	21	21	21	22	22	22	22	22	22	22	22	22	22	22	22	22	21	21	20	20	20	19	19	19	19	19	19	18	18	18	18	18	18	18	18	18	18	18	18	18	18	18	18	18	18	18	18	18	18	18	18	18	18	18	18	18	18	18	18	18	18	18	18	18	18	18	18	18	18	18	19	20	20	17	15	15	15	15	14	15	17	15	12	11	10	9	9	8	7	8	13	14	10	10	11	12	11	9	8	8	11	14	16	16	15	16	17	17	18	18	18	18	18	18	18	18	18	18	17	17	17	17	16	11	7	7	7	7	7	7	7	7	7	7	7	7	8	8	7	7	7	7	7	7	6	6	7	7	7	8	10	10	9	8	7	7	7	7	7	8	7	7	7	7	7	7	7	7	7	7	7	7	7	7	7	7	7	7	7	7	7	7	7	7	7	7	7	7	7	7	7	7	6	6	7	6	6	7	10	13	13	11	9	8	8	11	20	22	24	24	25	27	29	30	31	31	33	36	39	41	43	44	43	42	42	45	51	58	62	63	65	68	70	73	74	75	77	77	76	77	80	85	86	87	89	91	94	98	102	106	112	116	120	124	127	131	135	138	142	148	151	153	156	158	157	157	158	159	160	160	159	160	160	159	157	156	156	157	158	160	163	163	162	161	162	164	165	165	167	172	178	182	186	188	190	193	197	198	199	203	207	210	214	217	220	221	220	219	219	221	223	225	226	228	229	229	230	231	231	232	234	235	237	239	241	243	245	246	249	251	249	246	245	245	245	246	248	249	250	250	253	255	257	259	261	262	264	267	270	274	276	277	277	278	279	280	281	282	285	287	288	289	290	289	289	287	284	280	277	274	271	269	267	265	262	259	256	253	250	248	245	243	242	240	238	235	233	232	230	228	226	223	220	218	216	214	213	212	211	210	209	208	207	205	204	202	200	199	198	196	194	192	188	185	183	181	180	178	176	175	173	171	169	167	166	164	162	159	157	155	153	152	151	149	147	145	143	141	138	133	126	122	122	121	121	121	120	119	118	117	117	117	118	121	125	128	130	130	130	130	131	132	132	132	132	131	130	130	130	129	128	128	127	126	125	122	121	120	121	122	123	124	123	122	121	120	120	118	115	114	112	110	107	104	103	101	100	99	98	96	95	94	92	91	90	89	88	87	87	86	84	83	82	81	80	80	81	81	79	77	77	79	81	81	82	82	81	80	78	78	77	76	77	79	81	81	83	84	85	85	87	89	90	91	93	96	98	99	100	100	98	97	99	101	103	106	107	102	101	101	101	101	101	101	101	101	103	107	113	117	118	117	116	116	118	119	118	117	118	119	121	122	123	125	126	128	130	131	132	132	133	135	137	138	140	142	143	145	148	150	152	154	156	158	160	162	163	163	163	163	163	163	164	165	166	166	167	168	170	172	174	174	174	173	171	168	166	166	168	172	175	177	180	182	186	189	191	193	195	197	198	200	201	203	203	203	203	203	204	206	208	210	213	215	217	220	222	223	223	222	221	218	215	210	206	203	201	199	197	197	197	198	198	199	199	198	196	195	193	193	193	193	195	198	202	204	206	207	207	206	205	203	201	199	197	196	196	197	199	201	203	205	206	207	208	207	207	206	207	208	210	212	214	216	218	220	222	224	226	229	232	235	238	240	241	242	242	242	241	240	240	240	242	243	244	245	246	247	248	248	247	247	249	251	252	254	255	256	258	260	263	264	266	267	269	271	273	274	276	277	278	279	280	281	282	282	283	283	284	285	285	285	285	285	284	283	282	280	279	278	276	274	273	271	270	268	266	264	262	259	257	255	252	250	249	248	246	244	241	238	236	233	230	227	225	222	220	217	214	212	209	207	205	202	200	197	195	194	192	190	187	184	182	180	179	177	176	174	172	171	171	170	170	168	167	165	164	161	158	156	153	150	148	147	145	144	143	141	139	137	135	134	132	129	127	125	122	120	117	115	113	110	107	105	102	99	97	95	93	91	89	86	83	80	78	76	73	72	70	70	69	69	68	67	65	63	60	58	56	54	52	50	49	48	47	45	43	40	38	39	39	38	37	37
0	0	0	0	0	0	0	0	0	0	0	0	0	0	0	0	0	0	0	0	0	0	0	0	0	0	0	0	0	0	0	0	0	0	0	0	0	0	0	0	0	0	0	0	0	0	2	4	5	5	5	5	5	5	5	5	5	5	5	6	10	13	17	21	22	20	18	18	18	18	18	18	18	18	18	18	18	18	18	18	18	18	18	18	18	18	19	19	19	19	19	19	20	20	20	21	21	21	22	22	22	22	23	23	23	23	23	23	23	23	23	23	22	22	22	21	21	20	20	20	19	19	19	19	19	19	18	18	18	18	18	18	18	18	18	18	18	18	18	18	18	18	18	18	18	18	18	18	18	18	18	18	18	18	17	17	17	17	18	18	19	18	18	18	18	18	18	18	19	19	18	17	18	18	17	18	21	18	15	14	13	13	13	10	8	8	14	17	15	12	12	13	11	9	8	8	11	14	14	13	12	14	15	15	16	17	18	18	18	18	18	18	18	18	18	17	17	17	14	8	7	7	7	7	7	7	7	7	7	7	7	8	12	13	11	9	8	10	10	9	8	9	8	7	7	9	9	8	8	7	7	7	7	6	7	8	8	7	7	7	7	7	7	7	7	7	7	7	6	7	6	6	6	6	6	6	6	6	6	6	6	6	6	6	6	6	6	6	5	4	5	7	10	9	9	11	12	11	9	8	8	11	20	23	24	25	26	28	30	31	32	32	35	38	41	42	42	42	44	43	44	45	47	55	59	60	63	66	69	73	74	76	80	82	81	80	82	85	86	86	88	91	95	100	104	107	113	121	125	129	132	136	139	141	144	149	152	154	157	159	160	160	161	164	165	164	162	162	163	163	161	157	154	155	157	159	162	164	165	166	167	167	167	168	170	174	180	184	188	189	190	195	198	200	201	205	208	211	215	218	221	221	220	220	221	223	225	227	229	233	235	236	237	236	234	235	236	237	239	240	242	245	247	249	251	253	253	251	249	248	248	249	251	251	252	253	256	258	260	262	264	267	269	271	275	277	279	280	281	282	283	283	284	285	287	289	291	291	291	290	289	286	282	279	276	273	270	268	267	265	263	259	256	253	250	247	244	242	241	239	237	234	232	229	228	226	224	221	219	217	215	213	212	211	211	209	208	207	206	204	203	201	200	198	197	195	194	191	187	184	182	180	178	177	176	174	172	170	168	166	164	163	161	158	155	153	152	151	149	148	146	143	141	138	135	131	127	123	122	121	120	120	119	118	118	117	117	117	116	118	122	126	128	128	128	129	131	131	132	132	132	131	130	130	130	129	127	127	127	126	124	121	119	119	119	120	121	122	122	121	120	120	119	117	115	112	111	109	105	102	100	99	99	98	96	95	95	94	92	92	90	89	87	87	86	84	82	82	82	81	80	80	80	80	77	75	76	79	81	83	83	82	81	79	77	77	76	75	76	78	79	80	81	83	84	85	87	89	90	90	92	95	97	98	98	97	95	96	98	100	102	103	106	105	101	101	101	101	101	101	101	101	101	103	108	113	115	114	114	113	115	116	115	116	118	120	122	123	125	126	127	128	130	131	132	133	134	136	138	139	140	142	143	145	148	150	151	153	156	158	160	161	161	161	161	161	161	161	162	163	164	165	166	167	169	170	172	173	172	171	169	167	165	165	167	171	174	177	179	182	185	188	191	193	195	196	197	199	200	201	201	201	200	200	201	203	207	210	213	215	217	220	222	223	224	223	223	221	218	214	210	205	202	200	198	196	195	195	195	196	196	195	194	192	191	191	191	191	194	197	200	202	203	204	205	204	203	202	200	198	195	194	194	195	197	200	201	203	204	205	205	204	204	204	205	206	207	210	212	214	216	218	220	222	224	228	231	234	236	238	239	240	240	240	239	238	237	237	238	240	241	243	244	245	245	245	245	245	247	250	252	253	254	255	256	258	260	263	264	266	268	270	271	273	274	275	276	277	278	279	279	280	281	282	283	284	285	285	285	285	284	284	283	282	281	280	278	277	275	274	272	270	268	266	263	261	259	257	254	252	251	249	247	245	242	239	236	233	230	228	225	222	219	217	214	212	210	207	205	202	200	197	195	194	192	189	186	184	181	179	177	175	174	172	171	170	170	169	169	168	166	165	163	161	159	156	154	151	150	148	147	146	144	143	141	140	138	136	134	132	129	127	124	121	119	116	114	111	108	106	103	101	99	97	95	92	90	87	84	81	79	77	75	73	73	72	72	71	70	69	67	65	62	60	58	56	55	53	52	51	50	49	47	44	43	43	43	42	41	41
