232	231	230	230	230	231	231	231	230	229	228	227	226	225	223	221	219	218	216	215	215	214	212	209	207	204	202	200	197	194	191	187	185	182	178	175	173	170	168	165	162	159	156	153	150	147	145	142	139	134	130	126	122	118	114	110	106	104	101	98	96	93	90	87	85	84	82	80	78	76	75	73	71	69	66	63	61	58	56	54	52	51	51	50	49	47	46	45	44	43	43	43	43	41	40	39	38	36	34	32	31	30	28	26	24	24	23	22	20	19	15	9	5	5	5	5	5	5	5	5	6	6	6	6	6	5	5	5	5	5	5	4	4	4	4	4	4	4	4	4	4	4	4	4	4	3	3	4	4	3	3	2	2	2	2	3	3	3	2	2	2	2	2	2	2	2	2	2	2	2	2	2	2	2	2	2	2	2	2	2	2	2	3	3	3	3	3	4	4	5	4	4	4	4	4	4	5	5	6	6	6	7	7	7	6	6	6	6	7	8	7	7	7	8	8	8	9	8	8	9	9	10	9	9	8	8	7	4	2	2	1	0	0	0	0	0	0	1	2	3	4	5	5	6	6	7	8	9	9	9	9	8	7	5	5	7	8	9	9	9	9	9	9	9	9	9	9	9	9	9	9	9	9	9	9	9	9	9	9	9	9	9	9	9	9	9	9	9	9	9	9	9	9	9	9	9	9	9	9	9	9	9	9	9	9	9	9	9	9	9	9	9	9	9	9	9	9	9	9	9	9	9	9	9	9	9	9	9	9	9	9	9	9	9	9	9	9	9	9	9	9	9	9	9	9	9	9	9	9	9	10	11	13	18	22	23	23	21	17	14	14	14	14	14	15	17	22	24	22	18	15	15	16	17	18	18	18	17	16	17	17	17	17	17	18	18	18	18	18	17	17	18	18	19	19	18	19	21	26	31	31	31	31	32	34	36	38	44	46	43	43	45	47	47	47	48	49	50	52	53	54	54	55	56	58	58	59	61	62	63	65	67	69	71	72	75	77	79	81	83	85	87	89	91	93	95	97	99	101	103	106	108	111	113	116	119	121	123	125	127	129	131	132	134	136	138	140	141	144	146	148	151	152	155	157	160	162	164	167	168	170	171	173	175	177	180	182	183	185	186	188	189	190	192	193	195	196	197	198	199	199	199	200	201	202	204	206	208	210	212	213	215	216	218	220	221	224	227	230	233	236	238	241	244	247	249	252	254	256	257	258	259	260	262	264	266	268	271	274	276	279	283	288	291	295	301	305	307	309	312	315	318	320	323	327	331	333	336	339	343	349	354	358	362	366	371	376	380	383	386	387	387	388	388	388	389	389	389	390	391	393	396	398	400	403	405	406	407	407	407	407	407	406	405	405	406	406	408	409	411	412	414	415	415	415	415	415	416	417	418	421	425	427	429	429	430	430	431	431	432	433	435	436	438	441	445	449	453	457	459	461	463	464	466	467	467	467	468	468	470	472	474	476	477	479	480	479	478	477	476	476	476	477	477	479	481	482	484	485	486	488	490	492	493	492	491	488	484	480	477	474	472	470	468	466	465	465	465	465	465	464	463	463	462	461	460	459	458	456	454	452	450	447	446	446	447	448	448	448	449	449	448	447	445	444	443	442	442	443	444	445	445	445	443	442	440	439	439	439	439	440	440	439	438	437	436	434	432	431	429	428	427	427	426	424	422	419	417	415	413	411	408	404	401	398	395	392	390	388	387	386	384	383	384	384	383	382	382	382	382	382	383	383	384	385	388	390	393	397	400	404	409	413	416	420	426	431	439	447	456	460	461	461	460	459	457	456	455	456	456	456	456	456	457	457	457	457	458	458	459	460	461	462	462	463	463	463	463	463	464	465	466	468	470	471	473	475	476	476	476	476	475	474	473	473	473	473	471	471	471	471	471	471	472	473	473	474	474	474	475	475	475	475	473	471	469	467	465	463	461	459	458	456	455	453	452	451	452	455	458	459	460	461	461	461	460	459	458	457	455	454	454	454	453	453	455	455	456	456	455	453	451	449	448	448	448	449	450	450	450	450	450	451	453	455	457	458	460	463	465	467	467	467	467	467	466	466	466	464	460	456	451	447	444	440	436	433	431	429	426	422	419	416	414	411	408	404	401	398	395	391	389	387	384	379	374	369	366	363	359	356	356	357	358	358	358	358	356	353	350	350	350	350	349	349	350	350	349	349	348	347	349	349	347	345	346	350	352	352	354	355	355	354	353	352	350	349	348	347	346	343	342	340	337	334	331	327	322	319	316	309	308	309	310	311	311	310	310	309	307
237	236	236	236	236	236	236	235	234	233	232	231	230	228	227	225	224	222	221	219	218	217	215	212	209	206	204	202	199	196	192	188	185	183	180	177	174	171	169	166	164	161	157	154	151	148	146	142	138	135	131	126	122	118	115	111	107	104	102	99	96	93	90	88	86	85	83	81	79	78	76	74	71	69	67	64	61	58	56	55	53	51	51	50	49	47	45	44	44	43	42	43	43	41	38	37	37	36	34	32	30	29	27	25	24	23	22	20	19	18	13	8	5	5	5	5	6	7	5	5	5	6	6	6	5	5	5	5	5	5	4	4	4	4	4	5	5	5	4	5	5	5	4	4	4	3	3	3	3	3	3	2	2	2	2	3	3	3	2	2	2	2	2	2	2	2	2	2	2	2	2	2	2	2	2	2	2	2	2	2	2	2	2	2	2	2	2	3	4	4	4	4	4	3	3	4	4	4	4	4	5	5	5	5	5	5	5	5	7	8	8	7	7	7	7	7	7	7	7	8	9	9	9	9	8	8	6	3	2	1	0	0	0	0	0	0	0	1	2	3	4	5	5	6	7	8	9	9	8	7	8	8	7	5	5	7	8	9	9	9	9	9	9	9	9	9	9	9	9	9	9	9	9	9	9	9	9	9	9	9	9	9	9	9	9	9	9	9	9	9	9	9	9	9	9	9	9	9	9	9	9	9	9	9	9	9	9	9	9	9	9	9	9	9	9	9	9	9	9	9	9	9	9	9	9	9	9	9	9	9	9	9	9	9	9	9	9	9	9	9	9	9	9	9	9	9	9	9	9	9	10	12	14	17	20	21	23	23	21	18	14	14	14	15	17	20	23	23	19	15	15	15	15	16	17	18	18	18	17	17	17	17	18	18	18	18	18	18	18	18	18	18	19	19	19	19	19	22	27	31	30	30	30	32	35	37	39	45	48	44	43	45	47	47	47	48	49	50	52	54	54	55	56	57	58	59	59	61	62	63	64	66	68	70	71	73	76	78	80	83	85	86	88	90	92	94	96	98	100	102	105	108	110	113	116	118	120	122	124	126	128	129	131	132	134	135	137	140	142	144	147	149	152	154	156	158	159	161	163	165	167	169	171	173	175	177	179	180	181	183	185	186	188	189	191	192	194	195	196	197	197	197	198	198	199	201	203	205	207	209	210	211	212	214	217	219	220	223	227	230	234	236	239	243	246	249	252	255	258	260	262	263	264	266	268	270	272	274	277	279	282	286	290	294	300	306	309	311	313	316	318	322	325	330	334	336	338	340	342	345	350	354	359	363	368	373	377	382	386	389	390	391	392	392	393	393	393	394	394	395	397	399	400	403	406	408	410	411	412	412	412	412	412	411	411	411	412	413	414	415	417	418	419	419	419	419	420	420	420	421	423	427	430	432	434	435	435	435	436	436	437	439	440	442	445	448	452	456	460	463	465	466	468	470	471	472	473	473	474	476	477	479	481	482	484	485	485	484	483	482	481	481	482	482	483	485	486	487	488	489	491	494	496	497	497	495	493	490	486	483	479	476	474	472	470	469	469	469	469	468	466	466	466	465	464	463	462	461	459	457	455	452	450	449	450	451	452	452	452	452	452	452	450	449	448	447	447	447	447	448	449	449	449	447	446	444	444	443	443	444	444	444	443	443	442	440	438	435	433	432	431	431	430	430	428	425	422	420	418	417	416	413	410	406	402	399	397	394	392	390	388	387	386	386	386	385	385	384	384	384	385	386	386	386	387	390	392	396	400	403	407	411	415	419	423	428	433	439	444	451	457	460	461	461	461	459	458	457	456	456	456	457	457	457	457	457	458	458	458	458	459	460	460	461	462	462	463	463	463	464	465	466	467	469	471	473	474	475	475	475	475	474	474	473	472	472	472	471	470	470	470	470	471	471	472	473	473	474	474	474	475	475	474	473	471	469	467	465	463	461	459	457	456	455	453	451	450	452	455	458	459	460	461	461	460	459	458	457	456	454	453	453	453	452	452	453	454	455	454	453	452	450	448	447	446	447	449	449	449	448	448	447	448	451	454	455	456	458	461	463	464	464	464	464	465	464	464	463	462	458	453	450	447	443	440	436	433	431	428	425	421	418	415	412	410	407	404	401	397	394	392	389	386	383	379	374	369	366	363	359	353	351	352	354	356	356	356	352	348	349	349	347	347	347	346	348	349	348	346	345	346	349	348	344	343	344	346	347	347	350	352	352	352	351	350	348	346	345	344	342	340	339	337	335	333	329	325	321	318	314	308	306	308	309	309	310	310	309	307	305
242	241	241	241	242	241	240	239	238	237	235	234	233	232	231	230	228	227	225	223	221	219	216	214	210	207	205	202	199	196	192	189	186	183	180	178	175	172	169	167	165	162	158	155	152	150	147	143	138	134	131	126	122	118	115	111	108	105	102	99	96	94	91	89	87	86	84	82	80	78	76	74	71	69	66	63	60	58	56	54	52	51	51	50	48	46	44	44	43	42	42	42	42	41	37	35	36	35	33	31	29	28	26	23	22	22	20	19	18	16	11	7	5	5	5	5	7	7	6	5	5	6	5	5	5	5	5	5	5	4	4	4	4	4	5	5	5	5	5	5	5	5	5	4	4	3	3	3	3	3	3	2	2	2	2	3	3	3	2	2	2	2	2	2	2	2	2	2	2	2	2	2	2	2	2	2	2	2	2	2	2	2	2	2	2	2	2	2	2	3	3	3	3	3	3	3	3	3	3	3	3	4	4	4	4	4	4	4	6	7	8	7	7	7	6	6	5	5	5	6	8	9	9	9	8	7	5	2	2	1	0	0	0	0	0	0	1	2	3	4	4	5	6	7	8	8	9	9	7	6	6	7	6	5	5	7	8	9	9	9	9	9	9	9	9	9	9	9	9	9	9	9	9	9	9	9	9	9	9	9	9	9	9	9	9	9	9	9	9	9	9	9	9	9	9	9	9	9	9	9	9	9	9	9	9	9	9	9	9	9	9	9	9	9	9	9	9	9	9	9	9	9	9	9	9	9	9	9	9	9	9	9	9	9	9	9	9	9	9	9	9	9	9	9	9	9	9	9	9	9	10	13	15	16	16	17	20	22	23	22	19	16	15	18	22	23	24	22	16	15	15	15	15	15	16	17	18	19	19	18	17	17	17	18	18	18	18	18	18	18	18	19	19	20	20	19	20	24	30	32	32	31	31	32	35	37	39	45	50	47	44	45	46	46	47	48	50	51	52	54	55	56	56	57	58	59	60	61	62	64	65	66	68	69	71	73	75	77	79	82	84	86	87	89	91	93	95	97	99	102	104	107	110	113	115	118	120	122	123	125	127	128	129	130	131	133	135	138	141	144	146	148	150	152	155	157	157	158	160	162	164	166	168	171	173	174	175	176	177	179	181	183	185	186	188	189	191	192	194	194	194	194	195	196	197	198	201	203	205	207	208	209	210	212	214	216	218	220	223	227	231	234	238	242	245	248	251	255	258	262	264	266	268	270	272	274	276	278	280	283	286	290	294	301	308	312	314	316	318	320	322	326	331	336	340	342	343	344	346	348	352	356	360	365	370	375	379	384	389	392	394	395	395	396	397	397	398	398	398	400	401	402	404	406	409	412	414	415	416	417	417	417	417	416	416	416	417	417	419	420	421	422	423	424	424	424	425	425	424	425	427	430	433	436	438	439	440	440	440	441	442	443	445	447	449	452	456	459	463	466	468	469	471	473	475	476	477	478	479	481	482	484	486	487	489	490	490	490	489	488	487	487	487	487	488	489	490	491	492	493	495	498	500	501	501	500	498	496	492	489	485	482	479	477	475	474	473	473	472	471	470	469	469	468	467	467	465	464	463	460	457	455	453	453	453	454	455	455	455	455	456	455	454	453	452	452	451	450	450	451	452	453	452	451	450	448	448	448	448	448	448	448	448	447	446	444	441	439	436	435	435	435	434	433	431	428	425	423	422	422	420	417	414	411	407	404	401	399	397	394	391	389	389	389	389	388	387	387	386	385	386	388	388	388	389	392	395	398	402	406	410	413	418	422	426	430	434	439	443	449	453	458	461	462	462	461	460	459	458	457	457	457	458	458	458	458	458	458	458	459	459	459	460	460	461	461	462	462	462	463	464	465	466	468	470	472	474	475	475	475	474	474	473	472	471	471	471	470	469	469	469	469	470	471	471	472	473	473	473	474	474	474	473	472	470	468	466	464	462	460	458	457	456	455	453	451	450	452	454	457	459	459	460	459	459	458	457	456	454	453	452	452	451	450	450	451	452	453	453	452	452	450	448	444	443	444	447	448	447	447	446	445	446	449	452	453	453	455	458	460	461	460	460	462	462	462	462	461	459	456	452	449	446	442	439	436	433	430	427	423	420	417	414	410	408	405	403	400	395	392	390	387	384	381	378	374	369	365	361	357	352	349	349	351	353	355	354	349	347	350	349	347	347	346	343	344	346	345	345	344	343	345	344	341	340	342	343	344	346	347	349	350	350	348	347	346	344	342	340	338	337	336	334	333	331	328	323	319	316	313	307	307	308	308	307	306	306	306	304	303
246	246	246	246	246	245	244	244	242	241	239	237	235	235	234	233	232	231	228	226	223	220	217	214	211	208	205	202	199	196	193	190	187	184	181	179	176	173	170	167	165	162	159	156	153	151	148	143	137	133	130	126	122	118	114	111	109	106	103	100	97	95	92	90	89	87	85	83	80	78	76	73	70	68	65	62	59	57	56	53	51	49	49	48	47	45	44	43	42	40	40	40	41	40	37	34	34	33	31	30	29	27	25	22	21	20	18	18	18	15	10	6	5	5	5	5	6	7	5	5	5	5	5	4	5	5	5	5	4	4	4	4	4	5	5	6	6	6	5	5	5	5	4	4	4	3	3	3	3	3	3	2	2	2	2	2	3	2	2	2	2	2	2	2	2	2	2	2	2	2	2	2	2	2	2	2	2	2	2	2	2	2	2	2	2	2	2	2	2	2	2	2	2	3	3	3	3	3	3	3	3	3	4	4	4	4	4	4	5	6	7	7	7	7	6	5	4	5	5	5	6	8	8	8	8	6	3	2	1	1	0	0	0	0	0	0	1	2	3	4	5	5	6	8	8	9	10	9	7	5	6	6	6	5	5	6	8	9	9	9	9	9	9	9	9	9	9	9	9	9	9	9	9	9	9	9	9	9	9	9	9	9	9	9	9	9	9	9	9	9	9	9	9	9	9	9	9	9	9	9	9	9	9	9	9	9	9	9	9	9	9	9	9	9	9	9	9	9	9	9	9	9	9	9	9	9	9	9	9	9	9	9	9	9	9	9	9	9	9	9	9	9	9	9	9	9	9	9	9	9	11	13	14	13	13	13	16	20	22	23	23	21	20	22	23	23	22	18	15	15	15	15	15	15	15	16	17	19	19	19	18	18	18	18	18	18	18	18	18	18	18	19	20	20	20	20	22	26	31	33	33	32	32	33	36	40	41	45	49	47	46	45	46	46	48	51	53	52	53	55	56	57	57	57	58	59	61	62	63	65	66	67	68	69	71	73	74	76	78	80	83	85	86	88	90	93	94	97	99	101	104	107	110	112	115	117	119	121	122	124	126	127	127	127	128	130	132	136	139	143	145	147	148	150	152	154	155	156	157	159	162	164	166	168	170	171	172	172	174	176	178	180	182	183	184	185	186	188	190	191	191	191	192	193	194	196	198	200	202	204	206	207	208	210	212	214	216	218	221	224	227	232	236	240	244	247	250	254	258	262	265	268	271	274	276	278	280	282	284	287	290	295	301	308	314	316	319	320	322	324	326	330	335	340	344	346	347	349	351	353	355	359	363	368	373	377	382	387	391	394	397	398	399	400	401	401	402	402	402	404	405	406	408	410	412	415	417	419	420	421	422	422	422	422	421	421	422	422	423	424	425	427	428	429	429	429	429	429	428	429	430	433	436	439	441	443	444	445	445	446	447	448	450	452	454	457	460	463	466	469	470	472	473	475	477	479	480	481	483	484	486	488	490	491	493	493	494	494	493	493	492	491	491	491	491	492	493	494	496	497	499	502	504	505	505	504	503	501	498	494	491	487	484	482	480	479	478	477	476	475	474	473	472	471	471	470	469	467	465	462	459	457	456	456	456	457	458	458	458	458	459	459	458	457	456	456	455	454	454	455	456	456	456	455	453	452	452	452	452	452	452	452	451	451	450	448	445	442	440	439	439	438	438	437	434	431	428	427	427	426	424	421	418	415	412	409	406	403	401	398	395	393	392	392	391	390	390	389	389	387	387	389	390	390	391	394	397	400	404	408	411	415	418	422	426	430	434	438	442	447	451	454	458	461	462	462	461	460	459	458	458	458	458	459	459	459	459	459	459	459	459	459	459	460	460	460	461	461	462	462	463	464	465	467	469	471	474	475	475	474	474	473	472	472	471	471	470	470	469	469	469	469	470	470	471	471	472	472	473	473	473	473	472	470	468	466	465	463	461	459	458	456	455	454	452	451	451	451	453	456	457	458	458	458	457	457	456	454	453	452	451	450	448	448	448	448	450	450	449	449	450	449	446	442	440	441	443	444	444	444	443	443	444	447	449	450	452	454	456	457	456	456	457	459	461	461	460	459	457	454	450	447	444	440	437	434	431	428	425	422	418	415	412	409	406	403	400	396	392	389	387	385	382	380	377	373	368	363	359	356	352	348	347	347	349	351	350	346	347	348	349	347	345	342	339	338	341	342	342	341	340	341	340	338	339	341	340	342	345	347	348	347	346	344	343	343	343	340	337	335	334	333	332	330	328	325	321	317	314	307	304	309	309	307	305	303	303	302	301	302
251	250	250	249	249	249	249	248	246	244	242	240	239	238	237	236	234	232	230	228	225	222	219	215	212	209	206	203	199	196	193	191	188	185	182	180	178	174	171	168	165	162	160	157	154	151	148	142	136	132	129	125	122	119	115	112	109	106	103	101	98	96	94	91	90	88	86	83	80	78	76	73	69	67	64	61	59	57	54	52	49	48	47	47	45	43	42	42	41	39	38	38	39	38	36	34	32	31	30	29	28	26	24	22	20	19	18	18	18	16	10	7	5	5	5	5	6	6	5	5	5	5	4	4	4	5	5	4	4	4	4	5	5	5	6	6	6	6	5	5	5	5	4	4	3	3	3	4	4	4	3	2	2	2	2	2	2	2	2	2	2	2	2	2	2	2	2	2	2	2	2	2	2	2	2	2	2	2	2	2	2	2	2	2	1	1	1	1	1	1	1	2	2	2	3	3	3	3	3	3	3	4	4	4	5	5	4	4	4	5	6	6	7	8	7	5	4	4	5	5	5	6	6	7	7	5	2	2	1	1	0	0	0	0	0	0	1	2	3	4	5	6	7	8	8	8	9	9	7	6	6	6	5	5	4	6	8	9	9	9	9	9	9	9	9	9	9	9	9	9	9	9	9	9	9	9	9	9	9	9	9	9	9	9	9	9	9	9	9	9	9	9	9	9	9	9	9	9	9	9	9	9	9	9	9	9	9	9	9	9	9	9	9	9	9	9	9	9	9	9	9	9	9	9	9	9	9	9	9	9	9	9	9	9	9	9	9	9	9	9	9	9	9	9	9	9	9	9	9	10	12	13	13	13	12	13	15	17	18	20	23	23	23	24	23	22	17	15	15	15	15	15	15	15	15	15	16	17	18	19	21	21	19	18	18	19	18	18	18	18	18	20	20	21	20	20	24	28	32	32	32	32	32	33	37	43	44	44	45	46	46	46	46	47	50	55	56	55	54	55	56	57	57	58	59	60	61	62	64	65	66	67	68	69	71	72	74	76	77	79	82	84	86	88	90	92	94	97	99	101	104	106	109	112	114	116	118	120	121	123	124	125	125	125	126	128	131	134	138	141	144	146	147	148	149	151	152	154	155	157	160	162	164	165	167	168	169	169	170	173	176	178	180	181	181	181	182	184	186	188	188	189	190	191	192	193	195	197	199	201	203	205	207	209	211	212	214	217	219	222	225	229	234	238	243	246	249	253	257	261	265	269	273	277	279	282	284	286	289	292	295	300	306	312	317	320	323	325	326	328	331	334	339	343	347	349	352	354	355	357	359	363	367	372	376	380	384	389	393	397	399	401	402	403	404	405	405	406	406	407	409	411	412	413	415	418	421	423	424	426	427	427	428	427	427	426	426	427	428	429	430	432	433	433	434	433	433	433	433	433	435	436	439	442	444	446	447	449	450	451	452	454	455	457	459	461	463	466	469	471	473	474	475	477	478	480	481	482	484	486	488	490	492	493	494	495	495	496	495	495	495	494	494	494	494	495	496	498	499	501	503	505	507	509	509	508	507	505	503	499	496	493	490	487	485	484	483	481	480	479	478	477	476	475	474	473	472	470	468	465	462	460	460	460	459	460	461	461	462	462	462	462	461	460	460	460	459	458	458	458	459	460	459	458	457	457	456	456	457	457	456	456	455	455	453	451	448	446	444	443	443	442	441	440	437	435	432	432	431	430	428	425	422	420	417	414	410	406	403	401	398	396	396	396	394	393	392	392	391	390	389	390	391	391	393	395	398	401	404	408	411	415	418	422	425	429	433	437	440	444	448	451	456	459	462	462	462	460	459	459	458	459	459	459	460	460	460	460	460	460	460	460	459	460	460	460	460	461	461	462	463	463	464	466	468	470	472	473	474	473	473	472	471	471	471	470	470	469	468	468	468	469	469	470	470	471	471	471	472	472	472	471	470	468	466	465	463	462	460	459	457	456	455	454	452	451	450	450	451	454	455	456	456	456	455	455	454	453	452	450	449	448	447	446	446	446	446	446	446	447	447	447	445	441	439	439	440	440	441	441	441	441	443	445	447	448	450	452	453	453	452	453	455	458	459	459	458	457	456	453	450	446	443	439	436	434	431	428	425	422	418	414	411	409	406	402	398	394	390	387	385	382	381	378	375	371	366	361	358	355	352	347	344	344	344	345	344	343	345	346	347	346	343	340	338	337	338	339	339	338	337	337	337	337	339	340	337	339	344	346	347	345	342	340	339	339	339	336	334	333	332	331	330	328	325	322	319	317	311	301	300	307	309	307	303	302	302	301	300	301
254	254	253	253	253	253	253	252	250	248	245	243	242	240	239	237	236	234	231	229	227	223	220	216	213	210	207	203	200	197	195	192	189	186	183	181	179	176	172	169	166	164	161	159	155	152	148	142	137	133	128	125	122	119	115	112	109	106	103	101	99	96	94	92	90	87	85	82	80	78	75	72	69	66	63	61	58	56	53	51	48	46	45	45	43	41	40	40	39	37	36	36	36	36	35	33	31	30	29	28	27	25	23	22	21	20	19	19	19	16	12	9	6	4	5	5	6	6	5	4	4	4	4	4	4	5	5	4	4	4	4	5	5	6	6	7	7	6	5	5	5	5	4	3	3	3	3	4	5	4	3	2	1	2	2	2	2	2	2	2	2	2	2	2	2	2	2	2	1	1	1	2	2	2	2	2	2	1	1	0	0	1	1	1	0	0	0	0	0	0	1	1	2	2	2	2	2	3	3	3	3	4	4	4	5	4	4	4	4	4	4	5	6	8	8	6	4	4	5	5	5	5	5	5	5	3	2	2	1	0	0	0	0	0	0	0	2	3	3	4	5	6	7	8	7	7	8	9	8	6	5	5	5	5	4	5	8	9	9	9	9	9	9	9	9	9	9	9	9	9	9	9	9	9	9	9	9	9	9	9	9	9	9	9	9	9	9	9	9	9	9	9	9	9	9	9	9	9	9	9	9	9	9	9	9	9	9	9	9	9	9	9	9	9	9	9	9	9	9	9	9	9	9	9	9	9	9	9	9	9	9	9	9	9	9	9	9	9	9	9	9	9	9	9	9	9	9	9	10	11	13	13	13	12	13	13	13	14	14	16	21	23	24	24	23	22	18	15	15	15	15	15	16	16	16	16	16	16	17	19	23	24	22	19	19	18	18	18	18	18	19	20	21	21	20	21	26	30	32	31	30	31	32	34	37	43	45	45	45	45	46	46	46	48	50	54	55	54	54	55	56	57	58	59	60	61	62	63	64	65	67	68	69	70	71	72	74	75	77	79	81	83	85	87	89	92	94	96	99	101	103	106	108	111	113	115	117	118	120	121	122	123	123	124	125	127	130	133	136	139	142	144	145	146	147	148	150	152	153	155	158	160	162	163	164	165	166	167	168	171	174	176	177	179	179	178	178	180	183	185	185	186	187	188	189	191	193	194	196	199	200	203	205	207	209	211	213	216	218	221	224	228	232	236	240	244	248	252	256	260	265	270	274	278	281	283	286	290	293	296	299	304	309	314	319	323	327	329	331	333	336	339	342	346	350	353	356	358	360	362	364	367	371	375	379	383	387	392	396	399	401	403	404	405	406	407	408	409	410	411	413	414	415	416	418	421	423	426	428	429	430	431	432	432	431	431	431	432	433	435	436	437	437	438	438	437	437	437	437	438	439	440	442	445	447	449	451	453	454	456	457	458	460	461	463	465	467	470	472	473	474	475	476	477	479	480	481	482	484	486	488	490	492	493	494	495	495	496	496	495	495	495	495	496	496	498	499	500	502	504	506	508	510	512	512	512	511	510	508	505	502	498	495	492	490	489	487	486	484	483	482	481	480	478	477	476	475	473	470	467	464	463	464	464	463	463	464	465	465	465	465	465	464	464	464	464	463	462	461	462	463	463	463	462	462	461	461	461	461	461	460	460	459	458	457	454	451	449	448	447	447	446	445	443	441	438	436	436	436	434	432	429	426	424	421	418	414	409	406	403	401	400	400	399	398	396	395	395	394	392	391	391	392	393	395	397	399	402	404	407	411	415	419	422	426	429	433	436	439	443	447	451	455	459	462	462	462	460	459	459	459	459	460	460	460	461	461	461	461	461	461	461	461	460	460	460	460	460	461	461	462	463	464	465	466	468	470	471	472	472	472	471	470	470	470	469	469	469	468	468	468	469	469	469	470	470	470	470	470	470	469	469	467	466	465	463	462	461	460	458	457	456	455	454	452	451	449	449	450	452	453	454	455	455	455	453	453	451	450	449	448	447	446	445	444	444	444	444	444	445	446	446	444	440	438	438	438	439	439	439	440	440	442	443	445	447	449	450	451	450	450	450	453	455	457	457	457	456	454	452	449	446	443	440	437	435	433	430	427	424	421	417	413	411	408	403	397	393	389	387	383	380	378	376	373	368	365	361	357	354	350	346	343	342	341	341	340	340	342	344	345	344	342	340	338	337	336	334	333	334	335	335	336	336	337	335	333	337	341	343	344	342	339	337	336	335	334	333	332	331	330	329	327	325	322	320	318	316	309	301	302	306	308	305	302	302	301	301	299	300
257	256	256	256	257	257	256	255	253	251	248	246	244	242	240	239	237	235	232	230	227	224	220	217	214	211	207	204	201	198	196	193	190	187	184	182	180	177	173	171	168	166	163	160	157	153	149	143	138	134	129	125	122	119	115	112	109	106	103	101	99	97	95	92	89	87	84	82	79	77	74	72	68	66	63	61	58	55	53	50	48	46	44	43	41	40	38	38	37	35	34	34	34	34	33	32	30	29	28	27	26	24	23	22	21	20	18	19	18	15	13	10	6	4	5	5	6	6	5	4	4	5	5	5	5	5	4	4	4	4	5	6	5	6	7	8	8	6	5	5	6	5	4	3	3	3	3	3	4	3	2	1	1	1	2	2	2	2	2	2	2	2	2	2	2	2	2	2	1	0	1	2	2	2	2	2	1	0	0	0	0	0	0	0	0	0	0	0	0	0	0	0	1	2	2	2	2	2	2	3	3	3	4	4	4	4	4	4	4	4	4	4	5	6	7	7	5	5	5	5	5	4	4	3	3	2	2	2	1	0	0	0	0	0	0	1	2	3	4	4	5	7	8	8	7	7	8	9	8	7	5	5	5	5	4	5	7	8	9	9	9	9	9	9	9	9	9	9	9	9	9	9	9	9	9	9	9	9	9	9	9	9	9	9	9	9	9	9	9	9	9	9	9	9	9	9	9	9	9	9	9	9	9	9	9	9	9	9	9	9	9	9	9	9	9	9	9	9	9	9	9	9	9	9	9	9	9	9	9	9	9	9	9	9	9	9	9	9	9	9	9	9	9	9	9	9	9	10	11	12	13	12	12	12	13	13	13	13	13	14	18	22	24	24	23	23	22	18	15	14	15	15	15	16	16	16	16	16	16	18	22	24	24	20	19	18	18	18	18	19	20	21	22	21	20	22	28	31	31	30	31	32	33	34	37	42	44	45	45	46	46	46	46	47	49	51	52	53	54	55	56	57	58	59	60	62	63	64	65	66	67	68	69	70	71	73	74	75	77	79	80	82	84	86	88	91	93	96	98	100	102	105	107	110	111	113	115	116	117	119	120	121	122	122	124	126	129	132	134	137	140	141	142	144	145	146	148	149	151	154	156	159	160	161	161	162	163	165	167	170	172	173	175	175	175	175	176	177	180	181	182	183	185	186	188	189	191	193	195	197	199	201	204	206	207	209	212	215	218	220	223	226	230	234	238	243	247	251	255	259	265	270	274	278	281	283	287	292	296	298	302	307	312	317	322	326	330	333	335	337	340	343	346	350	353	357	360	363	366	367	369	372	375	378	382	386	390	395	398	401	403	404	406	407	408	409	411	411	412	413	415	417	418	419	421	423	425	428	430	432	433	434	434	435	435	435	436	436	438	439	440	441	441	442	441	441	441	441	441	442	443	444	446	448	450	452	454	457	459	460	461	462	464	465	467	468	470	471	473	474	475	476	477	478	479	481	482	483	484	486	489	490	492	493	493	494	494	494	495	495	495	496	496	497	498	499	500	501	503	506	508	510	512	513	514	515	515	514	512	510	508	505	502	498	495	494	492	490	489	487	486	485	483	482	480	479	478	476	473	469	467	467	467	467	467	467	468	469	469	469	469	468	468	468	468	467	466	465	465	465	466	467	467	466	466	465	465	465	465	465	465	464	463	462	460	457	454	453	452	452	451	450	449	446	444	441	440	441	440	439	436	433	430	427	425	421	417	412	408	406	404	403	403	402	400	399	398	398	396	395	394	394	394	395	397	398	400	403	405	408	412	416	420	423	427	431	434	437	441	444	449	452	456	460	462	462	462	461	460	459	459	460	460	461	461	462	462	462	462	462	462	462	462	462	462	461	461	461	461	461	462	462	463	464	464	466	468	469	469	470	470	469	469	468	468	468	468	468	468	468	468	468	469	469	469	469	469	469	468	468	467	466	465	464	463	462	461	460	459	458	457	456	455	454	453	451	449	448	449	450	451	452	453	454	453	452	452	450	448	447	446	446	445	444	443	443	443	443	444	444	444	444	443	440	437	436	437	437	437	437	438	439	440	442	443	445	447	448	448	448	448	449	451	453	454	455	455	454	452	450	448	446	443	441	439	437	435	433	430	427	424	420	417	413	408	403	397	392	389	386	382	378	376	374	371	367	364	360	357	353	349	345	343	342	340	339	338	338	339	341	342	341	340	339	337	335	332	329	328	330	332	334	335	334	332	330	330	334	338	340	340	338	336	334	332	330	328	329	330	330	329	327	325	322	320	318	316	315	309	302	302	303	304	301	299	299	299	299	299	298
259	259	259	259	259	259	259	258	256	253	251	248	246	244	242	239	237	234	232	229	226	223	220	217	214	211	208	205	202	200	198	195	191	188	186	184	181	178	175	172	170	167	164	161	158	154	149	143	138	135	130	126	122	118	115	112	109	106	103	101	98	96	94	92	89	86	84	81	79	77	74	71	69	66	64	61	59	56	53	51	49	47	45	44	43	41	38	37	36	34	33	33	33	32	31	30	29	28	27	27	25	24	23	22	21	19	17	17	16	14	12	9	5	4	5	5	6	6	5	4	4	4	5	5	5	5	4	4	5	5	6	6	5	6	7	8	7	6	5	5	6	5	4	3	3	3	3	3	3	3	2	1	0	0	1	2	2	2	2	2	2	2	2	2	2	2	2	2	1	0	0	1	2	2	2	2	1	0	0	0	0	0	0	0	0	0	0	0	0	0	0	0	1	1	1	1	2	2	2	2	3	3	3	4	4	4	4	4	4	4	4	4	5	5	6	7	6	6	5	5	4	4	3	2	2	2	2	1	0	0	0	0	0	0	0	1	2	4	4	5	5	7	9	8	7	7	8	9	8	7	6	5	6	6	5	4	7	8	9	9	9	9	9	9	9	9	9	9	9	9	9	9	9	9	9	9	9	9	9	9	9	9	9	9	9	9	9	9	9	9	9	9	9	9	9	9	9	9	9	9	9	9	9	9	9	9	9	9	9	9	9	9	9	9	9	9	9	9	9	9	9	9	9	9	9	9	9	9	9	9	9	9	9	9	9	9	9	9	9	9	9	9	9	9	9	9	10	11	12	12	12	12	12	12	13	13	13	13	13	15	18	20	21	22	23	23	24	21	16	15	15	15	15	15	16	16	16	16	16	17	19	22	22	20	18	18	18	18	18	19	20	21	22	21	22	26	31	31	31	31	32	33	35	37	39	42	44	45	45	46	47	47	47	48	49	50	51	53	54	55	57	58	59	59	61	62	63	64	65	66	67	69	70	71	72	73	74	75	77	79	80	82	84	86	88	91	93	95	97	99	101	103	106	108	109	111	113	114	115	116	117	118	119	120	122	125	128	130	132	134	136	137	139	141	143	144	145	146	149	152	154	156	157	158	158	159	161	163	165	168	170	171	172	173	172	173	174	175	177	178	180	181	183	185	186	187	189	191	193	195	197	199	202	205	206	208	211	214	217	219	222	225	229	233	237	242	246	250	254	258	264	269	273	277	279	282	286	291	295	299	304	309	314	319	324	329	333	337	339	342	345	347	350	353	357	361	364	367	370	372	375	377	379	382	385	388	393	396	399	402	404	405	407	408	410	411	412	413	414	415	416	418	419	421	422	424	426	429	431	432	434	435	436	436	437	437	438	438	439	441	442	442	443	443	443	444	444	444	445	445	446	448	449	451	453	455	457	459	461	463	464	465	467	468	468	469	470	471	473	475	476	476	478	479	481	481	481	482	483	486	488	489	491	491	491	491	491	493	494	494	494	495	496	496	497	497	498	500	502	505	508	511	513	514	515	516	516	516	515	514	512	510	507	504	501	499	497	495	494	492	490	488	487	485	484	482	480	478	475	472	470	470	470	471	471	471	471	472	473	473	473	473	472	472	472	471	470	469	468	469	470	470	471	470	470	470	469	469	469	469	469	468	467	465	462	460	458	456	456	456	455	454	452	449	447	445	444	445	444	443	440	437	434	431	428	424	419	415	411	409	407	407	406	405	403	402	402	401	399	398	396	396	397	398	399	400	402	404	407	410	413	417	421	425	429	433	436	440	443	447	451	455	459	461	463	462	462	461	460	460	460	460	461	461	462	462	463	463	463	463	463	464	464	463	463	463	463	462	462	462	462	462	463	463	463	464	465	466	467	467	467	467	467	467	467	467	467	467	468	468	468	468	468	468	468	468	468	467	467	466	466	465	464	463	462	461	461	460	459	458	457	456	455	454	452	451	450	449	448	448	449	450	451	451	452	451	450	449	447	445	445	444	443	443	442	442	441	442	443	443	442	442	441	440	437	436	436	435	434	436	437	438	439	440	442	443	445	446	446	447	447	448	450	451	452	453	453	452	450	449	448	446	444	442	441	439	437	435	432	429	426	422	418	413	408	402	397	393	389	385	381	377	375	373	370	367	364	360	357	355	350	345	343	341	340	338	336	337	337	338	339	339	338	337	335	333	330	328	328	328	329	331	333	332	330	328	328	330	334	337	337	335	332	330	328	326	324	325	327	328	327	325	322	320	319	317	316	314	310	299	298	299	299	298	297	296	297	298	298	297
262	261	261	261	261	261	261	260	257	255	253	250	248	245	243	240	237	234	231	228	225	223	220	217	214	211	209	206	203	201	199	196	192	190	188	185	182	179	176	173	171	167	165	162	158	154	149	142	138	134	130	127	123	119	115	112	109	106	103	101	98	96	93	91	88	86	83	81	79	76	74	72	70	67	65	63	60	57	54	51	50	48	46	45	45	43	39	37	36	34	33	33	32	30	29	28	28	28	28	27	26	24	22	21	19	18	17	16	14	13	12	9	5	4	5	5	5	6	5	4	4	4	4	5	5	5	5	5	6	7	7	7	6	6	8	8	7	6	5	6	6	5	4	3	3	3	3	3	3	2	2	0	0	0	0	1	2	2	2	2	2	2	2	2	2	2	2	2	2	1	0	1	1	2	2	2	1	0	0	0	0	0	0	0	0	0	0	0	0	0	0	0	0	0	0	1	1	1	1	2	2	2	3	3	3	3	3	3	3	3	4	4	4	5	5	6	6	6	5	4	4	3	2	2	2	2	2	1	0	0	0	0	0	0	0	2	3	4	4	5	6	8	9	8	7	7	7	7	8	7	6	6	7	7	5	5	7	9	9	9	9	9	9	9	9	9	9	9	9	9	9	9	9	9	9	9	9	9	9	9	9	9	9	9	9	9	9	9	9	9	9	9	9	9	9	9	9	9	9	9	9	9	9	9	9	9	9	9	9	9	9	9	9	9	9	9	9	9	9	9	9	9	9	9	9	9	9	9	9	9	9	9	9	9	9	9	9	9	9	9	9	9	9	9	9	10	11	12	12	12	12	12	12	13	12	13	13	13	13	14	16	17	17	18	21	23	23	23	20	16	14	15	15	15	16	16	16	16	16	16	17	19	21	20	19	18	18	18	18	19	21	22	22	22	26	30	31	31	31	32	32	34	37	39	41	43	45	45	45	47	49	49	47	48	49	51	52	53	54	56	58	59	59	60	61	62	63	64	66	67	68	70	71	72	72	73	75	76	77	79	80	82	84	86	88	90	92	94	96	98	100	102	103	105	107	109	111	112	113	113	113	114	116	118	121	124	126	128	129	130	131	133	135	138	140	141	142	144	146	149	151	153	154	155	155	157	159	161	163	166	168	170	170	171	171	171	172	173	175	176	178	179	181	183	185	186	187	190	192	193	195	197	200	203	205	207	210	213	216	218	221	225	228	232	237	241	245	249	253	257	263	268	272	275	277	281	285	290	295	300	305	310	315	320	326	331	336	340	343	346	348	351	354	357	360	364	367	371	374	377	380	382	384	386	388	391	394	397	400	402	404	406	408	409	411	412	413	414	415	416	418	419	420	422	424	425	427	429	431	432	434	435	436	437	437	438	438	438	439	440	441	442	443	444	444	445	446	446	447	448	449	450	452	453	455	457	459	461	463	465	466	467	468	468	468	469	470	471	473	474	475	476	477	479	480	480	478	479	480	483	485	486	486	487	487	487	488	490	492	492	493	493	494	494	493	493	494	496	498	502	507	511	512	513	515	516	516	516	516	515	514	513	510	508	506	504	502	500	498	496	494	492	490	489	487	485	483	480	477	474	472	473	473	474	475	475	475	476	476	477	477	477	476	476	475	475	474	473	472	472	473	474	475	475	474	474	474	474	474	474	473	472	471	468	465	463	461	460	460	460	459	458	456	453	450	449	449	449	449	447	444	441	438	434	431	426	421	417	414	413	412	411	410	408	407	406	405	404	402	401	399	400	400	402	403	403	404	406	409	412	415	418	422	426	430	434	438	441	445	449	453	457	460	462	463	463	462	461	461	460	460	461	461	462	462	463	464	464	464	465	465	465	465	465	465	465	465	464	463	463	463	462	463	463	463	463	464	464	465	465	465	466	466	466	466	466	466	467	467	467	467	467	467	467	467	467	467	466	466	465	465	464	463	462	462	461	460	459	459	458	457	456	454	453	452	451	450	449	448	447	448	448	449	449	450	450	449	448	446	444	443	442	441	441	441	441	441	441	443	443	442	441	441	440	438	436	435	433	432	435	437	437	437	439	440	441	443	443	445	446	446	447	448	450	451	451	451	450	448	447	447	446	445	444	442	440	439	437	434	431	427	423	418	413	407	401	397	393	389	384	381	377	374	371	369	367	364	361	358	356	352	347	343	341	338	336	336	336	336	336	336	336	336	335	333	331	329	328	327	326	326	328	331	331	330	328	326	328	332	334	334	331	327	326	325	323	323	323	325	325	324	322	320	319	318	316	315	314	312	302	295	297	297	296	295	295	296	298	299	297
265	264	264	264	264	263	262	261	258	256	254	251	249	246	243	239	236	232	229	226	224	221	219	216	214	212	209	207	205	203	200	197	194	191	189	186	183	179	176	174	171	167	164	161	158	153	148	142	137	133	130	128	124	119	115	112	109	106	103	100	98	95	93	91	88	86	83	81	79	77	75	73	71	68	66	64	61	59	55	53	52	51	49	47	46	44	41	39	38	35	33	32	30	29	28	27	28	28	28	26	24	23	21	19	18	17	17	16	15	13	12	10	7	5	5	5	5	6	5	4	4	4	4	5	5	5	5	5	7	8	9	8	7	8	9	8	7	6	6	7	7	5	4	4	3	3	3	3	3	2	1	0	0	0	0	0	1	2	2	2	2	2	2	2	2	2	2	2	2	1	0	0	1	2	2	2	2	1	0	0	0	0	0	0	0	0	0	0	0	0	0	0	0	0	0	0	0	0	1	1	1	1	2	2	2	2	2	2	2	2	3	3	3	4	5	5	5	5	5	4	4	3	2	2	2	2	2	1	0	0	0	0	0	0	1	2	3	4	4	5	7	9	9	8	8	7	7	7	7	7	6	6	7	7	6	5	6	8	9	9	9	9	9	9	9	9	9	9	9	9	9	9	9	9	9	9	9	9	9	9	9	9	9	9	9	9	9	9	9	9	9	9	9	9	9	9	9	9	9	9	9	9	9	9	9	9	9	9	9	9	9	9	9	9	9	9	9	9	9	9	9	9	9	9	9	9	9	9	9	9	9	9	9	9	9	9	9	9	9	9	9	9	9	9	9	11	12	12	12	12	12	12	12	13	12	13	12	13	13	14	15	16	16	15	18	21	22	23	21	17	15	15	15	15	15	16	16	17	16	16	16	17	19	20	20	18	18	18	19	20	22	23	24	27	30	30	31	31	31	32	33	34	38	41	42	43	45	45	46	48	50	49	48	48	50	51	52	53	54	56	58	59	59	60	62	63	64	65	66	68	69	70	71	72	73	74	77	78	78	79	80	82	84	86	88	90	92	94	96	97	99	100	101	101	104	107	108	110	111	111	111	112	115	117	119	122	124	125	126	125	126	130	133	135	138	139	140	142	144	146	148	150	151	152	153	155	157	159	161	163	165	167	168	168	169	170	171	171	172	174	176	177	178	180	182	184	186	188	190	191	193	195	198	201	204	206	208	212	215	217	220	223	227	232	236	240	243	247	251	255	260	265	269	272	275	280	285	290	296	301	306	311	315	320	326	331	337	343	346	349	352	355	358	361	364	367	371	375	379	382	384	386	388	389	390	392	395	398	400	403	405	407	409	410	412	413	414	415	416	417	419	420	421	423	424	425	427	429	431	432	434	435	436	436	437	437	437	437	438	438	440	441	442	443	444	444	445	446	447	449	450	452	453	455	456	458	460	462	464	465	466	467	467	467	467	468	470	471	471	472	472	474	475	477	478	476	474	474	476	478	480	481	481	482	483	484	485	487	488	489	490	491	490	488	488	488	489	491	494	499	504	508	510	512	514	515	515	515	515	514	513	512	511	509	508	506	505	503	501	499	497	495	493	492	490	487	485	482	478	476	475	476	477	478	478	479	479	480	480	481	481	481	481	480	479	478	477	476	476	476	477	478	479	479	479	479	479	479	479	478	477	476	474	472	469	467	465	464	464	463	463	462	460	457	455	453	453	453	453	451	448	445	441	438	433	429	423	419	417	417	416	415	413	412	410	409	408	407	406	404	403	403	404	405	406	406	406	408	410	413	417	419	423	426	430	434	438	442	446	450	454	458	461	462	463	463	462	462	461	461	461	461	461	462	463	463	464	465	466	466	467	467	467	467	467	467	467	466	465	465	464	463	463	463	463	463	464	464	464	464	465	465	465	466	466	466	466	466	466	467	467	467	467	467	467	466	466	465	465	464	464	463	463	462	461	460	460	459	458	457	457	455	454	453	453	452	451	450	448	447	447	447	447	448	449	449	448	446	444	442	441	440	439	439	440	440	440	441	441	442	441	441	441	440	438	436	434	431	431	434	436	436	436	437	438	439	440	441	443	444	445	446	447	449	449	450	449	448	446	445	445	445	445	444	443	441	439	437	435	432	427	422	416	410	405	400	397	392	387	384	381	377	373	370	368	367	364	360	357	355	352	347	343	340	337	334	335	335	335	334	335	334	333	332	331	330	328	327	325	324	324	325	327	329	329	328	327	328	329	331	332	328	325	325	322	319	319	320	321	322	321	320	320	319	317	315	314	313	310	301	296	296	296	295	295	296	297	298	297	296
268	267	267	267	266	265	263	262	259	257	254	251	248	245	242	238	235	231	228	225	222	219	217	215	214	212	210	208	206	203	201	198	194	191	188	185	182	179	177	174	170	166	163	160	156	152	147	141	137	133	131	128	125	120	115	112	109	106	103	100	98	95	93	90	88	86	83	81	79	77	75	74	72	69	67	65	63	60	57	55	54	53	52	50	48	46	43	41	39	36	32	31	29	27	27	26	26	26	26	24	22	21	19	18	17	17	17	17	16	14	12	10	8	6	5	5	6	7	5	4	4	4	5	5	5	5	5	6	8	9	9	8	8	9	8	7	6	6	7	7	7	6	4	4	3	3	3	3	3	2	1	0	0	0	0	0	1	2	2	2	2	2	2	2	2	2	2	2	2	2	1	0	0	1	2	2	2	1	0	0	0	0	0	0	0	0	0	0	0	0	0	0	0	0	0	0	0	0	0	0	0	0	1	1	1	1	1	1	1	1	2	2	2	3	4	4	4	4	4	4	3	2	2	2	2	2	1	0	0	0	0	0	0	0	1	2	3	4	4	6	8	8	8	9	8	8	6	6	7	7	6	6	7	8	7	5	6	8	9	9	9	9	9	9	9	9	9	9	9	9	9	9	9	9	9	9	9	9	9	9	9	9	9	9	9	9	9	9	9	9	9	9	9	9	9	9	9	9	9	9	9	9	9	9	9	9	9	9	9	9	9	9	9	9	9	9	9	9	9	9	9	9	9	9	9	9	9	9	9	9	9	9	9	9	9	9	9	9	9	9	9	9	9	9	10	11	12	12	12	12	12	12	13	13	13	13	12	13	13	13	14	16	15	14	15	17	20	22	22	19	16	15	15	15	15	15	16	16	17	16	16	16	17	19	21	20	19	18	19	20	23	25	29	33	34	33	33	32	32	33	34	36	40	43	44	44	45	46	46	48	50	49	48	49	51	52	53	53	55	56	57	58	59	61	62	63	64	65	67	68	69	70	72	72	73	75	78	79	79	79	80	82	84	86	87	89	91	93	95	96	98	99	99	99	101	103	105	107	109	109	109	111	114	116	118	120	122	122	123	122	123	127	131	134	136	137	139	140	142	144	146	147	148	149	151	154	155	156	158	160	162	164	165	166	167	168	169	169	171	172	174	175	176	178	180	182	183	185	187	189	190	192	195	198	201	204	206	210	213	215	218	222	226	230	235	239	242	245	249	253	257	261	265	270	275	280	284	290	296	301	306	310	315	319	324	329	336	343	347	350	354	358	362	364	367	371	375	379	383	386	388	389	390	392	393	394	396	398	401	403	405	407	409	411	412	413	414	416	417	418	419	421	422	423	424	425	427	428	430	432	433	434	435	435	435	435	435	435	435	436	437	438	439	441	442	443	444	446	447	448	450	451	453	455	457	458	460	463	464	465	465	465	465	465	465	466	468	468	468	468	469	471	472	473	473	472	470	471	472	473	475	476	477	478	479	480	481	483	484	485	485	484	483	482	482	483	485	488	491	495	499	504	507	511	512	513	513	514	513	512	511	510	509	508	507	506	505	503	501	499	498	496	494	493	491	489	486	483	480	479	479	479	480	481	482	483	483	484	485	485	486	486	485	484	483	482	481	480	480	480	481	482	483	483	484	484	483	483	483	482	481	479	477	475	473	471	469	468	467	467	466	465	463	461	459	458	457	457	457	454	451	447	444	440	435	431	427	423	421	421	420	419	417	415	413	413	412	411	409	407	406	406	407	407	407	408	408	410	412	415	418	421	424	427	431	434	438	442	446	449	454	458	461	462	463	463	463	462	462	461	461	461	462	462	463	464	465	466	467	468	469	469	469	469	469	469	469	468	468	467	466	465	464	464	464	464	464	464	464	464	465	465	465	466	466	466	466	466	466	466	466	467	467	466	466	466	465	465	464	464	464	463	462	461	461	460	459	459	458	457	456	455	454	454	453	452	452	450	449	447	446	445	445	446	447	447	445	443	441	440	439	438	438	438	439	439	439	439	439	440	440	441	441	439	437	435	432	430	430	432	434	435	435	436	436	437	438	439	440	442	444	445	446	447	447	447	446	445	444	443	443	444	444	444	443	441	439	437	434	430	424	418	413	408	403	399	395	390	386	383	381	376	372	369	367	365	362	359	357	354	350	347	343	339	336	333	333	333	333	333	334	333	331	330	329	328	327	325	324	323	323	323	324	326	327	328	328	328	328	330	331	328	325	324	320	315	315	316	318	319	319	320	319	318	316	314	312	309	304	297	295	295	295	295	296	297	297	296	294	293
271	270	270	269	268	266	264	262	260	257	253	250	246	243	240	236	233	229	225	222	219	217	216	214	213	212	210	208	206	203	201	198	193	189	186	182	180	178	176	173	168	164	160	157	154	149	145	140	136	133	131	128	125	119	115	111	108	106	103	100	98	95	93	90	88	86	84	81	79	77	75	74	72	70	67	66	64	62	60	58	56	55	54	52	50	47	44	41	39	35	32	30	28	28	27	26	25	24	23	22	20	19	18	18	17	16	17	17	16	15	12	10	9	7	6	6	7	7	5	4	3	4	4	5	5	5	5	6	7	8	8	8	8	8	7	6	5	5	5	6	5	5	4	3	3	3	3	3	3	2	1	0	0	0	0	0	1	2	2	2	2	2	2	2	2	2	2	2	2	2	1	0	0	0	1	2	2	2	1	0	0	0	0	0	0	0	0	0	0	0	0	0	0	0	0	0	0	0	0	0	0	0	0	0	0	0	0	0	0	1	1	1	2	2	2	3	3	3	4	4	3	2	2	2	2	2	1	0	0	0	0	0	0	0	1	3	4	4	4	6	8	9	8	9	9	8	7	7	8	8	7	7	7	8	7	5	6	8	9	9	9	9	9	9	9	9	9	9	9	9	9	9	9	9	9	9	9	9	9	9	9	9	9	9	9	9	9	9	9	9	9	9	9	9	9	9	9	9	9	9	9	9	9	9	9	9	9	9	9	9	9	9	9	9	9	9	9	9	9	9	9	9	9	9	9	9	9	9	9	9	9	9	9	9	9	9	9	9	9	9	9	9	9	10	11	12	12	11	11	12	12	12	12	12	13	12	13	13	13	13	13	14	14	13	13	15	17	20	21	21	20	19	18	15	15	15	15	16	16	17	16	16	16	18	20	21	21	19	19	21	25	26	28	34	36	37	35	33	32	33	35	39	42	44	45	45	47	47	47	49	50	50	49	50	51	52	53	54	55	56	57	58	60	61	62	64	64	66	67	68	69	70	72	73	74	75	77	78	78	79	80	82	84	85	87	88	90	92	93	94	95	95	95	97	100	101	103	105	106	107	107	110	113	115	116	118	119	119	120	121	123	126	129	132	134	136	137	139	140	142	144	145	146	147	150	152	153	154	155	157	159	161	162	163	164	165	166	168	169	170	171	173	174	175	177	180	182	184	186	187	188	190	192	195	199	202	204	207	210	213	216	220	224	228	233	237	240	243	247	252	256	259	263	269	275	280	284	289	295	300	305	309	313	318	323	328	334	341	347	351	356	361	364	367	370	374	378	382	386	388	389	391	392	393	394	395	397	399	401	403	406	408	410	411	413	414	415	416	417	418	420	421	422	423	424	425	426	428	429	430	432	433	433	433	433	433	433	433	433	434	435	436	437	438	440	441	443	444	446	447	449	451	454	455	456	458	460	462	463	462	462	462	462	462	462	463	463	463	464	465	465	467	468	468	467	467	467	467	469	470	471	473	474	475	475	475	478	479	480	480	479	478	478	477	478	479	482	486	490	493	496	499	503	507	510	511	510	511	511	510	509	508	506	506	505	504	503	502	500	498	497	495	494	493	491	489	487	484	482	482	482	483	484	485	486	487	487	488	489	490	491	491	490	489	487	486	485	485	484	484	485	486	487	488	488	488	488	487	487	485	484	482	481	479	478	476	473	472	471	471	470	469	467	465	463	462	461	461	460	457	453	449	445	441	437	434	430	428	426	426	424	423	421	418	417	417	416	415	413	410	409	410	410	409	409	409	410	412	414	417	420	423	425	428	431	434	438	442	445	449	453	457	461	463	464	464	464	463	462	462	461	462	462	463	463	464	466	467	469	470	471	471	471	472	472	471	471	470	470	469	468	467	466	465	465	464	464	465	465	465	465	466	466	466	466	466	466	466	466	466	466	466	466	466	466	465	465	464	464	464	463	462	462	461	460	460	459	458	457	457	456	455	454	454	453	453	452	450	449	447	446	444	443	443	444	443	442	440	439	439	438	437	436	437	438	438	438	438	438	439	439	439	439	438	436	434	432	430	429	430	432	433	434	435	435	436	437	437	439	440	442	444	445	446	445	445	444	443	442	441	442	443	444	443	442	440	438	435	431	426	420	415	410	407	403	399	394	390	386	384	380	376	373	370	366	363	360	359	357	354	350	347	344	340	337	334	331	330	330	332	333	333	330	328	327	325	324	324	323	323	323	322	323	324	326	327	328	329	328	328	329	327	326	323	318	314	313	314	315	316	318	319	319	317	316	313	310	306	300	296	294	293	293	294	295	297	296	293	292	292
273	272	272	270	268	266	264	262	259	256	252	248	244	241	237	233	230	226	222	219	217	216	214	213	212	211	209	207	204	203	201	197	191	186	183	180	178	176	174	170	166	161	158	155	151	147	143	139	136	133	130	128	124	119	115	111	108	105	103	100	97	95	93	91	89	87	84	82	79	77	75	74	72	70	68	66	65	63	61	59	58	56	55	53	50	47	44	42	39	34	31	29	28	29	29	28	26	24	22	21	20	19	19	18	18	17	17	17	17	15	12	10	8	7	6	7	8	7	5	4	4	4	4	4	4	5	6	7	7	7	7	8	8	7	6	5	4	4	4	4	4	4	4	3	2	2	3	3	3	2	1	0	0	0	0	0	1	2	2	2	2	2	2	2	2	2	2	2	2	2	1	1	0	0	1	2	2	2	2	1	0	0	0	0	0	0	0	0	0	0	0	0	0	0	0	0	0	0	0	0	0	0	0	0	0	0	0	0	0	0	0	0	1	1	2	2	2	2	3	3	3	2	2	2	2	2	1	0	0	0	0	0	0	1	2	4	5	4	4	6	9	9	9	9	8	8	8	8	8	8	7	7	7	7	7	5	6	8	9	9	9	9	9	9	9	9	9	9	9	9	9	9	9	9	9	9	9	9	9	9	9	9	9	9	9	9	9	9	9	9	9	9	9	9	9	9	9	9	9	9	9	9	9	9	9	9	9	9	9	9	9	9	9	9	9	9	9	9	9	9	9	9	9	9	9	9	9	9	9	9	9	9	9	9	9	9	9	9	9	9	9	9	10	11	12	12	11	11	11	12	12	12	12	12	13	12	13	13	13	13	13	13	13	13	14	13	14	17	19	21	22	22	22	18	15	15	15	16	16	16	17	17	16	17	18	20	22	21	20	23	28	27	27	32	35	35	33	33	33	34	37	41	43	44	45	47	48	49	48	49	51	51	50	49	50	51	53	55	56	56	57	59	61	62	63	64	65	66	67	68	70	71	72	73	74	75	76	77	78	79	80	81	82	84	85	87	89	90	91	91	91	90	90	93	97	99	100	102	103	103	105	108	110	113	114	115	115	117	119	122	124	126	128	130	132	134	135	136	138	140	142	143	144	146	148	149	150	152	153	155	157	158	159	160	160	161	162	164	165	166	167	169	171	173	175	179	182	184	186	188	189	191	193	195	199	201	203	205	207	211	214	219	223	227	231	236	239	242	247	252	256	259	263	269	274	279	283	288	293	299	303	308	312	317	323	328	334	341	346	351	357	362	366	369	373	376	380	383	386	388	390	392	393	394	395	396	397	399	402	404	406	408	410	411	413	414	415	416	417	418	419	421	422	423	424	425	426	427	428	429	430	431	432	432	432	431	431	431	431	431	432	433	435	436	438	440	441	443	445	447	449	451	453	454	455	456	458	459	459	459	459	459	458	458	458	458	458	458	460	460	461	462	463	464	463	463	463	463	465	467	468	469	471	471	471	471	473	475	476	476	475	474	474	474	475	476	479	483	487	490	492	495	498	502	505	506	507	507	507	506	506	505	504	503	502	502	501	500	498	497	496	494	493	491	490	489	487	485	484	484	485	486	487	488	489	490	491	492	494	495	497	497	496	494	492	491	490	490	489	488	489	490	491	492	493	493	492	492	491	489	487	485	484	483	481	479	477	476	475	475	474	472	470	468	467	466	465	464	462	458	455	451	447	443	440	437	434	432	431	430	429	427	424	422	421	421	420	418	416	414	413	414	413	412	411	411	412	414	416	419	422	424	426	429	432	435	438	442	446	449	453	458	461	464	465	466	466	464	463	462	462	462	462	463	464	465	467	468	471	472	473	473	474	474	474	474	474	473	472	471	470	469	468	467	466	465	465	465	465	466	466	467	467	467	467	467	467	467	467	466	466	466	466	465	465	465	464	464	464	463	463	462	461	461	460	459	459	458	457	457	456	455	455	454	453	453	452	450	449	447	446	444	443	442	442	441	440	439	439	439	438	436	436	437	437	437	438	438	438	438	438	438	437	436	436	434	433	431	430	429	429	430	432	433	435	436	436	436	437	439	441	442	443	444	443	442	441	440	439	439	441	442	443	442	441	439	436	433	428	423	418	413	409	406	403	399	395	391	388	385	380	376	374	370	366	363	362	360	358	355	351	348	345	341	338	334	331	328	328	330	331	331	330	328	326	323	321	321	321	322	322	320	320	324	325	325	327	328	327	327	328	327	326	322	317	313	310	311	312	314	316	318	318	317	316	312	308	304	300	295	292	290	289	290	293	294	294	293	292	291
274	273	272	271	268	266	263	260	257	254	250	246	242	237	233	229	226	222	219	217	216	215	213	211	210	209	207	204	202	199	196	192	187	184	181	178	176	174	171	168	164	160	157	154	150	146	142	139	135	132	130	127	123	119	115	112	108	105	103	100	97	95	93	91	89	87	84	82	80	78	76	74	72	70	68	67	65	64	62	60	58	57	55	53	49	46	44	42	37	33	31	29	29	30	30	29	27	24	22	21	20	19	19	19	19	18	18	18	18	16	12	9	7	7	7	8	8	6	5	5	5	4	4	4	4	5	7	8	8	8	8	8	8	7	5	4	4	3	3	3	3	4	4	3	2	2	3	3	2	1	0	0	0	0	0	0	0	1	2	2	2	2	2	2	2	2	2	2	2	1	1	1	0	0	0	1	2	2	2	1	0	0	0	0	0	0	0	0	0	0	0	0	0	0	0	0	0	0	0	0	0	0	0	0	0	0	0	0	0	0	0	0	0	0	1	1	2	2	2	2	2	2	2	2	2	1	0	0	0	0	0	0	0	1	2	4	5	4	5	7	9	10	10	9	8	9	9	9	9	8	7	7	7	7	6	5	6	8	9	9	9	9	9	9	9	9	9	9	9	9	9	9	9	9	9	9	9	9	9	9	9	9	9	9	9	9	9	9	9	9	9	9	9	9	9	9	9	9	9	9	9	9	9	9	9	9	9	9	9	9	9	9	9	9	9	9	9	9	9	9	9	9	9	9	9	9	9	9	9	9	9	9	9	9	9	9	10	10	9	9	9	10	11	11	12	11	11	11	12	12	12	12	12	12	12	12	13	13	13	13	13	13	13	14	14	13	13	14	17	19	21	22	23	21	17	15	15	15	16	16	17	17	17	16	17	18	21	22	23	28	31	29	27	30	34	34	34	34	34	36	39	41	43	44	46	48	49	50	49	50	51	52	50	49	50	52	53	54	55	56	58	60	61	62	63	64	65	66	67	69	70	72	72	73	74	75	76	77	77	77	79	80	81	82	83	86	87	88	87	86	85	85	87	89	92	94	95	96	97	99	101	104	105	108	111	112	113	114	117	120	123	125	126	128	130	131	132	134	136	138	140	141	143	144	146	147	148	150	151	152	153	154	155	156	155	156	157	158	160	161	163	166	169	171	174	178	182	185	188	190	192	193	195	198	200	202	203	205	207	211	214	218	223	227	232	236	239	243	247	252	255	259	263	268	273	278	283	288	293	298	302	307	312	318	323	329	335	341	346	351	357	362	366	369	373	376	379	382	384	387	389	391	393	394	395	396	398	400	402	404	406	408	410	411	412	413	414	415	416	417	419	420	422	423	424	424	425	425	426	427	428	429	430	430	430	429	429	428	428	429	430	432	433	435	437	439	440	442	444	447	449	450	450	451	452	453	454	454	455	455	455	455	454	453	454	454	454	455	456	457	457	458	460	460	460	459	458	458	461	463	464	465	466	467	467	467	468	470	471	471	471	470	469	470	472	474	476	480	485	487	489	492	495	497	500	501	503	503	503	503	503	502	502	501	500	500	499	498	497	496	494	493	492	490	489	488	487	486	486	486	487	488	490	491	493	494	495	497	498	499	501	501	500	499	497	496	495	494	493	493	493	495	496	497	498	498	497	496	495	493	491	489	488	486	485	483	481	480	479	479	478	476	474	472	471	470	469	467	465	461	457	453	449	445	442	440	438	437	436	435	434	431	428	426	425	425	424	422	419	417	417	418	417	416	415	414	415	416	419	422	424	426	428	430	434	437	440	443	447	450	455	459	462	465	467	468	467	465	464	463	462	462	462	463	464	465	467	469	472	474	475	475	476	476	476	476	476	476	474	473	472	470	469	468	467	466	466	466	466	467	467	468	468	468	468	468	468	467	467	467	466	466	465	465	465	464	464	464	463	463	462	462	461	460	460	459	458	458	457	457	456	455	455	454	454	453	451	450	448	447	446	444	443	442	441	440	440	440	439	439	438	437	437	437	437	437	437	436	436	436	437	437	437	437	436	435	433	432	431	429	428	427	429	431	433	435	435	435	436	438	439	440	441	441	441	440	439	438	437	438	440	441	442	441	440	438	434	430	426	421	416	412	409	407	404	400	397	393	390	386	382	378	375	371	367	365	364	362	360	356	353	349	346	342	339	335	331	329	327	328	329	329	328	326	325	322	319	318	319	320	319	316	316	320	322	323	325	328	327	326	327	327	324	320	316	310	307	307	309	312	315	317	317	316	314	310	306	303	299	294	291	289	286	286	288	290	291	291	291	289
274	273	271	269	267	264	261	258	255	251	248	244	239	235	230	226	223	220	218	215	214	212	210	207	206	205	203	200	197	194	190	187	184	182	179	177	174	172	169	166	163	159	156	153	149	145	142	139	135	132	129	125	121	118	115	112	108	106	103	101	98	95	93	91	89	86	84	82	80	78	76	73	72	70	70	69	67	65	64	62	60	58	56	53	49	46	45	42	37	33	31	30	30	30	30	29	28	25	23	22	21	20	20	20	19	19	19	20	20	16	12	9	8	9	10	10	8	6	6	5	5	5	4	3	4	5	7	8	8	9	9	8	8	7	4	3	3	3	4	3	4	4	4	3	2	2	4	3	2	1	0	0	0	0	0	0	0	1	2	2	2	2	2	2	2	2	2	2	2	2	2	2	1	0	0	1	2	2	2	1	0	0	0	0	0	0	0	0	0	0	0	0	0	0	0	0	0	0	0	0	0	0	0	0	0	0	0	0	0	0	0	0	0	0	0	1	2	2	2	2	2	2	2	2	2	1	0	0	0	0	0	0	0	1	2	4	5	4	5	7	9	11	11	9	8	9	10	9	9	8	6	6	6	7	6	5	6	8	9	9	9	9	9	9	9	9	9	9	9	9	9	9	8	8	8	8	9	9	9	9	9	9	9	9	9	9	9	9	9	9	9	9	9	9	9	9	9	9	9	9	9	9	9	9	9	9	9	9	9	9	9	9	9	9	9	9	9	9	9	9	9	9	9	9	9	9	9	9	9	9	9	9	9	10	10	10	10	10	10	9	10	11	11	11	11	11	11	11	12	12	12	12	12	12	12	13	13	13	13	13	13	13	13	13	14	13	13	14	15	17	19	21	22	23	20	16	15	15	15	16	17	17	17	17	16	17	19	22	24	29	35	36	31	28	31	33	34	35	37	38	40	42	43	45	46	48	50	50	49	50	51	51	50	50	51	52	53	54	55	56	58	60	61	62	63	65	66	66	68	70	71	71	72	73	74	75	75	75	74	74	76	77	78	78	79	81	83	82	82	81	81	83	84	87	90	92	93	93	95	97	98	100	101	104	106	108	110	111	113	117	120	122	124	126	127	128	129	131	134	136	137	139	141	143	143	144	145	147	148	148	149	150	151	152	152	152	154	156	158	161	164	166	169	172	175	178	182	186	189	192	193	195	197	200	202	204	205	207	210	213	216	219	224	229	234	237	240	244	248	252	255	259	263	268	273	278	283	288	293	297	302	308	313	318	323	329	335	341	346	351	356	361	365	369	372	375	377	379	382	384	386	389	392	393	395	396	398	400	402	404	406	408	410	411	412	412	413	414	415	416	418	419	421	422	423	423	424	424	424	424	425	426	427	428	428	427	427	426	426	427	429	431	433	434	436	438	440	441	443	446	448	448	447	448	449	449	450	450	451	451	452	452	451	451	451	451	451	452	453	454	454	455	456	457	456	455	454	455	456	458	460	461	462	462	463	463	463	465	467	467	466	465	464	464	467	471	475	478	482	485	487	490	493	495	496	498	498	499	499	499	499	498	499	499	498	498	497	496	495	494	493	492	491	490	489	488	488	487	487	488	489	490	491	493	495	497	498	500	501	503	504	505	505	503	502	500	500	498	498	497	498	499	501	502	503	502	502	501	499	497	495	493	492	490	489	487	485	484	483	483	482	480	478	477	475	474	473	471	467	464	460	456	451	447	444	443	442	441	440	439	437	435	432	430	430	429	428	425	422	421	421	422	421	420	418	417	417	419	421	424	427	429	431	433	436	439	442	445	449	452	457	461	464	466	468	469	468	466	464	463	462	462	462	463	464	466	468	470	472	475	476	477	478	478	478	478	478	478	476	475	473	472	471	469	468	467	467	467	467	467	468	468	468	469	469	469	468	468	467	467	466	465	465	465	464	464	464	463	463	463	462	462	461	460	460	459	458	458	457	457	456	456	455	455	454	453	452	450	449	447	446	444	443	442	441	441	440	440	440	439	438	438	438	438	437	437	436	435	434	435	436	437	437	437	436	435	433	432	431	429	427	425	426	428	431	433	433	433	434	436	437	438	439	439	439	438	437	435	435	436	439	440	440	439	438	435	432	428	424	420	415	412	410	408	405	402	398	395	392	388	384	380	377	373	370	367	365	363	360	357	354	350	347	343	340	335	331	329	327	327	327	326	325	324	323	320	317	316	317	318	318	315	313	315	318	320	322	326	327	326	325	324	321	318	315	309	305	305	306	310	314	316	315	314	312	309	305	302	298	294	291	289	284	284	286	287	288	288	287	286
272	270	268	266	264	261	259	256	253	249	245	241	237	233	229	225	222	219	216	213	211	209	206	204	202	201	199	196	193	190	187	185	182	180	178	175	173	169	166	165	162	158	154	151	148	144	142	139	135	132	128	124	120	117	114	111	108	106	103	100	98	95	93	91	89	86	83	81	79	77	76	74	72	71	71	71	69	68	66	64	62	60	58	54	50	47	46	43	37	34	33	32	31	31	30	30	29	27	25	24	23	22	21	20	20	19	19	20	21	18	12	10	10	11	12	11	9	7	6	5	5	5	4	4	3	5	6	7	7	8	8	8	7	5	4	3	3	4	4	4	4	4	4	3	2	2	3	3	2	0	0	0	0	0	0	0	0	0	2	2	2	2	2	2	2	2	2	2	2	2	2	2	1	1	0	0	1	1	1	1	0	0	0	0	0	0	0	0	0	0	0	0	0	0	0	0	0	0	0	0	0	0	0	0	0	0	0	0	0	0	0	0	0	0	1	2	2	2	2	3	3	3	2	2	2	1	0	0	0	0	0	0	1	2	3	4	4	4	4	6	8	9	10	9	9	9	10	9	9	7	6	6	6	6	5	5	5	7	9	9	9	9	9	9	9	9	9	9	9	9	8	8	8	8	8	8	8	9	9	9	9	9	9	9	9	9	9	9	9	9	9	9	9	9	9	9	9	9	9	9	9	9	9	9	9	9	9	9	9	9	9	9	9	9	9	9	9	9	9	9	9	9	9	9	9	9	9	9	9	9	9	9	10	10	10	10	10	10	10	10	11	11	11	11	11	11	11	11	12	12	11	12	12	12	12	13	13	13	13	13	13	13	13	13	13	13	14	14	14	15	16	19	21	22	22	20	17	15	15	16	16	17	17	17	17	16	17	20	24	29	35	38	36	32	30	30	32	34	37	39	40	42	44	45	47	49	50	50	49	50	51	51	51	52	53	54	54	54	55	56	57	60	61	62	64	67	67	67	69	70	71	71	71	71	71	71	70	69	70	71	72	73	74	75	76	78	79	81	83	83	84	86	88	91	94	95	97	98	99	100	101	101	102	103	104	104	106	108	110	113	116	117	119	121	123	124	125	128	129	131	132	134	136	137	137	138	139	142	143	145	146	148	149	151	152	154	156	159	161	164	166	168	171	173	175	178	181	185	189	192	194	197	200	202	204	206	208	210	213	216	219	222	225	231	235	238	241	245	249	252	256	259	264	269	274	278	283	288	293	297	302	308	313	318	324	329	335	341	347	351	355	359	363	367	370	372	374	376	378	380	383	387	390	392	394	396	397	399	402	404	406	408	409	410	410	411	412	413	414	415	417	418	420	421	422	422	423	423	423	423	424	425	426	426	426	426	425	425	425	427	429	431	433	435	437	438	439	440	442	444	445	445	445	445	446	447	447	447	447	448	448	449	449	449	448	448	448	449	451	452	452	452	453	453	452	452	452	452	451	453	456	457	458	459	459	459	460	461	462	462	461	459	459	461	464	469	473	475	479	482	485	488	491	492	493	494	494	494	494	494	494	493	495	496	496	495	495	495	494	493	492	491	491	490	489	489	488	487	487	488	490	490	492	494	496	498	500	501	503	505	507	508	508	507	506	505	504	502	501	501	501	503	505	506	507	507	506	505	504	501	499	497	496	494	493	491	489	488	487	487	486	485	483	481	480	478	476	474	470	467	464	460	455	451	448	447	446	445	444	443	441	438	435	434	434	433	431	428	425	424	425	426	425	423	421	421	421	421	423	426	430	432	434	436	438	441	444	448	451	454	459	463	466	468	469	469	468	465	464	463	462	462	462	463	465	466	469	471	473	475	477	478	479	479	480	480	479	479	478	476	474	473	471	470	469	468	468	468	468	468	468	469	469	469	469	469	469	468	468	467	466	466	465	464	464	464	463	463	463	462	462	461	461	460	460	459	458	458	457	457	456	456	455	455	454	453	452	450	449	447	445	444	443	442	441	441	441	440	440	439	438	438	438	438	438	437	436	433	432	433	436	437	437	437	436	434	433	432	431	430	427	424	424	426	428	431	431	431	432	434	435	437	437	437	437	436	434	433	433	435	437	438	438	437	435	432	430	427	423	420	417	415	413	411	408	404	401	397	394	391	387	383	379	375	372	368	366	363	359	356	354	351	347	344	341	337	333	330	328	326	325	324	323	322	320	319	318	317	317	317	317	313	310	311	314	317	319	323	325	325	323	321	318	315	313	308	304	304	304	307	312	315	314	313	312	308	305	302	299	295	292	288	282	281	283	285	286	286	285	284
270	267	265	262	260	258	256	253	250	247	243	239	235	231	227	224	221	218	215	211	208	206	204	201	198	197	195	192	189	187	185	182	180	178	176	173	170	167	165	163	160	156	153	149	146	143	141	139	135	131	127	124	120	117	113	110	108	105	103	100	97	95	93	91	89	86	83	81	79	77	76	74	73	72	72	72	71	69	68	65	63	61	59	56	52	49	47	45	41	38	36	35	34	33	32	31	31	30	28	25	24	23	22	22	20	19	19	20	21	20	15	10	11	11	11	11	9	7	6	6	5	5	6	4	3	4	5	5	6	6	6	5	5	4	3	4	4	4	4	4	4	4	3	2	2	2	3	3	2	0	0	0	0	0	0	0	0	1	2	2	2	2	2	2	2	2	2	2	2	2	2	1	1	1	0	0	0	0	0	0	0	0	0	0	0	0	0	0	0	0	0	0	0	0	0	0	0	0	0	0	0	0	0	0	0	0	0	0	0	0	0	0	0	1	2	2	2	2	2	3	3	3	2	2	1	0	0	0	0	0	0	0	1	2	3	5	5	4	4	5	7	7	8	8	9	9	9	9	9	7	5	5	6	6	5	5	5	7	9	9	9	9	9	9	9	9	9	9	8	8	8	8	7	7	7	7	8	8	8	8	9	9	9	9	9	9	9	9	9	9	9	9	9	9	9	9	9	9	9	9	9	9	9	9	9	9	9	9	9	9	9	9	9	9	9	9	9	9	9	9	9	9	9	9	9	9	9	9	9	9	9	10	10	10	10	10	10	10	10	10	11	11	11	11	11	11	11	11	11	11	11	11	12	12	13	13	13	13	13	13	13	13	13	13	13	13	13	13	13	14	15	17	19	20	22	23	21	17	15	16	16	17	17	17	17	17	17	18	24	29	33	35	36	37	36	33	31	31	34	38	40	43	45	46	47	50	51	50	50	51	52	52	53	54	55	55	56	56	55	56	57	59	60	62	65	68	67	67	68	69	69	69	69	67	66	66	66	67	69	70	72	73	75	77	78	79	80	83	86	87	89	91	92	95	96	98	99	101	102	103	104	105	106	107	107	107	109	111	113	114	116	118	118	120	122	122	123	124	124	127	129	131	133	135	137	138	140	142	144	146	148	150	152	154	156	158	160	162	164	167	169	171	173	174	176	178	181	184	187	191	194	198	201	205	207	209	213	215	217	219	222	225	228	232	236	239	242	246	250	254	257	261	266	270	276	280	283	288	292	297	302	308	313	318	324	329	335	341	346	350	353	357	360	364	366	368	370	372	374	378	381	385	388	391	393	395	397	399	402	404	405	407	408	409	409	410	411	412	413	414	416	417	419	420	420	421	422	422	422	423	423	424	424	424	424	424	424	423	424	426	428	430	433	435	437	438	439	440	441	442	442	442	442	442	443	444	444	444	444	444	445	446	446	446	445	444	444	446	449	450	450	450	450	449	448	448	448	447	446	448	450	453	455	455	455	455	456	456	456	456	454	454	456	459	462	467	471	473	476	479	482	485	488	489	490	490	490	490	489	489	489	489	490	492	492	492	492	492	492	491	491	490	490	489	489	489	488	487	487	488	490	491	492	494	496	498	500	502	504	506	509	510	511	511	510	509	508	506	505	505	506	507	509	511	511	511	510	509	508	505	503	501	499	498	496	495	493	492	492	491	491	490	488	486	484	482	479	476	473	470	467	463	460	456	454	452	450	450	449	447	445	442	439	438	438	437	434	431	429	429	430	430	429	427	425	424	424	425	426	428	432	435	437	439	441	444	448	451	453	457	461	464	467	469	469	469	467	465	463	462	462	462	462	463	465	467	469	471	474	476	478	479	480	480	481	480	480	480	479	477	476	474	472	471	470	469	469	468	468	469	469	469	469	469	469	469	469	468	468	467	466	466	465	464	464	463	463	463	463	462	462	461	461	460	459	459	458	458	458	457	457	456	455	455	454	453	452	450	448	447	445	444	442	441	441	441	441	440	440	439	439	438	438	438	438	437	435	432	431	432	435	436	437	436	435	434	433	431	430	429	426	423	422	423	426	428	429	429	430	432	433	434	435	435	434	433	432	431	432	433	435	436	437	435	433	431	428	426	423	421	420	418	416	413	410	406	403	399	395	391	387	383	380	376	373	369	365	361	358	356	354	351	348	345	342	339	336	332	329	325	324	323	322	319	318	318	318	318	317	316	314	311	308	308	310	314	316	319	321	321	319	317	313	310	307	304	302	301	301	304	309	312	312	312	311	307	303	301	299	297	293	287	279	277	280	283	284	284	284	285
267	264	262	260	257	255	253	251	248	244	241	237	233	229	226	223	221	217	213	210	207	204	201	198	196	194	192	190	187	185	182	180	177	175	173	170	167	164	163	160	157	154	150	147	144	141	140	137	134	130	127	123	120	116	113	110	107	105	102	99	97	95	93	91	88	86	83	81	79	77	76	75	74	73	73	72	72	70	68	66	63	61	59	57	54	51	49	47	44	41	40	39	37	35	33	33	33	32	30	27	25	24	23	22	21	20	20	20	21	20	17	13	11	11	12	11	9	7	7	7	7	7	7	5	3	4	4	4	4	4	4	3	3	3	4	4	4	4	4	4	4	4	3	2	2	2	3	3	1	0	0	0	0	0	0	0	1	1	2	2	2	2	1	1	1	2	2	2	2	2	1	1	1	1	0	0	0	0	0	0	0	0	0	0	0	0	0	0	0	0	0	0	0	0	0	0	0	0	0	0	0	0	0	0	0	0	0	0	0	0	1	1	1	1	2	2	2	2	2	3	3	3	2	2	1	0	0	0	0	0	0	0	1	2	4	5	5	4	5	6	6	6	6	7	8	9	9	9	8	6	5	5	5	5	5	5	5	7	9	9	9	9	9	9	9	9	9	9	8	8	8	8	7	7	7	7	7	8	8	8	9	9	9	9	9	9	9	9	9	9	9	9	9	9	9	9	9	9	9	9	9	9	9	9	9	9	9	9	9	9	9	9	9	9	9	9	9	9	9	9	9	9	9	9	9	9	9	9	9	9	10	10	10	10	10	10	10	10	10	10	11	11	11	11	11	11	11	11	11	11	11	12	12	12	13	13	13	13	13	13	13	13	13	13	13	13	13	13	13	13	14	15	16	18	20	22	23	19	16	16	16	16	17	17	17	17	17	17	21	28	31	33	35	37	38	38	36	33	32	34	37	42	45	46	47	49	50	49	50	52	52	53	53	54	55	56	57	57	57	56	57	58	60	61	64	65	65	66	67	67	67	66	64	64	65	67	68	69	71	73	75	77	79	80	82	83	84	86	88	90	92	93	95	96	98	99	100	102	103	104	106	107	108	110	111	111	113	114	115	117	118	120	121	123	124	125	126	127	127	130	132	135	137	139	140	142	144	146	147	149	150	153	155	157	159	160	162	164	166	169	172	174	175	176	177	179	181	184	187	191	194	198	203	207	210	213	216	219	220	223	225	228	231	235	238	240	244	249	253	256	260	264	269	273	278	282	285	288	293	297	302	308	314	319	325	330	335	340	344	348	351	354	357	360	362	364	366	368	371	375	379	383	386	388	391	394	396	398	401	403	404	406	407	408	409	409	409	409	410	412	414	416	417	418	418	419	419	420	421	422	423	423	422	422	422	423	422	422	423	425	427	430	432	434	437	438	440	440	441	440	440	440	439	439	440	440	441	442	442	442	442	442	442	442	441	440	441	442	445	447	448	447	447	446	445	445	443	441	441	444	446	448	450	451	451	451	452	451	450	449	448	448	452	457	460	464	468	471	474	477	480	482	484	486	486	486	485	485	484	485	484	485	486	487	487	488	489	490	489	489	489	488	488	488	488	488	488	487	487	488	489	490	492	494	495	497	500	502	504	506	509	510	512	512	512	512	511	510	509	509	510	512	513	514	515	515	515	513	512	509	507	505	504	503	501	499	497	496	496	496	496	495	493	490	487	485	482	478	475	472	469	466	463	461	459	457	456	455	453	451	448	445	443	443	442	441	437	434	433	433	434	434	432	430	429	427	427	428	429	431	434	437	440	442	444	447	451	454	456	460	463	466	469	470	470	468	466	464	463	462	462	462	462	463	465	467	469	472	474	476	478	480	481	481	481	481	481	480	479	478	476	475	473	472	470	470	469	469	469	469	469	469	470	470	469	469	469	468	467	467	466	465	465	464	463	463	463	463	462	462	462	461	461	460	459	459	458	458	458	457	457	456	455	454	454	453	452	450	448	446	445	443	442	441	441	441	441	440	440	439	439	439	439	439	438	436	434	432	431	432	434	435	436	436	435	433	432	430	428	426	424	421	420	421	422	424	425	427	429	430	431	432	432	432	432	431	430	429	430	432	433	435	436	435	434	431	429	427	424	422	421	419	417	414	411	407	404	399	395	391	387	383	379	376	373	368	363	359	357	355	353	351	349	346	342	339	337	333	329	326	325	323	320	317	315	316	316	315	315	314	312	310	309	307	306	311	313	316	318	318	317	314	310	306	302	301	298	297	300	303	307	309	310	311	309	305	301	299	297	296	293	286	279	276	279	281	282	283	284	285
265	262	259	257	255	252	250	248	245	242	239	235	231	228	225	222	219	216	212	209	205	202	199	196	194	191	189	187	185	182	180	177	174	172	169	166	164	162	160	157	154	151	148	145	142	139	138	135	132	129	126	123	119	116	113	110	108	105	102	100	97	95	93	91	88	85	83	81	79	78	77	75	74	74	73	72	71	70	68	66	64	62	60	58	55	53	51	49	46	44	43	41	39	36	34	34	34	33	31	28	26	25	24	23	22	21	20	21	22	20	18	16	13	12	11	10	8	7	7	8	8	8	8	5	3	4	5	4	3	3	3	3	3	3	4	5	4	4	4	4	4	4	3	2	2	2	2	2	1	0	0	0	0	0	0	0	0	1	2	2	1	1	0	0	1	1	1	2	2	2	1	1	1	0	0	0	0	0	0	0	0	0	0	0	0	0	0	0	0	0	0	0	0	0	0	0	0	0	0	0	0	0	0	0	0	0	1	1	1	1	2	2	2	2	1	2	2	2	2	3	3	3	2	2	1	0	0	0	0	0	0	1	2	3	5	6	5	4	5	7	7	6	6	7	8	9	9	8	8	6	4	4	4	4	5	5	5	7	9	9	9	9	9	9	9	9	9	9	8	8	8	8	7	7	7	7	7	8	8	8	9	9	9	9	9	9	9	9	9	9	9	9	9	9	9	9	9	9	9	9	9	9	9	9	9	9	9	9	9	9	9	9	9	9	9	9	9	9	9	9	9	9	9	9	9	9	9	9	9	9	10	10	10	10	10	10	10	10	10	11	11	11	11	10	11	11	11	11	10	11	11	12	12	13	12	13	12	13	13	13	13	13	13	13	13	13	13	13	13	13	13	14	15	16	18	20	22	21	18	16	16	16	16	17	17	17	17	17	18	23	28	32	34	36	37	39	40	39	36	32	34	40	44	45	46	47	48	48	49	51	52	53	53	53	53	55	57	58	57	57	57	57	59	60	62	63	64	65	66	66	65	63	63	65	66	68	69	70	72	75	77	79	81	82	84	86	87	89	90	92	94	94	96	97	99	100	101	102	104	105	107	108	109	111	112	113	114	116	117	118	119	121	123	124	125	127	129	130	131	133	135	137	138	140	142	143	145	147	148	150	151	154	156	158	160	162	164	166	168	171	173	176	177	179	180	182	183	186	189	193	197	202	206	210	213	217	219	221	223	225	228	231	234	238	240	242	246	251	255	258	262	267	272	275	280	283	286	290	294	298	303	308	314	320	326	330	334	338	342	346	349	351	353	355	357	360	362	365	368	373	377	381	383	386	390	393	395	397	399	402	403	405	406	407	408	408	407	408	409	410	411	413	415	416	416	416	417	418	419	420	420	420	420	420	420	420	421	422	423	424	426	429	431	434	436	439	440	441	440	439	439	438	437	437	437	437	438	439	440	440	439	440	440	439	439	439	438	438	439	441	442	443	443	442	442	441	439	437	437	440	442	444	445	446	447	447	447	446	444	444	444	444	446	452	456	460	464	469	470	474	477	479	480	482	483	482	481	480	480	481	481	482	482	483	484	485	486	486	486	486	486	486	486	487	487	487	487	486	485	486	488	489	491	492	494	495	498	500	502	504	507	510	512	513	513	514	514	513	513	513	514	515	516	517	518	519	518	517	516	513	511	510	509	508	506	504	502	501	501	501	500	500	498	495	491	488	484	480	478	475	472	469	467	465	464	463	461	460	458	455	452	449	447	447	446	444	440	437	436	437	438	437	436	434	432	431	430	431	431	433	435	438	442	445	448	450	453	456	459	462	465	468	470	471	470	468	466	464	462	461	461	461	462	463	465	467	469	471	474	476	478	479	480	481	481	481	481	480	480	478	477	476	474	472	471	470	470	469	469	469	469	469	469	469	469	469	468	468	467	466	466	465	464	464	463	463	462	462	462	462	461	461	460	459	459	458	458	457	457	456	456	455	455	454	454	453	451	450	448	446	444	443	442	441	441	441	441	440	439	439	439	439	439	438	437	435	433	431	431	432	433	435	435	434	433	432	430	429	427	423	420	418	417	417	419	420	423	425	427	428	428	429	429	429	429	428	428	428	429	431	433	435	436	436	435	433	430	428	426	424	422	421	418	415	411	407	403	399	395	390	386	382	378	375	371	366	361	357	355	353	350	349	348	347	343	338	336	334	330	327	327	324	320	315	313	313	313	311	310	310	309	309	309	307	304	305	308	313	316	316	316	312	307	303	300	298	297	298	301	304	306	307	307	308	307	303	299	296	295	294	291	285	279	274	278	281	283	283	283	283
263	260	257	255	252	250	248	246	243	241	237	233	229	226	223	221	218	214	211	208	205	201	198	195	192	189	187	184	182	179	177	174	172	169	165	163	161	159	157	154	151	148	146	143	140	138	136	133	130	128	126	123	119	116	113	110	107	105	102	99	97	95	93	90	88	86	83	82	80	78	77	76	75	74	73	72	71	70	69	67	66	63	61	59	57	55	53	51	49	47	45	43	41	38	36	35	34	33	31	29	27	26	25	24	23	21	21	23	23	20	17	16	13	12	10	9	8	7	7	7	7	7	6	4	3	4	5	4	3	3	3	3	3	4	4	5	4	4	4	4	4	4	3	2	2	2	2	2	1	0	0	0	0	0	0	0	0	1	1	0	0	0	0	0	0	0	1	1	2	2	1	1	1	0	0	0	0	0	0	0	0	0	0	0	0	0	0	0	0	0	0	0	0	0	0	0	0	0	0	0	0	0	0	0	1	1	2	2	2	2	2	2	2	2	2	2	2	2	2	3	3	2	2	1	0	0	0	0	0	0	0	1	2	3	6	6	4	4	5	6	7	7	7	7	8	8	7	7	6	5	4	3	4	4	5	5	5	7	8	9	9	9	9	9	9	9	9	9	8	8	8	8	7	7	7	7	8	8	8	8	9	9	9	9	9	9	9	9	9	9	9	9	9	9	9	9	9	9	9	9	9	9	9	9	9	9	9	9	9	9	9	9	9	9	9	9	9	9	9	9	9	9	9	9	9	9	9	9	9	10	10	10	10	10	10	10	10	10	11	11	11	11	11	11	11	11	11	11	11	11	11	12	12	13	12	13	13	13	13	13	13	13	13	13	13	13	13	13	13	13	13	13	14	15	17	18	20	21	21	18	16	16	16	17	17	17	18	17	17	18	22	29	33	35	35	37	40	42	41	35	33	37	43	44	45	45	46	46	47	49	50	52	52	50	49	51	54	56	57	57	57	57	58	59	61	62	63	64	65	64	61	62	65	66	67	68	69	71	73	75	78	80	82	83	85	87	88	90	92	93	95	95	97	98	99	101	102	103	105	106	108	109	110	111	113	114	115	117	118	119	120	121	123	125	126	127	129	130	132	133	135	136	138	140	142	144	146	147	149	150	152	154	157	159	161	163	165	168	170	172	174	177	179	181	183	185	187	189	192	196	201	206	210	213	217	220	222	223	226	229	231	234	237	240	243	246	250	254	257	260	265	270	274	278	282	285	288	292	296	300	304	308	314	320	325	329	333	336	339	342	345	347	349	351	354	356	360	363	367	371	376	379	382	385	388	391	394	396	398	400	402	404	405	406	406	406	405	406	407	408	409	411	412	413	413	413	414	415	416	417	418	418	417	417	418	418	420	421	423	424	426	429	431	434	436	439	440	440	439	438	438	437	435	434	434	435	435	436	437	438	437	437	437	437	437	437	436	436	436	436	437	438	438	438	437	435	434	433	434	436	438	439	441	442	443	443	443	440	439	440	441	441	442	445	449	453	457	463	464	468	473	476	478	479	480	479	478	477	476	476	478	479	479	480	481	482	483	483	483	483	483	483	484	484	485	486	485	484	483	484	485	487	488	490	491	493	495	497	499	502	505	507	510	513	513	514	515	515	516	516	516	517	519	520	521	521	521	521	519	517	515	514	514	513	511	509	507	506	505	505	505	505	504	500	495	490	486	483	480	478	475	473	471	469	468	467	466	465	463	460	456	453	452	452	450	447	444	441	440	441	441	440	439	437	436	434	434	434	435	436	438	440	444	448	451	453	456	459	463	465	468	470	471	471	470	468	465	463	462	461	461	461	462	463	465	467	469	471	473	475	477	478	479	480	481	481	481	480	480	479	477	476	475	473	472	471	470	470	469	469	469	469	469	469	469	468	468	467	466	466	465	464	464	463	463	462	462	462	461	461	461	460	460	459	458	458	457	456	456	455	455	454	454	454	454	453	451	450	448	447	445	443	442	441	441	441	440	439	439	439	439	438	438	436	435	433	431	430	430	431	432	433	433	432	430	429	428	427	424	420	417	415	414	414	416	419	422	424	425	426	426	426	426	426	426	426	427	427	428	431	433	436	437	437	436	434	431	429	427	425	424	422	419	414	410	406	403	398	394	390	386	381	377	373	369	365	361	356	354	353	350	347	348	348	344	338	336	335	333	330	327	324	320	316	313	312	312	310	308	307	307	307	307	306	302	302	304	309	313	313	312	309	305	301	298	294	295	298	300	303	305	304	305	305	304	301	297	294	292	290	287	282	278	274	277	282	283	282	281	280
262	259	256	253	250	248	246	243	241	239	236	232	228	226	223	220	217	213	210	207	204	201	198	194	191	188	185	182	179	176	173	171	169	166	163	160	158	155	153	151	149	146	144	141	139	136	134	132	130	128	125	122	119	116	113	110	107	104	101	99	97	94	92	90	88	86	84	82	81	79	77	75	74	73	73	72	71	70	69	68	66	64	62	60	59	57	55	53	51	49	46	45	43	41	38	36	35	34	33	30	28	27	27	26	23	21	20	23	23	19	17	15	13	11	10	9	9	8	7	6	5	5	4	3	3	4	4	4	3	3	3	3	3	3	4	5	4	4	4	4	4	3	3	2	2	2	2	1	0	0	0	0	0	0	0	0	0	0	0	0	0	0	0	0	0	0	0	1	2	2	1	1	0	0	0	0	0	0	0	0	0	0	0	0	0	0	0	0	0	0	0	0	0	0	0	0	0	0	0	0	0	0	0	1	1	2	2	2	2	2	2	2	2	2	2	2	2	2	2	3	2	2	2	1	0	0	0	0	0	0	0	1	2	4	6	7	5	4	4	6	7	7	6	6	6	5	5	4	4	3	4	4	4	5	5	5	5	7	8	9	9	9	9	9	9	9	9	9	8	8	8	8	7	7	7	7	8	8	8	8	9	9	9	9	9	9	9	9	9	9	9	9	9	9	9	9	9	9	9	9	9	9	9	9	9	9	9	9	9	9	9	9	9	9	9	9	9	9	9	9	9	9	9	9	9	9	9	9	10	10	10	10	10	10	10	10	10	10	10	10	10	10	11	11	11	11	10	11	11	11	12	12	12	13	12	13	13	13	13	13	13	13	13	13	13	13	13	13	13	13	13	13	14	14	15	17	18	20	21	21	18	16	16	16	17	17	18	18	17	17	18	23	30	32	33	35	39	41	41	39	37	35	40	43	43	44	44	44	44	47	49	48	48	47	47	48	52	55	56	56	57	57	58	59	60	62	63	63	63	61	58	61	66	67	67	68	70	71	73	75	78	80	82	84	86	87	89	91	92	94	95	96	98	99	100	101	103	104	105	107	108	110	111	112	113	114	116	117	119	120	121	122	123	125	126	127	128	130	131	133	135	137	139	140	142	144	146	148	150	151	153	155	157	160	162	164	167	169	171	174	176	178	180	182	185	188	190	192	195	199	204	209	213	216	220	223	224	227	230	233	235	238	240	243	246	250	253	257	260	264	268	272	276	280	284	288	291	295	299	302	306	309	313	319	323	326	330	333	336	338	342	344	346	348	351	354	358	362	366	371	375	378	380	383	386	389	392	394	396	399	401	402	403	403	403	403	403	404	405	406	407	408	410	410	410	410	411	413	414	415	415	415	415	415	416	417	418	420	423	424	426	429	432	434	436	438	439	439	438	438	437	436	434	433	432	432	433	434	435	436	435	435	434	434	434	434	434	434	433	432	432	432	433	433	432	430	430	430	431	431	433	434	436	437	438	437	435	433	432	435	437	438	439	440	444	448	452	456	459	465	470	474	475	476	477	476	475	474	473	473	474	475	476	477	478	479	479	480	480	480	481	481	481	482	483	483	482	481	480	481	483	485	486	487	488	490	492	494	497	500	502	505	508	510	512	513	515	516	516	517	517	518	520	521	522	523	523	523	523	521	520	519	518	517	515	513	512	510	510	510	510	510	508	503	498	493	489	486	484	482	479	477	475	474	474	473	471	469	467	464	460	458	457	456	453	450	447	445	445	445	445	443	441	440	438	437	437	437	438	439	440	443	446	450	453	456	459	462	466	469	471	472	472	471	470	468	465	463	462	461	461	461	462	463	464	466	468	470	472	473	475	477	479	480	480	480	480	480	479	479	478	476	475	473	472	471	470	470	469	469	469	469	469	468	468	468	467	466	466	465	465	464	463	463	463	462	461	461	461	461	460	460	459	458	457	457	456	455	454	454	454	454	454	454	453	452	451	449	448	447	445	444	442	441	441	440	439	437	436	437	436	436	435	434	432	430	428	428	429	430	431	431	431	429	428	427	425	424	421	418	415	413	412	413	415	418	421	422	423	423	423	423	424	424	424	425	426	427	429	432	435	437	439	439	438	435	432	429	427	426	424	422	418	414	409	405	402	397	393	389	384	380	376	372	368	365	363	359	357	356	352	348	348	348	345	341	339	337	335	331	328	324	321	318	315	313	312	311	307	304	304	305	305	304	301	299	302	305	308	309	309	307	303	300	298	291	292	296	297	299	301	302	303	303	302	300	297	293	290	288	284	280	278	274	275	280	281	281	281	279
261	258	254	251	248	246	243	241	239	237	235	231	228	225	222	219	216	213	210	207	203	200	197	194	191	187	184	181	177	174	171	169	166	163	161	158	155	153	151	149	147	145	142	140	137	135	133	131	129	127	125	121	118	115	112	109	106	104	101	99	96	94	92	90	88	86	84	82	81	79	77	75	73	72	72	71	71	70	69	68	66	64	62	61	60	58	56	54	52	49	48	46	44	42	40	38	36	36	35	33	30	28	27	26	25	22	20	21	20	18	17	16	14	11	10	10	10	9	8	6	5	4	4	3	4	4	4	3	3	3	3	3	3	3	3	4	4	4	4	4	4	3	3	2	2	2	2	1	0	0	0	0	0	0	0	0	0	0	0	0	0	0	0	0	0	0	0	0	1	2	1	0	0	0	0	0	0	0	0	0	0	0	0	0	0	0	0	0	0	0	0	0	0	0	0	0	0	0	0	0	0	0	0	1	2	2	2	2	2	2	2	2	2	2	2	2	2	2	2	3	2	2	2	1	0	0	0	0	0	0	1	2	3	5	8	9	6	4	4	5	7	6	5	4	4	3	3	3	3	3	4	5	6	6	7	7	6	7	8	9	9	9	9	9	9	9	9	9	9	8	8	8	8	8	8	8	8	8	8	8	9	9	9	9	9	9	9	9	9	9	9	9	9	9	9	9	9	9	9	9	9	9	9	9	9	9	9	9	9	9	9	9	9	9	9	9	9	9	9	9	9	9	9	9	9	9	9	9	10	10	10	10	10	10	10	10	10	10	10	10	10	10	11	11	10	10	10	10	11	11	12	12	13	12	13	13	13	13	13	13	13	13	13	13	13	13	13	13	13	13	13	13	13	14	14	15	17	18	20	21	19	17	16	16	17	17	18	18	18	17	17	19	26	30	32	34	37	39	39	42	41	35	36	39	40	42	42	42	43	46	47	45	45	45	46	48	50	53	55	56	56	57	57	58	59	61	62	62	60	58	59	62	65	66	68	69	70	72	74	75	78	80	82	84	86	88	90	91	92	94	95	97	98	100	101	102	103	105	106	108	109	110	112	113	114	115	116	117	119	120	122	123	124	125	127	127	129	130	132	134	135	137	139	141	142	145	147	149	151	153	154	156	158	161	163	165	168	170	173	175	178	179	181	183	187	190	193	195	198	202	207	211	215	219	222	225	228	231	234	238	240	242	245	248	251	254	257	260	263	266	270	274	278	283	287	291	294	297	300	303	306	309	312	318	320	323	327	330	332	335	339	342	343	347	350	354	358	362	366	370	374	376	379	381	384	387	390	392	394	397	399	401	401	401	400	400	400	401	402	403	404	406	407	407	407	408	409	410	411	412	412	412	413	414	414	416	418	420	423	425	427	430	432	434	435	437	437	437	437	437	436	436	434	431	430	429	431	432	433	433	432	432	431	431	431	432	431	431	431	430	428	428	428	428	426	425	425	427	428	428	429	430	431	432	432	431	428	427	428	429	431	433	435	437	441	445	449	452	456	463	469	472	472	472	473	472	471	470	470	470	470	471	472	473	475	476	476	477	477	478	478	478	479	480	480	480	479	478	477	478	480	482	483	483	485	488	490	491	493	496	499	502	505	507	509	511	513	515	516	517	517	519	520	522	523	524	524	525	525	525	524	523	522	522	520	518	516	515	515	514	515	514	512	507	502	497	493	489	487	486	484	482	481	481	480	479	477	474	471	468	465	462	461	459	456	453	450	449	449	449	448	446	444	442	441	441	440	440	441	442	443	445	447	451	455	458	461	465	471	474	474	474	473	471	470	468	465	463	462	461	460	460	461	462	464	465	467	469	470	472	474	476	477	478	479	480	479	479	479	478	477	476	475	473	472	471	470	470	469	469	468	468	468	467	467	467	466	466	465	465	464	464	463	463	462	462	461	461	461	460	460	459	458	457	456	455	454	453	452	452	453	453	453	453	452	452	450	449	448	446	445	443	442	441	440	439	437	436	434	433	433	433	433	431	429	427	425	426	428	429	429	429	428	427	425	424	423	421	420	417	413	411	411	412	414	417	419	420	420	421	421	422	423	423	424	425	426	428	430	433	436	438	440	440	438	435	431	429	426	425	424	421	417	412	408	404	400	396	392	387	383	378	374	371	368	366	364	362	359	357	354	350	349	348	346	343	341	338	335	332	328	325	322	321	317	314	313	311	306	302	302	303	303	302	300	298	300	304	306	308	309	307	304	301	297	291	291	294	293	294	296	299	301	301	301	299	296	292	290	288	284	280	277	274	271	275	279	282	282	279
260	257	253	250	247	244	242	239	237	235	233	230	227	225	222	219	216	212	210	207	204	201	198	194	191	187	184	181	177	174	170	167	164	162	159	157	154	151	149	147	145	143	141	138	135	133	131	130	128	126	124	120	117	114	111	108	106	104	101	99	96	94	92	89	87	85	83	82	80	78	76	74	72	71	71	71	70	69	69	68	67	65	63	62	60	59	57	55	53	51	49	47	45	43	41	40	38	37	36	34	31	29	28	27	26	24	22	22	20	18	17	15	13	11	10	10	10	10	7	5	5	4	3	3	4	4	3	3	3	3	3	3	3	3	3	3	3	3	4	4	4	3	3	2	2	2	2	1	0	0	0	0	0	0	0	0	0	0	0	0	0	0	0	0	0	0	0	0	1	1	1	0	0	0	0	0	0	0	0	0	0	0	0	0	0	0	0	0	0	0	0	0	0	0	0	0	0	0	0	0	0	0	0	1	2	2	2	2	2	2	2	2	2	2	2	2	2	2	2	3	2	2	1	0	0	0	0	0	0	0	1	2	5	7	8	8	6	4	4	5	7	6	4	3	3	3	3	3	3	4	5	6	7	8	8	8	7	7	8	9	9	9	9	9	9	9	9	9	9	9	8	8	8	8	8	8	8	8	8	8	9	9	9	9	9	9	9	9	9	9	9	9	9	9	9	9	9	9	9	9	9	9	9	9	9	9	9	9	9	9	9	9	9	9	9	9	9	9	9	9	9	9	9	9	9	9	9	10	10	10	10	10	10	10	10	10	10	10	10	10	10	10	11	10	10	10	10	11	11	12	12	13	13	12	13	13	13	13	13	13	13	13	13	13	13	13	13	13	13	13	13	13	13	13	14	14	15	16	18	18	17	17	16	16	16	17	17	17	18	18	17	17	21	27	31	33	34	36	37	40	38	35	34	35	36	38	40	40	42	45	44	43	44	45	46	47	49	51	53	54	56	56	56	57	58	59	60	60	56	56	60	63	65	67	68	69	71	73	74	75	77	79	82	84	86	88	89	91	92	94	95	97	99	100	101	102	104	105	107	108	109	111	112	113	114	115	117	118	119	121	122	123	125	126	127	128	129	131	132	134	136	138	139	141	143	146	148	150	152	154	155	157	159	161	164	166	169	172	174	177	179	181	183	185	188	191	194	197	201	204	209	213	217	221	224	228	232	236	240	243	245	247	250	253	256	259	261	264	267	269	273	276	281	285	289	293	295	298	301	303	306	308	310	315	318	320	323	327	329	332	336	339	342	345	350	354	358	361	365	368	372	375	377	379	382	385	388	390	393	395	397	398	399	399	399	398	398	399	400	401	402	403	404	404	405	405	407	408	409	409	409	410	411	412	414	415	418	420	423	425	428	430	431	433	434	435	436	436	436	436	436	435	433	430	428	428	429	429	429	429	428	428	428	428	428	429	428	428	429	427	425	425	425	423	421	420	420	422	424	425	426	427	427	428	428	426	422	421	423	425	426	428	431	434	438	443	447	451	454	459	464	467	468	468	469	468	466	465	464	465	466	466	467	469	471	473	474	474	475	475	475	475	476	477	477	476	475	474	473	474	476	478	479	480	482	485	487	488	490	493	496	499	502	504	506	508	511	513	515	517	517	518	520	522	523	524	525	526	527	527	527	526	526	525	524	523	521	519	519	518	518	517	515	511	506	502	498	495	493	491	489	488	487	487	486	485	482	479	476	472	469	467	465	463	459	456	455	454	454	453	451	449	447	446	445	444	443	444	445	446	447	448	450	453	456	459	463	468	474	476	476	475	473	471	470	468	466	464	462	461	460	460	461	462	463	465	466	468	469	471	473	474	476	477	478	478	478	478	478	477	476	475	474	473	472	471	470	469	469	468	467	467	466	466	466	466	466	465	465	464	464	463	463	463	462	462	462	461	461	460	460	459	458	457	456	455	454	452	451	451	452	453	453	452	451	451	450	449	447	446	444	443	442	441	439	438	436	434	432	431	431	430	429	427	425	423	422	425	426	427	427	426	425	424	422	421	420	419	418	416	412	409	410	411	413	415	417	419	419	420	421	422	423	424	425	426	428	430	432	434	436	438	439	439	436	433	429	427	425	424	423	420	416	411	407	403	399	394	390	386	382	379	375	371	369	367	365	363	360	358	355	353	351	349	346	344	340	337	333	331	328	325	324	322	319	316	314	311	307	302	299	298	299	299	299	298	301	304	305	306	306	306	304	301	298	293	290	291	291	291	292	296	298	298	299	299	295	291	288	286	283	281	277	273	269	270	275	281	281	278
259	256	253	250	247	244	241	238	235	233	231	228	226	223	221	218	215	212	209	206	204	201	198	194	191	187	184	181	177	174	170	167	164	161	159	156	153	150	148	146	144	142	139	137	134	132	130	128	127	125	122	119	116	113	111	108	106	103	101	98	96	93	91	88	86	84	82	80	78	76	75	73	72	70	69	69	68	68	68	68	67	66	64	63	61	59	58	56	54	52	51	49	47	45	43	42	40	38	36	35	33	30	28	27	27	26	24	23	21	19	17	15	13	10	9	9	10	8	5	4	3	3	3	3	4	4	3	3	3	3	3	4	4	3	3	3	3	3	3	4	4	3	2	2	2	2	2	0	0	0	0	0	0	0	0	0	0	0	0	0	0	0	0	0	0	0	0	0	1	1	0	0	0	0	0	0	0	0	0	0	0	0	0	0	0	0	0	0	0	0	0	0	0	0	0	0	0	0	0	0	0	0	0	1	1	2	2	2	2	2	2	2	2	2	2	2	2	3	3	3	2	2	1	0	0	0	0	0	0	0	1	3	5	7	7	6	5	4	4	6	7	6	4	4	4	4	4	4	4	5	7	8	8	8	8	9	8	7	8	9	9	9	9	9	9	9	9	9	9	9	8	8	8	8	8	8	8	8	8	9	9	9	9	9	9	9	9	9	9	9	9	9	9	9	9	9	9	9	9	9	9	9	9	9	9	9	9	9	9	9	9	9	9	9	9	9	9	9	9	9	9	9	9	9	9	9	9	10	10	10	10	10	10	10	10	10	10	10	10	10	10	10	10	10	10	10	10	11	12	12	13	13	12	13	13	13	13	13	13	13	13	13	13	13	13	13	13	13	13	13	13	13	13	13	13	14	15	15	16	17	17	16	16	16	16	16	17	17	17	18	18	17	18	22	28	31	33	35	36	35	35	36	35	34	34	35	38	40	41	42	42	42	43	44	45	46	48	49	50	52	54	55	55	56	57	57	57	56	55	58	61	64	65	67	69	70	72	73	74	76	78	80	82	84	86	88	90	91	92	94	95	97	98	100	101	102	103	105	106	108	109	111	112	113	115	116	118	120	120	122	123	124	126	127	128	129	131	132	134	135	137	138	140	142	144	147	149	151	153	155	156	158	160	162	165	167	170	173	175	178	180	183	185	187	189	191	195	199	203	206	210	214	218	223	226	231	235	240	244	247	250	252	254	257	260	262	265	267	270	273	275	279	283	286	290	293	295	297	299	302	304	306	307	310	313	316	319	323	325	329	333	337	340	345	349	353	357	360	364	367	370	372	374	377	380	383	385	388	390	392	394	396	397	397	397	396	396	397	398	399	401	402	402	402	402	403	404	405	406	406	407	408	410	412	414	416	418	421	423	426	428	429	431	432	433	433	434	434	435	435	435	434	432	430	427	426	426	425	424	424	424	425	425	426	426	426	426	426	426	423	421	422	423	420	417	416	416	417	419	420	421	423	425	425	424	421	418	418	419	420	422	424	428	431	436	442	447	450	452	455	459	462	463	464	465	464	462	459	458	458	460	463	465	466	468	470	471	471	472	473	473	473	473	474	474	473	472	471	470	470	472	474	476	477	479	481	483	485	487	490	493	496	499	501	503	506	509	512	514	516	517	518	520	522	524	525	526	527	528	528	528	528	528	527	526	525	524	522	521	520	520	519	517	514	510	506	503	501	499	497	495	493	492	492	491	489	487	484	480	477	474	472	470	467	463	461	460	459	458	457	455	453	450	449	448	447	447	447	448	449	450	451	454	456	458	461	465	471	477	478	477	475	474	472	470	468	466	464	462	461	460	460	460	461	462	464	465	467	468	470	471	473	474	475	476	477	477	477	477	476	476	475	473	472	471	470	470	469	469	468	466	466	465	465	465	465	465	464	464	464	464	464	463	463	463	463	462	462	462	461	460	459	458	457	456	456	455	453	451	451	451	452	452	451	450	450	449	448	447	445	444	443	442	440	438	436	435	433	430	429	428	426	425	423	421	419	420	424	425	425	425	424	423	421	419	417	416	415	415	414	410	408	409	410	412	414	417	419	420	422	423	424	425	426	427	428	430	431	433	434	436	437	436	435	433	430	427	425	423	422	420	418	414	410	406	402	397	394	390	387	384	381	377	373	371	368	366	363	361	359	357	355	353	350	347	343	339	335	332	331	329	326	324	322	320	316	314	312	308	303	298	295	295	296	297	298	300	302	301	302	303	303	302	300	296	291	288	289	288	288	289	291	293	295	297	298	295	290	287	284	282	282	280	275	269	268	271	277	276	275
257	255	252	249	246	243	240	237	234	231	229	226	224	221	219	217	214	211	208	205	203	201	197	194	190	187	184	180	176	173	170	167	164	161	158	155	152	149	147	145	142	140	138	136	134	132	129	127	125	123	121	118	115	113	110	108	106	103	100	98	95	93	90	87	85	83	81	79	77	75	74	73	72	69	68	67	66	66	67	67	66	65	64	62	61	59	58	58	57	55	53	51	49	47	45	44	42	39	36	35	34	32	29	28	27	26	25	24	22	19	17	15	13	10	8	8	8	6	3	2	2	2	2	3	4	4	3	3	3	3	4	5	5	4	3	3	4	4	3	3	3	3	2	2	2	2	2	0	0	0	0	0	0	0	0	0	0	0	0	0	0	0	0	0	0	0	0	0	0	0	0	0	0	0	0	0	0	0	0	0	0	0	0	0	0	0	0	0	0	0	0	0	0	0	0	0	0	0	0	0	0	0	0	0	0	1	1	1	2	2	2	2	2	2	2	2	2	3	3	3	2	1	1	0	0	0	0	0	0	1	1	3	6	7	6	5	4	4	4	6	7	6	5	5	5	5	5	5	6	7	8	8	8	8	8	9	8	7	8	9	9	9	9	9	9	9	9	9	9	9	9	9	9	8	8	8	9	9	9	9	9	9	9	9	9	9	9	9	9	9	9	9	9	9	9	9	9	9	9	9	9	9	9	9	9	9	9	9	9	9	9	9	9	9	9	9	9	9	9	9	9	9	9	9	9	9	9	10	10	10	10	10	10	10	10	10	10	10	10	10	10	10	10	10	10	10	11	12	13	13	13	13	12	13	13	13	13	13	13	13	13	13	13	13	13	13	13	13	13	13	13	13	13	13	13	14	14	15	16	16	16	16	16	16	16	16	17	17	17	18	18	18	18	20	26	30	33	34	34	34	37	42	41	35	34	34	36	37	39	40	39	40	41	42	44	46	47	49	49	51	53	54	54	55	55	55	56	56	57	60	62	64	66	68	69	71	72	74	75	76	79	81	82	83	85	87	89	91	92	93	94	96	97	99	100	101	102	104	106	107	109	110	112	113	115	117	118	120	121	122	124	125	126	128	129	131	132	134	135	136	138	139	140	142	145	147	150	152	154	156	157	159	161	164	166	168	171	173	176	179	181	184	186	188	190	193	196	200	205	208	212	215	219	223	227	231	236	242	246	250	253	256	258	260	263	265	268	270	273	275	278	281	284	287	290	292	293	294	296	299	302	302	303	305	309	312	315	319	323	327	331	335	340	344	348	352	356	358	361	364	366	368	371	374	378	381	383	385	388	390	391	393	394	394	394	394	394	395	396	398	399	400	401	400	400	401	401	402	403	404	406	407	409	411	414	416	419	421	424	426	427	428	429	430	431	431	431	432	432	433	433	432	431	429	427	425	424	423	421	420	421	422	423	423	423	424	424	425	424	421	418	418	419	416	413	412	411	412	414	415	416	418	420	420	417	414	415	416	416	417	418	421	426	431	435	441	446	448	450	454	457	458	459	460	460	459	457	455	454	454	455	459	462	464	466	468	468	468	469	470	471	471	471	472	471	470	469	468	467	467	469	472	474	475	476	478	480	482	485	487	490	492	495	497	500	504	508	510	512	515	516	517	519	521	523	525	526	527	527	528	528	528	528	528	527	526	525	523	522	521	521	520	519	517	514	510	508	506	505	503	501	499	498	497	495	493	490	487	484	482	480	477	474	470	467	465	464	464	463	462	460	457	454	453	451	450	450	451	452	454	454	455	457	459	461	464	468	475	479	479	477	476	474	472	470	468	466	464	463	461	460	460	460	460	461	463	464	465	467	468	470	471	472	474	475	475	476	476	476	476	475	474	473	472	471	471	470	470	469	467	465	465	465	464	463	463	463	464	464	464	464	464	464	464	464	463	463	463	463	462	461	460	458	457	456	456	455	453	451	450	450	451	451	450	449	449	448	447	446	444	443	443	441	439	436	434	432	430	427	425	424	422	420	419	419	418	420	423	423	423	423	422	421	419	416	414	413	411	410	410	408	408	409	410	412	414	417	419	422	424	425	426	427	428	429	430	432	433	434	435	435	434	434	432	429	426	424	422	421	419	418	415	412	409	405	401	397	394	390	387	385	382	379	375	373	369	367	364	362	360	358	357	355	351	347	343	339	335	333	332	330	328	325	322	319	316	314	311	308	303	299	296	294	295	297	297	296	295	296	297	299	300	301	299	294	287	284	284	284	285	286	289	291	292	294	295	293	289	286	284	282	282	282	276	269	268	270	272	272	271
256	254	251	248	245	243	239	236	233	230	227	224	222	219	216	214	212	209	207	204	201	199	196	192	189	186	183	179	176	172	170	167	164	161	158	155	152	149	147	144	141	139	137	135	134	131	128	125	123	121	119	117	115	112	110	108	105	103	100	97	94	91	88	86	84	82	80	78	76	74	73	72	71	68	67	66	64	64	66	66	65	63	62	61	59	58	57	58	57	55	54	52	51	49	47	46	44	41	38	36	35	33	30	28	26	25	24	24	23	21	18	15	13	11	9	7	6	4	2	2	2	2	2	3	4	4	3	3	3	3	4	4	4	4	3	3	4	4	4	3	3	2	2	2	2	2	2	0	0	0	0	0	0	0	0	0	0	0	0	0	0	0	0	0	0	0	0	0	0	0	0	0	0	0	0	0	0	0	0	0	0	0	0	0	0	0	0	0	0	0	0	0	0	0	0	0	0	0	0	0	0	0	0	0	0	0	0	1	2	2	2	2	2	2	2	2	3	3	3	2	2	1	0	0	0	0	0	0	0	1	2	4	7	8	7	5	4	4	4	5	6	6	6	7	7	7	7	7	7	8	8	9	9	9	9	8	7	6	8	9	9	9	9	9	9	9	9	9	9	9	9	9	9	9	9	9	9	9	9	9	9	9	9	9	9	9	9	9	9	9	9	9	9	9	9	9	9	9	9	9	9	9	9	9	9	9	9	9	9	9	9	9	9	9	9	9	9	9	9	9	9	9	9	9	9	9	9	10	10	10	10	10	10	10	10	10	10	10	10	10	10	10	10	10	10	11	12	13	13	13	13	13	13	13	13	13	13	13	13	13	13	13	13	13	13	13	13	13	13	13	13	13	13	13	13	14	14	15	15	16	16	16	16	17	17	16	16	17	17	17	18	18	18	18	22	29	33	34	34	35	40	44	43	35	33	34	34	35	36	37	38	38	39	40	42	44	46	48	49	51	52	53	52	51	50	51	56	58	59	61	63	65	67	69	71	72	74	75	76	77	79	81	82	83	85	87	88	90	91	92	93	95	97	98	99	100	102	104	106	107	108	110	112	113	115	117	118	120	121	122	124	125	127	128	130	132	133	134	135	137	138	140	141	143	145	147	150	152	154	156	158	160	162	165	167	169	172	174	177	179	182	185	187	189	192	195	199	203	207	210	213	217	220	224	227	232	236	241	246	250	254	257	260	262	265	267	270	272	274	277	279	281	284	286	288	289	290	291	292	295	297	299	299	302	306	309	312	317	322	326	330	335	339	343	347	351	354	355	358	360	362	364	367	371	374	378	380	382	385	387	389	390	391	391	391	391	392	393	394	396	397	398	398	398	398	398	399	400	401	403	405	407	409	412	414	416	419	421	423	425	426	427	428	428	428	428	428	429	430	431	431	431	430	429	427	425	423	421	419	418	419	420	420	420	421	422	422	422	421	419	415	413	411	410	408	407	406	406	408	410	409	409	411	411	410	410	411	412	413	413	414	418	425	430	433	438	443	446	448	452	454	455	455	455	454	452	451	452	451	451	452	455	457	460	463	465	465	465	465	466	468	469	469	469	468	467	466	466	465	465	467	469	471	473	474	476	478	480	482	485	487	489	492	495	498	502	506	509	510	512	514	515	517	519	521	523	525	526	527	527	527	528	528	528	527	526	524	523	521	520	519	519	518	517	516	514	512	511	510	509	508	506	504	503	500	498	494	491	489	487	484	481	478	474	471	470	470	469	468	466	464	461	458	456	455	453	453	454	456	458	458	459	460	462	464	467	472	477	480	479	478	476	474	472	470	468	466	465	463	461	460	459	459	460	460	462	463	464	466	467	468	469	471	472	473	473	474	474	475	475	475	474	473	472	471	470	469	469	468	466	465	465	464	463	462	462	462	463	464	464	464	464	464	464	464	464	464	464	464	463	462	461	459	457	456	455	454	453	451	450	450	450	450	449	449	448	447	446	445	444	443	442	440	437	435	432	430	427	424	422	420	418	416	416	416	417	419	422	422	421	420	420	419	417	414	411	409	407	406	405	405	406	407	409	412	415	418	421	424	427	428	429	429	430	431	432	433	433	433	433	433	432	430	428	425	423	421	419	418	416	415	413	410	408	404	401	397	394	391	388	386	383	379	377	374	371	368	366	363	360	358	356	354	351	346	343	340	337	334	332	331	329	325	321	318	315	313	310	306	302	299	296	294	295	296	295	293	291	293	296	296	296	297	296	289	284	281	280	282	283	286	289	290	290	292	292	290	287	286	284	283	283	281	274	271	270	270	270	270	269
255	253	250	247	245	242	238	235	232	229	226	223	220	217	214	212	210	208	205	202	199	196	194	191	188	185	182	178	175	172	170	167	164	161	159	156	153	150	147	144	141	139	137	135	133	131	128	125	123	120	118	116	114	111	109	107	104	102	99	96	93	90	87	85	83	82	80	77	75	74	72	71	69	67	66	65	63	62	63	63	62	61	60	59	58	57	57	56	56	55	54	52	51	50	48	47	45	42	39	37	36	34	32	30	27	25	23	24	24	22	19	16	13	12	10	7	5	3	2	2	2	2	2	3	4	3	3	3	3	3	3	3	4	3	3	3	4	4	4	3	3	2	2	2	2	2	1	0	0	0	0	0	0	0	0	0	0	0	0	0	0	0	0	0	0	0	0	0	0	0	0	0	0	0	0	0	0	0	0	0	0	0	0	0	0	0	0	0	0	0	0	0	0	0	0	0	0	0	0	0	0	0	0	0	0	0	0	1	2	2	2	2	3	3	3	3	3	3	3	2	2	1	0	0	0	0	0	0	1	2	3	5	8	9	8	6	4	4	5	5	6	6	6	7	8	8	8	8	7	8	8	9	9	10	9	7	6	6	7	8	9	9	9	9	9	9	9	9	9	9	9	9	9	9	9	9	9	9	9	9	9	9	9	9	9	9	9	9	9	9	9	9	9	9	9	9	9	9	9	9	9	9	9	9	9	9	9	9	9	9	9	9	9	9	9	9	9	9	9	9	9	9	9	9	9	9	9	10	10	10	10	10	10	10	10	10	10	10	10	10	10	10	10	10	10	11	12	13	13	13	13	13	13	13	13	13	13	13	13	13	13	13	13	13	13	13	13	13	13	13	13	13	13	13	14	14	14	14	15	15	16	16	16	17	17	17	16	16	17	17	18	18	18	18	18	24	32	34	35	35	39	41	39	34	32	33	34	34	35	36	37	37	38	38	39	42	44	47	48	49	50	50	47	46	47	52	57	59	60	62	64	67	69	71	72	74	75	76	78	78	79	81	82	84	85	86	88	89	90	92	93	94	96	98	99	100	102	103	105	107	108	109	111	113	115	117	118	120	121	123	124	126	127	129	130	132	133	134	136	137	139	140	142	143	145	147	150	152	155	157	159	161	163	165	168	170	172	175	178	180	182	185	188	191	195	198	201	205	208	211	214	218	221	224	228	232	236	240	245	249	254	257	260	263	265	267	270	272	274	277	279	281	283	285	286	286	287	287	288	290	292	295	296	299	304	307	310	314	320	326	330	334	338	342	345	349	351	352	354	356	357	359	363	367	370	373	376	379	382	385	387	388	388	388	388	389	390	391	392	393	394	395	395	395	395	396	397	398	400	402	404	407	409	412	415	417	419	421	423	424	425	426	426	425	425	425	425	426	427	428	429	428	428	428	427	425	422	420	418	416	416	417	417	417	418	419	419	419	418	416	413	408	405	404	403	403	401	400	401	404	403	402	404	406	406	406	405	406	407	410	412	416	422	426	429	433	438	442	445	448	450	451	451	451	449	448	448	448	448	448	449	452	453	455	458	462	462	462	463	463	464	465	466	466	465	464	464	464	463	464	465	467	468	470	472	475	477	478	480	483	486	488	490	494	497	501	504	507	508	509	511	512	514	516	519	521	522	523	525	525	526	526	526	525	524	523	522	520	519	518	517	516	516	516	516	515	514	514	513	513	512	512	510	508	505	502	499	497	494	491	488	485	481	478	476	475	475	474	473	471	468	464	462	459	458	457	457	458	460	462	462	462	463	465	467	470	475	479	481	480	478	476	474	472	470	468	466	465	463	461	460	459	459	459	460	460	462	463	464	465	466	468	469	470	471	472	472	473	474	474	473	473	472	471	469	468	468	467	466	465	464	464	463	462	461	461	461	462	463	464	465	465	465	465	465	465	465	465	465	464	463	461	459	457	456	454	453	452	450	449	449	449	448	448	448	447	447	445	444	443	442	440	438	435	432	429	427	424	422	419	418	416	415	415	415	416	418	420	420	419	418	418	416	414	411	408	407	405	404	404	405	406	407	410	414	418	421	424	427	429	430	430	430	431	432	433	433	432	431	430	430	428	426	424	422	420	418	416	415	413	411	410	408	406	404	401	397	394	391	388	386	383	380	378	375	372	369	366	364	360	357	355	353	350	345	342	340	337	335	332	330	328	324	321	318	315	311	308	304	301	298	295	294	295	296	294	291	291	293	294	294	292	292	291	288	284	281	280	283	284	287	289	289	289	290	291	289	287	287	286	284	283	281	277	275	274	272	271	271	269
254	252	250	247	244	241	238	234	231	228	225	222	219	216	212	210	208	206	203	200	197	194	192	189	187	184	181	178	175	172	169	167	164	161	159	156	153	151	148	145	142	139	137	135	133	131	128	126	124	121	118	116	114	111	108	105	103	100	98	95	91	88	86	84	83	81	79	77	75	73	71	70	68	66	65	63	61	61	61	60	59	59	58	57	56	55	55	55	55	54	53	52	51	50	49	47	45	43	41	39	36	35	34	32	28	25	24	24	24	22	20	17	14	13	11	7	4	2	2	2	2	2	2	3	3	3	3	3	3	3	3	3	3	3	3	3	3	3	4	4	3	3	2	2	2	2	1	0	0	0	0	0	0	0	0	0	0	0	0	0	0	0	0	0	0	0	0	0	0	0	0	0	0	0	0	0	0	0	0	0	0	0	0	0	0	0	0	0	0	0	0	0	0	0	0	0	0	0	0	0	0	0	0	0	0	0	0	1	2	2	2	2	3	3	3	3	3	3	3	2	2	1	0	0	0	0	0	0	1	2	3	4	6	8	8	6	4	5	5	6	6	6	7	7	7	7	7	7	8	8	8	9	9	9	8	6	5	5	7	8	9	9	9	9	9	9	9	9	9	9	9	9	9	9	9	9	9	9	9	9	9	9	9	9	9	9	9	9	9	9	9	9	9	9	9	9	9	9	9	9	9	9	9	9	9	9	9	9	9	9	9	9	9	9	9	9	9	9	9	9	9	9	9	9	9	9	9	9	10	10	10	10	10	10	10	10	10	10	10	10	10	10	10	10	11	12	13	13	13	13	13	13	13	13	13	13	13	13	13	13	13	13	13	13	13	13	13	13	13	13	13	13	13	14	14	14	15	14	14	15	15	16	16	17	17	17	17	16	17	17	17	18	18	18	18	20	28	33	34	34	35	36	38	36	33	34	35	34	35	36	37	37	37	37	37	39	41	43	44	44	46	48	48	49	52	55	58	60	61	63	65	68	70	72	74	76	78	79	79	80	81	82	83	84	86	87	88	89	90	92	93	94	96	97	98	100	101	103	104	105	107	108	110	112	115	117	119	120	121	123	124	125	127	128	130	132	133	134	135	137	139	140	142	144	145	147	150	152	155	157	159	161	163	166	168	170	173	176	178	181	183	186	189	193	196	199	202	206	209	212	214	218	221	224	228	232	236	240	243	247	252	255	258	261	263	266	269	271	273	275	277	278	280	281	282	282	282	283	284	285	287	291	293	297	301	306	309	313	319	325	329	333	336	339	342	345	347	348	350	351	353	355	359	363	365	369	372	375	378	381	383	385	385	385	385	386	387	389	390	391	392	392	392	392	392	393	395	396	399	401	403	406	409	413	415	417	420	421	423	424	425	425	424	423	422	421	420	422	423	425	426	426	426	426	425	423	421	419	417	414	413	413	413	413	414	415	415	415	415	414	410	405	401	400	399	398	396	396	396	398	399	399	401	402	402	401	401	401	402	406	408	413	420	422	425	430	434	438	441	443	445	446	448	447	446	445	445	444	444	444	445	449	451	453	455	458	460	460	460	460	461	462	463	463	462	461	461	460	460	461	464	466	466	467	469	473	476	478	479	482	484	487	489	492	496	499	502	504	506	507	508	510	512	514	516	518	519	520	521	522	522	522	522	521	520	519	517	516	515	514	514	513	513	513	514	514	514	514	514	514	514	513	512	511	508	506	504	502	499	496	493	489	486	483	482	481	481	479	478	475	472	468	465	462	461	460	460	461	463	465	466	467	467	469	471	475	479	481	482	480	479	476	474	472	470	468	466	465	463	461	460	459	458	458	459	459	460	461	463	464	465	466	467	468	469	470	471	472	472	472	471	471	470	469	467	466	466	465	464	464	463	462	462	461	460	460	460	461	462	464	465	465	465	466	466	466	466	466	465	465	463	462	460	457	455	453	452	451	449	447	447	447	447	447	447	446	445	444	443	442	440	438	436	433	430	427	424	422	420	417	416	415	414	413	412	413	416	418	418	418	416	415	414	411	409	406	404	404	404	405	405	407	409	412	416	421	425	428	430	432	431	430	429	430	431	431	431	430	427	426	425	424	422	420	419	417	415	414	412	410	409	407	406	405	402	400	397	394	391	388	385	382	380	377	375	372	369	366	363	360	357	355	353	349	345	343	340	337	334	331	329	326	323	320	318	315	310	307	304	301	298	295	294	295	295	292	288	289	290	290	289	288	289	290	288	286	283	282	284	284	285	287	287	288	289	291	290	289	289	289	287	285	283	282	280	277	275	272	270	268
