56	57	59	60	61	62	62	64	65	67	69	70	70	70	71	75	78	79	78	77	74	73	76	80	81	82	84	87	89	93	97	100	102	104	106	107	108	109	110	111	111	112	113	113	112	111	111	111	111	110	109	108	106	105	103	102	101	100	100	100	99	98	98	99	100	101	104	108	110	108	108	109	110	110	109	110	112	113	115	116	116	117	118	120	122	124	126	128	130	131	131	131	131	131	131	133	134	136	136	135	135	136	136	136	139	142	144	145	146	146	146	147	146	145	145	144	143	142	141	140	139	138	137	136	134	133	131	129	128	126	125	125	124	123	121	119	117	114	112	110	107	105	104	102	101	100	99	97	95	94	93	92	90	89	87	84	81	79	76	73	70	67	65	63	62	62	61	59	57	55	53	51	49	47	46	45	43	42	40	38	36	35	33	31	29	28	26	24	22	20	17	12	7	4	3	2	2	1	1	1	1	0	0	0	0	0	0	0	0	0	0	0	0	0	0	0	0	0	0	0	0	0	0	0	0	0	0	0	0	0	0	0	0	1	1	1	1	2	2	2	3	3	5	7	8	10	13	14	15	16	16	16	17	19	21	23	25	27	29	31	34	36	38	41	44	47	49	51	52	54	55	56	57	58	61	64	66	66	66	67	68	70	72	73	73	74	72	70	73	73	71	68	70	75	78	80	82	85	86	87	89	90	92	92	92	94	95	96	97	98	100	104	106	107	107	106	104	102	99	98	97	96	97	99	97	94	89	88	90	89	87	84	82	80	79	78	76	72	69	71	68	66	67	67	64	59	56	54	51	48	45	41	39	39	41	38	32	28	26	23	18	14	9	6	4	3	2	1	1	1	3	7	9	9	9	10	10	9	9	9	9	9	8	8	8	8	8	8	8	8	8	8	8	8	8	8	8	8	8	8	8	8	9	9	9	9	9	9	9	9	9	9	9	9	9	9	9	10	10	10	10	9	9	9	9	10	11	11	12	12	11	10	10	10	10	10	10	10	10	10	10	10	10	10	10	10	10	10	10	10	10	10	10	10	10	10	9	9	9	9	9	9	9	10	12	16	18	19	16	11	15	17	13	14	14	15	16	14	11	9	9	9	9	9	9	9	9	9	9	9	9	9	9	9	9	8	9	9	9	9	9	9	9	9	9	9	9	9	9	9	9	9	9	9	9	9	9	10	13	16	17	17	16	15	13	11	9	9	8	8	9	9	9	9	9	9	9	9	9	9	8	8	8	8	8	9	9	9	9	9	9	9	9	9	9	9	9	10	10	9	10	10	10	9	9	9	9	9	9	9	9	9	9	9	9	9	9	10	10	10	9	9	9	9	9	9	9	9	9	9	9	9	9	9	9	9	9	9	9	9	9	8	8	8	9	9	9	9	9	9	9	9	9	9	9	9	9	9	9	9	9	9	9	9	9	9	9	9	9	9	9	9	9	9	9	9	9	9	9	9	9	9	9	9	9	9	8	8	8	8	8	8	8	8	8	8	8	8	8	8	8	8	8	8	8	8	8	8	8	8	8	8	8	8	8	8	8	8	9	9	9	8	8	8	8	8	8	7	8	8	8	8	8	8	8	8	8	8	8	8	8	8	8	7	7	7	7	7	7	7	7	7	7	7	7	7	7	7	7	7	7	7	7	7	7	7	7	7	7	7	7	7	7	7	7	7	7	7	7	7	7	7	7	7	7	7	7	7	7	6	5	4	3	1	0	0	0	0	0	0	0	0	0	0	0	0	0	0	0	0	0	0	0	0	0	0	0	0	0	0	0	0	0	0	0	0	0	0	0	0	0	0	0	0	0	0	0	0	0	0	0	0	0	0	0	0	0	0	0	0	0	0	0	0	0	0	0	0	0	0	0	0	0	0	0	0	0	0	0	0	0	0	0	0	0	0	0	0	0	0	0	0	0	0	0	0	0	0	0	0	0	0	0	0	0	0	0	0	0	0	0	0	0	0	0	0	0	0	0	0	0	0	0	0	0	0	0	0	0	0	0	0	0	0	0	0	0	0	0	0	0	0	0	0	0	0	0	0	0	0	0	0	0	0	0	0	0	0	0	0	0	0	0	0	0	0	0	0	0	0	0	0	0	0	0	0	0	0	0	0	0	0	0	0	0	0	0	0	0	0	0	0	0	0	0	0	0	0	0	0	0	0	0	0	0	0	0	0	0	0	0	0	0	0	0	0	0	0	0	0	0	0	0	0	0	0	0	0	0	0	0	0	0	0	0	0	0	0	0	0	0	0	0	0	0	0	0	0	0	0
57	59	61	62	63	64	65	65	66	68	69	70	71	72	74	78	80	80	78	76	75	75	77	79	80	83	85	88	91	94	98	100	103	107	108	109	110	111	112	112	113	114	114	114	113	112	111	111	111	110	109	107	106	105	103	102	100	99	99	99	99	99	100	100	101	104	108	112	114	113	113	114	115	114	112	113	115	116	117	118	119	120	120	122	124	126	128	130	133	135	135	134	134	134	134	136	138	139	139	139	139	138	137	138	142	145	145	147	148	148	148	147	147	147	147	146	145	143	142	141	140	139	138	137	135	134	132	130	129	128	127	126	125	124	122	120	118	116	114	112	109	107	106	104	103	102	100	99	96	95	94	93	92	90	88	86	83	81	78	75	71	69	67	65	64	64	62	61	58	56	54	52	50	49	47	46	44	43	41	39	37	36	35	33	31	29	27	25	23	20	17	13	8	5	3	2	2	2	1	1	1	1	1	1	1	1	0	0	0	0	0	0	0	0	0	0	0	0	0	0	0	0	0	0	0	0	0	0	0	0	0	0	1	1	2	2	2	2	2	3	4	6	8	10	11	12	14	15	16	17	17	17	18	20	22	24	26	28	29	32	34	37	40	42	46	49	51	53	54	56	57	58	59	60	62	65	67	67	67	68	69	72	74	74	75	76	77	77	75	74	72	71	77	80	81	82	85	87	88	89	91	92	93	93	94	96	97	98	100	102	104	106	109	110	110	109	107	104	102	100	99	98	98	100	98	93	90	90	92	92	91	88	84	81	80	78	75	71	72	75	74	72	72	70	68	64	61	59	54	49	45	42	40	41	42	39	35	32	30	24	18	15	11	7	4	3	2	1	1	1	4	8	9	9	10	10	10	9	9	9	9	8	8	8	8	8	8	8	8	8	8	8	8	8	8	8	8	8	8	8	8	8	9	9	9	9	9	9	9	9	9	9	9	9	9	9	9	10	10	10	10	9	9	9	9	10	11	12	12	12	11	11	10	10	10	10	10	10	10	10	10	10	10	10	10	10	10	10	10	10	10	10	10	10	10	10	9	9	9	8	8	8	9	9	10	11	13	16	13	10	12	13	10	10	10	11	12	12	10	9	9	9	9	9	9	9	9	9	9	9	9	9	9	9	8	8	8	9	9	9	9	9	9	9	9	9	9	9	9	9	9	9	9	9	9	9	9	9	12	16	18	17	16	15	13	11	9	8	8	8	8	9	9	9	9	9	9	9	9	9	9	8	8	8	9	9	9	9	9	9	9	9	9	9	9	9	9	10	10	9	9	10	9	9	9	9	9	9	9	9	9	9	9	9	9	9	9	9	9	9	9	9	9	9	9	9	9	9	9	9	9	9	9	9	9	9	9	9	9	9	9	9	8	8	9	9	9	9	9	9	9	9	9	9	9	9	9	9	9	9	9	9	9	9	9	9	9	9	9	9	9	9	9	9	9	9	9	9	9	9	9	9	9	9	9	8	8	8	8	8	8	8	8	8	8	8	8	8	8	8	8	8	8	8	8	8	8	8	8	8	9	9	8	8	8	8	8	8	9	8	8	8	8	8	8	8	8	7	8	8	8	8	8	8	8	8	8	8	8	8	8	8	8	8	8	8	7	7	7	7	7	7	7	7	7	7	7	7	7	7	7	7	7	7	7	7	7	7	7	7	7	7	7	7	7	7	7	7	7	7	7	7	7	7	7	7	7	7	7	7	5	4	3	1	0	0	0	0	0	0	0	0	0	0	0	0	0	0	0	0	0	0	0	0	0	0	0	0	0	0	0	0	0	0	0	0	0	0	0	0	0	0	0	0	0	0	0	0	0	0	0	0	0	0	0	0	0	0	0	0	0	0	0	0	0	0	0	0	0	0	0	0	0	0	0	0	0	0	0	0	0	0	0	0	0	0	0	0	0	0	0	0	0	0	0	0	0	0	0	0	0	0	0	0	0	0	0	0	0	0	0	0	0	0	0	0	0	0	0	0	0	0	0	0	0	0	0	0	0	0	0	0	0	0	0	0	0	0	0	0	0	0	0	0	0	0	0	0	0	0	0	0	0	0	0	0	0	0	0	0	0	0	0	0	0	0	0	0	0	0	0	0	0	0	0	0	0	0	0	0	0	0	0	0	0	0	0	0	0	0	0	0	0	0	0	0	0	0	0	0	0	0	0	0	0	0	0	0	0	0	0	0	0	0	0	0	0	0	0	0	0	0	0	0	0	0	0	0	0	0	0	0	0	0	0	0	0	0	0	0	0	0	0	0	0	0	0	0	0	0
59	61	62	64	65	66	67	67	68	69	70	71	72	75	78	80	81	81	79	78	78	78	79	81	82	84	87	89	92	96	98	100	104	108	109	110	111	112	113	114	114	115	114	114	113	112	112	111	111	109	108	107	106	104	103	101	100	99	99	99	100	100	101	102	103	105	111	115	116	116	117	116	116	116	116	117	119	119	120	121	122	122	123	125	126	128	130	132	134	136	136	136	136	137	137	139	140	140	141	141	141	140	139	140	145	146	146	147	149	150	150	149	148	149	149	148	147	145	143	142	141	139	138	137	137	135	134	132	132	131	129	128	126	125	123	121	118	117	115	114	111	109	107	106	105	104	102	99	97	95	94	93	92	90	88	86	84	82	80	77	73	70	68	67	67	65	63	62	60	58	56	54	52	50	48	47	45	43	42	40	38	37	36	35	34	31	29	26	24	21	18	13	8	5	3	2	2	2	2	1	1	1	1	1	1	1	1	1	0	0	0	0	0	0	0	0	0	0	0	0	0	0	0	0	0	0	0	0	0	0	0	1	2	2	2	2	2	3	3	5	7	10	12	13	13	13	14	16	17	18	18	18	19	20	22	24	26	28	30	32	34	37	40	43	46	49	51	53	55	57	58	59	61	62	63	65	67	68	69	70	71	73	74	74	76	78	78	78	77	75	73	73	80	82	83	86	88	89	90	91	92	93	93	93	96	98	99	101	103	105	107	108	110	111	111	110	108	106	104	103	102	100	99	99	97	93	92	92	93	93	92	88	84	82	80	78	75	73	74	77	76	75	73	71	69	66	63	60	56	51	46	44	43	42	41	39	36	34	30	24	18	15	11	6	4	3	2	2	1	2	5	8	9	9	10	11	10	9	9	9	9	8	8	8	8	8	8	9	8	8	8	8	8	8	8	8	8	8	8	8	8	8	9	9	9	9	9	9	9	9	9	9	9	9	9	9	9	9	10	10	9	9	9	9	9	10	11	12	12	11	11	11	11	11	11	10	10	10	10	10	10	10	10	10	10	10	10	10	10	10	9	10	10	10	10	10	10	9	9	8	8	8	9	9	9	9	10	11	10	9	9	9	9	9	9	9	10	10	9	9	9	9	9	9	9	9	9	9	9	9	9	9	9	9	8	8	8	9	9	9	9	9	9	9	9	9	9	9	9	9	9	9	9	9	9	9	9	9	12	15	18	18	16	14	12	10	8	8	8	8	8	8	8	9	9	9	9	9	9	9	9	9	9	9	9	9	9	9	9	9	9	9	9	9	9	9	9	10	10	9	9	9	9	9	9	9	9	9	9	9	9	9	9	9	9	9	9	9	9	9	9	9	9	9	9	9	9	9	9	9	9	9	9	9	9	9	9	9	9	9	9	9	8	8	9	9	9	9	9	9	9	9	9	9	9	9	9	9	9	9	9	9	9	9	9	9	9	9	9	9	9	9	9	9	9	9	9	9	9	9	9	9	9	9	9	8	8	8	8	8	8	8	8	8	9	8	8	8	8	8	8	8	8	8	8	8	8	8	8	8	8	8	8	8	8	8	8	8	8	8	8	8	8	8	8	8	8	8	8	8	8	8	8	8	8	8	8	8	8	8	8	8	8	8	8	8	8	7	7	7	7	7	7	7	7	7	7	7	7	7	7	7	7	7	7	7	7	7	7	7	7	7	7	7	7	7	7	7	7	7	7	7	7	7	7	7	7	7	7	6	5	4	3	1	0	0	0	0	0	0	0	0	0	0	0	0	0	0	0	0	0	0	0	0	0	0	0	0	0	0	0	0	0	0	0	0	0	0	0	0	0	0	0	0	0	0	0	0	0	0	0	0	0	0	0	0	0	0	0	0	0	0	0	0	0	0	0	0	0	0	0	0	0	0	0	0	0	0	0	0	0	0	0	0	0	0	0	0	0	0	0	0	0	0	0	0	0	0	0	0	0	0	0	0	0	0	0	0	0	0	0	0	0	0	0	0	0	0	0	0	0	0	0	0	0	0	0	0	0	0	0	0	0	0	0	0	0	0	0	0	0	0	0	0	0	0	0	0	0	0	0	0	0	0	0	0	0	0	0	0	0	0	0	0	0	0	0	0	0	0	0	0	0	0	0	0	0	0	0	0	0	0	0	0	0	0	0	0	0	0	0	0	0	0	0	0	0	0	0	0	0	0	0	0	0	0	0	0	0	0	0	0	0	0	0	0	0	0	0	0	0	0	0	0	0	0	0	0	0	0	0	0	0	0	0	0	0	0	0	0	0	0	0	0	0	0	0	0	0	0
61	63	64	65	67	68	69	70	70	70	71	72	74	77	80	81	82	82	80	80	81	81	83	85	86	87	88	90	93	96	99	101	104	107	109	111	112	113	114	115	116	115	115	114	113	112	112	112	111	110	108	106	105	104	103	101	100	99	100	100	101	102	102	103	104	106	112	116	118	118	118	118	117	118	119	120	120	121	122	123	124	125	126	127	129	130	132	134	135	137	138	138	139	139	140	141	142	142	142	143	144	143	141	142	145	146	147	148	150	151	151	150	150	150	150	149	148	147	145	143	142	141	139	138	138	137	135	134	133	132	131	129	128	126	124	122	119	117	116	115	113	110	108	107	106	105	103	100	98	96	94	92	91	90	88	85	83	81	80	77	75	72	69	69	68	66	64	63	61	59	57	55	53	51	50	47	45	44	42	41	40	38	37	36	35	34	30	27	23	20	17	12	8	5	3	3	2	2	2	2	2	2	1	1	1	1	1	1	1	0	0	0	0	0	0	0	0	0	0	0	0	0	0	0	0	0	0	0	0	0	0	1	2	2	3	3	3	3	5	9	12	14	15	15	14	14	15	17	18	19	19	19	19	20	22	24	26	28	30	32	34	37	40	43	45	48	51	54	56	57	59	60	62	64	65	67	68	70	72	73	74	75	75	75	77	78	78	79	79	78	75	75	79	82	85	88	89	90	91	92	93	93	94	96	98	101	102	103	105	107	108	110	112	112	112	111	109	107	106	105	104	102	101	99	97	94	93	93	92	93	92	88	84	82	81	79	77	76	76	78	77	75	73	71	70	67	63	59	55	51	48	46	45	44	42	39	36	32	28	23	19	15	10	5	4	3	2	2	1	3	7	8	8	9	10	11	10	9	9	9	9	9	8	8	9	9	9	9	9	8	8	8	8	8	8	8	8	8	8	8	8	8	9	9	9	9	9	9	9	9	9	9	9	9	9	9	9	9	10	10	9	9	9	9	9	10	11	11	11	11	11	11	11	11	10	10	10	10	10	10	10	10	10	10	10	10	10	10	10	10	9	10	10	10	10	10	10	9	9	9	9	9	9	9	9	9	9	9	9	9	9	9	9	9	9	9	9	9	9	9	9	8	9	9	9	9	9	9	9	9	9	9	9	9	8	8	9	9	9	9	9	9	9	9	9	9	9	9	9	9	9	9	9	9	9	9	9	9	12	14	16	17	16	13	10	9	8	8	8	8	8	8	8	9	9	9	9	9	9	9	9	9	9	9	9	9	9	9	9	9	9	9	9	9	9	9	10	10	10	9	9	9	9	9	9	9	9	9	9	9	9	9	9	9	9	9	9	9	9	9	9	9	9	9	9	9	9	9	9	9	9	9	9	9	9	9	9	9	9	9	9	9	9	9	9	9	9	9	9	9	9	9	9	9	9	9	9	9	9	9	9	9	9	9	9	9	9	9	9	9	9	9	9	9	9	9	9	9	9	9	9	9	9	9	9	8	8	8	8	8	9	8	8	8	8	8	8	8	8	8	8	8	8	8	8	8	8	8	8	8	8	8	8	8	8	8	8	8	8	8	8	8	8	8	8	8	8	8	8	8	8	8	8	8	8	8	8	8	8	8	8	8	8	8	8	8	8	7	7	7	7	7	7	7	7	7	7	7	7	7	7	7	7	7	7	7	7	7	7	7	7	7	7	7	7	7	7	7	7	7	7	7	7	7	7	7	7	7	7	6	6	4	3	1	0	0	0	0	0	0	0	0	0	0	0	0	0	0	0	0	0	0	0	0	0	0	0	0	0	0	0	0	0	0	0	0	0	0	0	0	0	0	0	0	0	0	0	0	0	0	0	0	0	0	0	0	0	0	0	0	0	0	0	0	0	0	0	0	0	0	0	0	0	0	0	0	0	0	0	0	0	0	0	0	0	0	0	0	0	0	0	0	0	0	0	0	0	0	0	0	0	0	0	0	0	0	0	0	0	0	0	0	0	0	0	0	0	0	0	0	0	0	0	0	0	0	0	0	0	0	0	0	0	0	0	0	0	0	0	0	0	0	0	0	0	0	0	0	0	0	0	0	0	0	0	0	0	0	0	0	0	0	0	0	0	0	0	0	0	0	0	0	0	0	0	0	0	0	0	0	0	0	0	0	0	0	0	0	0	0	0	0	0	0	0	0	0	0	0	0	0	0	0	0	0	0	0	0	0	0	0	0	0	0	0	0	0	0	0	0	0	0	0	0	0	0	0	0	0	0	0	0	0	0	0	0	0	0	0	0	0	0	0	0	0	0	0	0	0	0
63	65	66	67	69	70	72	72	73	73	73	74	76	78	79	81	83	83	82	81	82	83	85	88	90	90	90	92	94	97	100	102	104	106	109	111	112	114	116	117	117	116	116	115	114	114	113	112	111	110	108	107	105	104	103	102	101	101	102	103	103	104	105	105	106	107	112	118	119	119	120	121	121	121	122	123	122	122	123	125	127	128	129	130	131	133	134	136	137	139	139	140	141	141	142	142	143	144	144	144	145	145	143	143	146	148	149	150	151	151	152	152	151	151	151	151	150	149	147	145	143	142	140	139	139	138	136	135	134	133	131	130	129	127	126	123	120	118	117	116	114	111	108	107	107	105	103	100	97	95	93	92	90	89	88	84	82	80	78	76	74	72	70	69	69	67	66	64	62	60	58	56	54	52	50	48	46	45	44	43	42	40	39	38	36	35	31	26	23	19	15	11	7	4	3	3	3	3	3	2	2	2	2	2	1	1	1	1	1	1	0	0	0	0	0	0	0	0	0	0	0	0	0	0	0	0	0	0	0	0	1	2	2	2	3	4	4	5	8	13	14	15	15	15	15	16	16	17	17	19	20	20	20	21	22	24	26	28	30	32	34	37	40	43	45	47	50	53	56	57	59	61	63	65	67	68	70	73	75	76	77	77	78	79	80	81	81	82	82	81	79	79	80	83	87	90	91	92	91	92	93	94	97	101	103	104	105	106	107	109	110	112	114	115	114	111	109	109	108	107	105	103	102	100	99	97	95	94	93	92	92	89	86	84	82	80	79	78	79	78	77	75	72	70	69	67	63	58	54	51	49	48	46	44	43	41	37	32	28	24	21	16	9	4	3	2	2	1	2	5	8	8	8	9	10	10	10	9	9	9	9	9	9	9	9	9	9	8	8	8	8	8	8	8	8	8	8	8	8	8	8	9	9	9	9	9	9	9	9	9	9	9	9	9	9	9	9	9	10	10	9	9	9	9	9	10	11	11	11	11	11	11	11	11	11	10	10	10	10	10	10	10	10	10	10	10	10	10	10	10	10	10	10	10	10	10	10	10	10	10	10	9	9	9	9	9	9	9	8	9	9	9	9	9	9	9	9	9	9	9	9	9	9	9	9	9	9	9	9	9	9	9	9	9	9	9	9	9	9	9	9	9	9	9	9	9	9	9	9	9	9	9	9	9	9	9	9	9	11	13	15	16	14	12	9	8	8	8	8	8	8	8	8	8	9	9	9	9	9	9	9	9	9	9	9	9	9	9	9	9	9	9	9	9	9	9	10	10	9	9	9	9	9	9	9	9	9	9	9	9	9	9	9	9	9	9	9	9	9	9	9	9	9	9	9	9	9	9	9	9	8	8	9	9	9	8	8	8	9	9	9	9	9	9	9	9	9	9	9	9	9	9	9	9	9	9	9	9	9	9	9	9	9	9	9	9	9	9	9	9	9	9	9	9	9	9	9	9	9	9	9	9	9	9	9	9	8	8	8	8	8	8	8	8	8	8	8	8	8	8	8	8	8	8	8	8	8	8	8	8	8	8	8	8	8	8	8	8	8	8	8	8	8	8	8	8	8	8	8	8	8	8	8	8	8	8	8	8	8	8	8	8	8	8	8	8	8	8	7	7	7	7	7	7	7	7	7	7	7	7	7	7	7	7	7	7	7	7	7	7	7	7	7	7	7	7	7	7	7	7	7	7	7	7	7	7	7	7	7	6	6	4	3	1	0	0	0	0	0	0	0	0	0	0	0	0	0	0	0	0	0	0	0	0	0	0	0	0	0	0	0	0	0	0	0	0	0	0	0	0	0	0	0	0	0	0	0	0	0	0	0	0	0	0	0	0	0	0	0	0	0	0	0	0	0	0	0	0	0	0	0	0	0	0	0	0	0	0	0	0	0	0	0	0	0	0	0	0	0	0	0	0	0	0	0	0	0	0	0	0	0	0	0	0	0	0	0	0	0	0	0	0	0	0	0	0	0	0	0	0	0	0	0	0	0	0	0	0	0	0	0	0	0	0	0	0	0	0	0	0	0	0	0	0	0	0	0	0	0	0	0	0	0	0	0	0	0	0	0	0	0	0	0	0	0	0	0	0	0	0	0	0	0	0	0	0	0	0	0	0	0	0	0	0	0	0	0	0	0	0	0	0	0	0	0	0	0	0	0	0	0	0	0	0	0	0	0	0	0	0	0	0	0	0	0	0	0	0	0	0	0	0	0	0	0	0	0	0	0	0	0	0	0	0	0	0	0	0	0	0	0	0	0	0	0	0	0	0	0	0
64	67	69	70	71	73	74	75	76	76	76	77	80	80	80	82	84	84	83	84	86	86	88	90	92	94	95	96	97	98	101	102	104	106	109	111	112	114	116	117	118	117	117	116	116	115	114	113	111	110	108	107	105	104	103	102	103	103	105	105	106	106	107	107	108	109	113	118	121	121	123	124	125	124	125	125	124	124	126	128	130	131	132	133	134	135	137	139	140	141	141	142	143	144	144	144	145	146	146	146	146	146	146	147	151	152	152	152	152	153	153	153	152	152	152	152	152	150	148	146	144	143	141	140	140	138	137	135	134	133	132	130	129	128	126	124	121	119	117	116	115	112	109	107	106	104	101	98	96	94	92	91	89	89	87	83	80	78	76	75	73	72	71	70	69	68	66	65	63	61	58	56	54	52	50	48	47	46	46	45	43	42	41	39	36	33	29	26	22	19	15	10	6	4	3	3	3	3	3	3	3	2	2	2	2	2	2	1	1	1	1	0	0	0	0	0	0	0	0	0	0	0	0	0	0	0	0	0	0	1	2	2	2	2	3	5	8	9	11	14	15	14	14	14	15	17	17	17	17	19	21	21	22	22	23	25	26	28	30	32	35	38	40	43	45	48	50	52	55	57	59	62	64	66	68	70	72	75	77	79	79	80	82	83	83	83	84	85	85	84	83	83	84	86	89	91	93	93	92	93	95	96	100	105	106	107	107	108	109	110	112	114	117	117	115	112	110	109	109	108	106	105	103	102	101	99	97	96	94	93	92	90	88	86	83	81	79	78	77	75	73	73	71	69	67	65	61	57	53	50	49	47	45	44	43	42	38	32	28	24	21	16	8	4	3	2	2	1	1	5	9	8	8	9	9	10	9	9	9	9	9	9	9	9	9	9	9	8	8	8	8	8	8	8	8	8	8	8	8	8	8	9	9	9	9	9	9	9	9	9	9	9	9	9	9	9	9	10	10	10	9	9	9	9	9	10	11	11	11	11	11	11	11	11	11	11	10	10	10	10	10	10	10	10	10	10	10	10	10	10	10	10	10	10	10	10	10	9	9	10	10	10	9	9	9	9	9	9	9	9	9	9	9	9	9	9	9	9	9	10	11	10	9	9	9	9	9	9	9	9	9	9	9	9	9	9	9	9	9	9	9	9	9	9	9	9	9	9	9	9	9	9	9	9	9	9	9	9	11	13	14	14	13	11	9	8	8	8	8	8	8	8	8	8	8	8	8	8	9	9	9	9	9	9	9	9	9	9	9	9	9	9	9	9	9	9	9	10	9	9	9	9	9	9	9	9	9	9	9	9	9	9	9	9	9	9	9	9	9	9	9	9	9	9	9	9	9	9	9	9	8	8	9	9	9	8	8	8	9	9	9	9	9	9	9	9	9	9	9	9	9	9	9	9	9	9	9	9	9	9	9	9	9	9	9	9	9	9	9	9	9	9	9	9	9	9	9	9	9	9	9	9	9	9	9	9	8	8	8	8	8	8	8	9	9	8	8	8	8	8	8	8	8	8	8	8	8	8	8	8	8	8	8	8	8	8	8	8	8	8	8	8	8	8	8	8	8	8	8	8	8	8	8	8	8	8	8	8	8	8	8	8	8	8	8	8	8	8	8	7	7	7	7	7	7	7	7	7	7	7	7	7	7	7	7	7	7	7	7	7	7	7	7	7	7	7	7	7	7	7	7	7	7	7	7	7	7	7	7	6	6	4	3	1	0	0	0	0	0	0	0	0	0	0	0	0	0	0	0	0	0	0	0	0	0	0	0	0	0	0	0	0	0	0	0	0	0	0	0	0	0	0	0	0	0	0	0	0	0	0	0	0	0	0	0	0	0	0	0	0	0	0	0	0	0	0	0	0	0	0	0	0	0	0	0	0	0	0	0	0	0	0	0	0	0	0	0	0	0	0	0	0	0	0	0	0	0	0	0	0	0	0	0	0	0	0	0	0	0	0	0	0	0	0	0	0	0	0	0	0	0	0	0	0	0	0	0	0	0	0	0	0	0	0	0	0	0	0	0	0	0	0	0	0	0	0	0	0	0	0	0	0	0	0	0	0	0	0	0	0	0	0	0	0	0	0	0	0	0	0	0	0	0	0	0	0	0	0	0	0	0	0	0	0	0	0	0	0	0	0	0	0	0	0	0	0	0	0	0	0	0	0	0	0	0	0	0	0	0	0	0	0	0	0	0	0	0	0	0	0	0	0	0	0	0	0	0	0	0	0	0	0	0	0	0	0	0	0	0	0	0	0	0	0	0	0	0	0	0	0
66	69	71	72	73	75	76	78	79	79	79	80	83	84	83	83	84	85	86	89	90	91	93	94	95	98	101	101	100	99	100	102	103	106	108	111	112	114	115	117	117	118	117	117	117	116	115	114	112	110	108	107	106	105	104	104	105	105	107	107	107	108	109	109	110	110	113	118	122	123	125	126	126	126	126	126	126	127	128	131	133	134	135	136	137	138	140	141	142	143	144	145	145	146	146	146	147	148	148	148	148	148	148	152	155	155	154	154	154	155	155	155	154	154	154	154	153	152	150	148	146	144	143	142	141	140	138	137	135	134	132	131	129	127	126	124	121	120	118	118	117	115	111	107	105	102	99	97	95	93	91	90	88	87	84	81	78	76	75	73	72	71	70	69	69	68	66	65	63	61	58	56	55	52	50	48	48	48	48	47	45	43	41	38	34	30	27	25	22	18	15	10	7	4	3	3	3	3	3	3	3	3	3	2	2	2	2	2	1	1	1	0	0	0	0	0	0	0	0	0	0	0	0	0	0	0	0	0	1	1	2	2	3	3	4	6	10	12	12	14	15	14	14	14	16	18	19	18	18	20	21	22	23	24	25	26	27	29	31	33	36	38	41	44	46	49	51	53	56	58	60	63	65	67	70	72	74	76	79	80	81	82	83	85	85	85	85	86	87	88	87	87	87	89	91	93	95	96	96	97	100	101	104	107	109	109	110	110	111	111	114	117	119	118	116	113	111	111	110	109	107	106	105	103	102	100	99	97	96	94	93	91	89	87	84	81	79	77	74	71	71	71	69	66	64	62	59	56	53	50	48	46	44	42	42	40	35	31	28	24	21	14	6	3	2	2	1	1	1	5	8	8	8	9	9	9	9	9	9	9	9	9	9	9	9	9	9	8	8	8	8	8	8	8	8	8	8	8	8	8	8	9	9	9	9	9	9	9	9	9	9	9	9	9	9	9	9	10	10	10	9	9	9	9	9	10	10	11	11	11	11	11	11	11	11	11	10	10	10	10	10	10	10	10	10	10	10	10	10	10	10	10	10	10	10	10	10	9	9	9	9	9	9	9	9	9	9	9	9	9	9	9	9	9	9	9	9	9	9	10	12	11	9	9	9	9	9	9	9	9	9	9	9	9	9	9	9	9	9	9	9	9	9	9	9	9	9	9	9	9	9	9	9	9	9	9	9	10	11	12	12	12	11	9	8	8	8	8	8	8	8	8	8	8	8	8	8	8	8	8	9	9	9	9	9	9	9	9	9	9	9	9	9	9	9	9	9	9	9	9	9	9	9	9	9	9	9	9	9	9	9	9	9	9	9	9	9	9	9	9	9	9	9	9	9	10	10	9	9	9	8	8	8	9	9	9	8	9	9	9	9	9	9	9	9	9	9	9	9	9	9	9	9	9	9	9	9	9	9	9	9	9	9	9	9	9	9	9	9	9	9	9	9	9	9	9	9	9	9	9	9	9	9	9	9	9	9	8	8	8	8	8	8	9	9	8	8	8	8	8	8	8	8	8	8	8	8	8	8	8	8	8	8	8	8	8	8	8	8	8	8	8	8	8	8	8	8	8	8	8	8	8	8	8	8	8	8	8	8	8	8	8	8	8	7	7	8	8	8	7	7	7	7	7	7	7	7	7	7	7	7	7	7	7	7	7	7	7	7	7	7	7	7	7	7	7	7	7	7	7	7	7	7	7	7	7	7	7	7	6	5	4	3	1	0	0	0	0	0	0	0	0	0	0	0	0	0	0	0	0	0	0	0	0	0	0	0	0	0	0	0	0	0	0	0	0	0	0	0	0	0	0	0	0	0	0	0	0	0	0	0	0	0	0	0	0	0	0	0	0	0	0	0	0	0	0	0	0	0	0	0	0	0	0	0	0	0	0	0	0	0	0	0	0	0	0	0	0	0	0	0	0	0	0	0	0	0	0	0	0	0	0	0	0	0	0	0	0	0	0	0	0	0	0	0	0	0	0	0	0	0	0	0	0	0	0	0	0	0	0	0	0	0	0	0	0	0	0	0	0	0	0	0	0	0	0	0	0	0	0	0	0	0	0	0	0	0	0	0	0	0	0	0	0	0	0	0	0	0	0	0	0	0	0	0	0	0	0	0	0	0	0	0	0	0	0	0	0	0	0	0	0	0	0	0	0	0	0	0	0	0	0	0	0	0	0	0	0	0	0	0	0	0	0	0	0	0	0	0	0	0	0	0	0	0	0	0	0	0	0	0	0	0	0	0	0	0	0	0	0	0	0	0	0	0	0	0	0	0	0
67	70	72	73	75	77	78	80	81	82	82	82	83	85	85	83	84	87	90	92	93	95	97	98	99	100	100	102	103	101	101	102	104	106	109	112	113	114	115	116	117	118	118	118	117	117	116	114	112	110	108	107	107	107	106	106	107	107	108	109	109	110	111	111	112	112	113	118	122	125	127	128	128	128	128	128	128	129	132	134	136	137	138	139	140	141	143	144	145	146	146	147	148	148	148	149	150	150	151	150	150	151	152	154	157	157	156	156	156	157	157	157	156	156	155	155	154	153	151	149	148	147	145	145	143	141	140	138	137	135	133	131	129	127	125	123	122	120	119	118	119	117	112	106	104	101	98	96	94	92	90	89	87	85	82	79	76	75	73	72	70	69	68	68	67	67	65	64	62	60	58	56	54	52	50	49	49	49	49	47	45	44	40	35	31	28	26	24	21	18	14	10	6	4	3	3	3	3	3	3	3	3	3	3	3	3	2	2	2	2	1	0	0	0	0	0	0	0	0	0	0	0	0	0	0	0	0	1	1	2	2	3	4	5	7	9	12	13	13	14	15	16	16	16	18	19	20	19	19	20	21	22	23	25	26	28	29	30	32	35	37	39	42	45	48	50	53	56	58	60	62	64	67	69	71	74	76	78	80	81	82	83	84	85	86	86	87	89	90	90	90	90	90	91	92	94	96	99	100	102	104	105	107	111	112	112	113	113	113	115	118	120	119	118	117	115	113	112	111	110	109	107	106	104	102	101	99	97	96	94	93	91	89	87	84	81	78	75	73	70	68	68	65	63	61	58	57	55	53	50	48	45	42	41	39	37	33	29	27	24	20	11	5	3	2	2	1	1	2	6	8	9	9	9	9	9	9	9	9	9	9	9	9	9	9	9	9	8	8	8	8	8	8	8	8	8	8	8	8	8	9	9	9	9	9	9	9	9	9	9	9	9	9	9	9	9	9	10	10	9	9	9	9	9	9	10	10	11	11	11	11	11	11	11	11	10	10	10	10	10	10	10	10	10	10	10	10	10	10	10	10	10	10	10	10	10	10	9	9	9	8	9	9	9	9	9	9	9	9	9	9	9	9	9	9	9	9	8	8	9	10	9	9	9	9	9	9	9	9	9	9	9	9	9	9	9	9	9	9	9	9	9	9	9	9	9	9	8	8	8	9	9	9	9	9	8	9	10	12	11	10	9	9	8	8	8	8	8	8	8	8	8	8	8	8	8	8	8	8	8	8	8	9	9	9	9	9	9	9	9	9	9	9	9	9	9	9	9	9	9	9	9	9	9	9	9	9	9	9	9	9	9	9	9	9	9	9	9	9	9	9	9	9	9	9	9	9	9	9	9	8	8	8	9	9	8	8	8	9	9	9	9	9	9	9	9	9	9	9	9	9	9	9	9	9	9	9	9	9	9	9	9	9	9	9	9	9	9	9	9	9	9	9	9	9	9	9	9	9	9	9	9	9	9	9	9	9	8	8	8	8	8	8	8	9	8	8	8	8	8	8	8	8	8	8	8	8	8	8	8	8	8	8	8	8	8	8	8	8	8	8	8	8	8	8	8	8	8	8	8	8	8	8	8	8	8	8	8	8	8	8	8	8	7	7	7	8	8	8	7	7	7	7	7	7	7	7	7	7	7	7	7	7	7	7	7	7	7	8	8	7	7	7	7	7	7	7	7	7	7	7	7	7	7	7	7	7	7	7	6	5	4	3	1	0	0	0	0	0	0	0	0	0	0	0	0	0	0	0	0	0	0	0	0	0	0	0	0	0	0	0	0	0	0	0	0	0	0	0	0	0	0	0	0	0	0	0	0	0	0	0	0	0	0	0	0	0	0	0	0	0	0	0	0	0	0	0	0	0	0	0	0	0	0	0	0	0	0	0	0	0	0	0	0	0	0	0	0	0	0	0	0	0	0	0	0	0	0	0	0	0	0	0	0	0	0	0	0	0	0	0	0	0	0	0	0	0	0	0	0	0	0	0	0	0	0	0	0	0	0	0	0	0	0	0	0	0	0	0	0	0	0	0	0	0	0	0	0	0	0	0	0	0	0	0	0	0	0	0	0	0	0	0	0	0	0	0	0	0	0	0	0	0	0	0	0	0	0	0	0	0	0	0	0	0	0	0	0	0	0	0	0	0	0	0	0	0	0	0	0	0	0	0	0	0	0	0	0	0	0	0	0	0	0	0	0	0	0	0	0	0	0	0	0	0	0	0	0	0	0	0	0	0	0	0	0	0	0	0	0	0	0	0	0	0	0	0	0	0	0
69	71	73	75	77	79	81	82	84	85	85	84	84	85	86	84	83	86	90	92	94	97	98	98	98	99	100	101	103	104	106	106	105	106	108	112	114	114	114	115	117	118	118	118	118	117	116	114	112	110	109	109	109	109	109	109	109	109	111	112	111	111	112	113	114	114	115	117	121	126	128	129	130	130	131	131	132	133	135	137	138	139	141	142	143	144	145	146	148	148	149	149	150	150	150	151	152	153	153	153	153	154	155	156	158	159	158	158	158	159	159	159	159	158	157	156	155	154	153	151	151	149	148	146	144	143	141	140	138	136	134	132	130	128	125	123	121	120	118	117	118	117	112	107	103	100	98	96	94	91	89	87	85	83	80	77	75	73	71	69	68	67	66	65	65	64	63	62	61	59	57	55	53	51	49	49	49	49	48	46	45	43	38	33	30	27	25	22	19	16	13	9	5	4	3	3	3	3	3	3	3	3	3	3	3	3	3	2	2	2	2	1	0	0	0	0	0	0	0	0	0	0	0	0	0	0	1	1	2	2	3	4	6	8	10	12	13	14	15	15	17	18	19	19	20	21	21	20	20	21	21	22	23	26	28	29	31	32	34	36	38	40	43	46	49	51	55	59	62	63	64	66	69	71	73	76	78	80	82	83	83	84	85	86	87	88	90	91	92	92	93	93	93	94	95	96	99	102	103	105	107	109	112	115	117	117	117	117	118	120	121	121	120	119	118	116	115	114	113	112	110	109	107	105	103	101	99	97	95	93	91	89	87	85	82	79	76	73	70	68	66	64	61	59	57	55	53	52	50	49	47	43	40	38	36	34	31	28	26	24	19	9	5	3	3	2	1	1	3	6	9	9	9	9	9	9	9	9	9	9	9	9	9	9	9	9	9	8	8	8	8	8	8	8	8	8	8	8	8	8	9	9	9	9	9	9	9	9	9	9	9	9	9	9	9	9	9	10	10	9	9	9	9	9	9	10	10	11	11	11	11	11	11	11	10	10	10	10	10	10	10	10	10	10	10	10	10	10	10	10	10	10	10	10	10	10	10	9	9	9	9	9	9	9	9	9	9	9	9	9	9	9	9	9	9	9	9	8	8	9	9	9	9	9	9	9	9	9	9	9	9	9	9	9	9	9	9	9	9	9	9	9	9	9	9	9	9	8	8	8	8	8	8	9	9	9	10	11	12	11	9	8	8	8	8	8	8	8	8	8	8	8	8	8	8	8	8	8	8	8	8	8	8	9	9	9	9	9	9	9	9	9	8	9	9	9	9	9	9	9	9	9	9	9	9	9	9	9	9	9	9	9	9	9	9	9	9	9	9	9	9	9	9	9	9	9	9	9	9	9	8	8	8	9	8	8	8	8	8	9	9	9	9	9	9	9	9	9	9	9	9	9	9	9	9	9	9	9	9	9	9	9	9	9	9	9	9	9	9	9	9	9	9	9	9	9	9	9	9	9	9	9	9	9	9	9	9	8	8	9	9	9	8	8	8	8	8	8	8	8	8	8	8	8	8	8	8	8	8	8	8	8	8	8	8	8	8	8	8	8	8	8	8	8	8	8	8	8	8	8	8	8	8	8	8	8	8	8	8	8	8	8	7	7	7	8	8	8	7	7	7	7	7	7	7	7	7	7	7	7	7	7	7	7	7	7	7	7	8	8	7	7	7	7	7	7	7	7	7	7	7	7	7	7	7	7	7	7	7	6	5	4	3	1	0	0	0	0	0	0	0	0	0	0	0	0	0	0	0	0	0	0	0	0	0	0	0	0	0	0	0	0	0	0	0	0	0	0	0	0	0	0	0	0	0	0	0	0	0	0	0	0	0	0	0	0	0	0	0	0	0	0	0	0	0	0	0	0	0	0	0	0	0	0	0	0	0	0	0	0	0	0	0	0	0	0	0	0	0	0	0	0	0	0	0	0	0	0	0	0	0	0	0	0	0	0	0	0	0	0	0	0	0	0	0	0	0	0	0	0	0	0	0	0	0	0	0	0	0	0	0	0	0	0	0	0	0	0	0	0	0	0	0	0	0	0	0	0	0	0	0	0	0	0	0	0	0	0	0	0	0	0	0	0	0	0	0	0	0	0	0	0	0	0	0	0	0	0	0	0	0	0	0	0	0	0	0	0	0	0	0	0	0	0	0	0	0	0	0	0	0	0	0	0	0	0	0	0	0	0	0	0	0	0	0	0	0	0	0	0	0	0	0	0	0	0	0	0	0	0	0	0	0	0	0	0	0	0	0	0	0	0	0	0	0	0	0	0	0	0
71	72	74	77	79	82	83	84	86	87	87	87	87	88	90	87	85	86	89	93	95	97	98	98	98	99	101	102	104	108	110	110	108	106	108	111	114	114	114	114	116	117	118	118	118	117	116	115	113	111	110	111	112	112	112	111	111	112	113	114	114	113	114	115	116	116	116	118	120	125	128	129	131	133	135	135	135	136	138	139	140	141	143	145	146	147	148	149	150	151	151	151	152	152	152	153	154	155	156	156	156	157	157	158	159	160	159	159	160	161	161	161	161	160	159	158	157	155	154	153	153	151	149	147	145	143	142	140	139	137	134	132	130	128	125	123	121	119	117	116	117	115	112	107	103	100	98	96	94	91	89	87	84	82	79	77	74	72	70	68	66	64	63	63	62	61	61	60	59	57	54	53	51	50	49	48	49	49	47	45	44	41	37	32	28	26	23	21	18	15	12	9	5	4	3	3	3	3	4	4	4	4	4	3	3	3	3	3	2	2	2	2	1	1	0	0	0	0	0	0	0	1	1	1	1	2	2	2	3	3	4	6	9	11	13	14	15	16	17	17	17	18	19	20	21	21	21	21	21	21	21	22	23	26	28	31	33	33	35	37	39	41	44	47	49	52	57	61	64	66	67	69	71	73	75	77	80	82	84	85	86	87	88	89	90	91	92	93	94	94	95	95	96	98	99	101	104	105	106	107	109	113	116	119	120	120	120	120	121	122	123	122	121	120	119	118	117	116	114	113	112	110	108	106	104	101	99	96	94	91	89	86	84	81	78	76	73	70	67	65	63	60	58	56	54	52	49	48	47	45	43	40	37	35	34	32	29	27	25	22	16	8	4	3	3	2	1	1	3	7	9	9	9	9	9	9	9	9	9	9	9	9	9	9	9	9	9	8	8	8	8	8	8	8	8	8	8	8	8	8	9	9	9	9	9	9	9	9	9	9	9	9	9	9	9	9	9	10	10	9	9	9	9	9	9	10	10	11	11	11	11	11	11	11	10	10	10	10	10	10	10	10	10	10	10	10	10	10	10	10	10	10	10	10	10	10	10	9	9	9	9	9	10	10	10	10	10	9	9	9	9	9	9	9	9	9	9	8	9	9	9	9	9	9	9	9	9	9	9	9	9	9	9	9	9	9	9	9	9	9	9	9	9	9	9	9	9	8	8	8	8	8	8	9	9	10	11	12	12	11	9	8	8	8	8	8	8	8	8	8	8	8	8	8	8	8	8	8	8	8	8	8	8	8	9	9	9	9	9	9	9	9	9	9	9	9	9	9	9	9	9	9	9	9	9	9	9	9	9	9	9	9	9	9	9	9	9	9	9	9	9	9	9	9	9	9	10	9	9	9	8	8	8	9	9	8	8	8	8	9	9	9	9	9	9	9	9	9	9	9	9	9	9	9	9	9	9	9	9	9	9	9	9	9	9	9	9	9	9	9	9	9	9	9	9	9	9	9	9	9	9	9	9	9	9	9	9	8	8	8	8	8	8	8	8	8	8	8	8	9	8	8	8	8	8	8	8	8	8	8	8	8	8	8	8	8	8	8	8	8	8	8	8	8	8	8	8	8	8	8	8	8	8	8	8	8	8	8	8	8	8	8	7	7	7	8	8	8	7	7	7	7	7	7	7	7	7	7	7	7	7	7	7	7	7	7	7	7	7	8	7	7	7	7	7	7	7	7	7	7	7	7	7	7	7	7	7	7	7	6	5	4	3	1	0	0	0	0	0	0	0	0	0	0	0	0	0	0	0	0	0	0	0	0	0	0	0	0	0	0	0	0	0	0	0	0	0	0	0	0	0	0	0	0	0	0	0	0	0	0	0	0	0	0	0	0	0	0	0	0	0	0	0	0	0	0	0	0	0	0	0	0	0	0	0	0	0	0	0	0	0	0	0	0	0	0	0	0	0	0	0	0	0	0	0	0	0	0	0	0	0	0	0	0	0	0	0	0	0	0	0	0	0	0	0	0	0	0	0	0	0	0	0	0	0	0	0	0	0	0	0	0	0	0	0	0	0	0	0	0	0	0	0	0	0	0	0	0	0	0	0	0	0	0	0	0	0	0	0	0	0	0	0	0	0	0	0	0	0	0	0	0	0	0	0	0	0	0	0	0	0	0	0	0	0	0	0	0	0	0	0	0	0	0	0	0	0	0	0	0	0	0	0	0	0	0	0	0	0	0	0	0	0	0	0	0	0	0	0	0	0	0	0	0	0	0	0	0	0	0	0	0	0	0	0	0	0	0	0	0	0	0	0	0	0	0	0	0	0	0
73	74	76	78	81	83	85	86	87	88	89	91	92	94	96	94	92	90	90	94	97	98	99	99	99	100	102	105	108	111	112	112	112	111	109	112	116	115	114	114	116	117	118	118	118	117	117	117	114	112	112	113	114	115	115	115	114	114	116	117	116	115	116	117	117	118	118	119	120	123	126	129	133	135	137	137	137	139	140	141	142	144	146	147	148	149	150	151	152	153	153	153	154	154	155	155	156	157	158	158	159	159	159	159	160	161	161	161	161	162	162	163	162	162	161	160	158	156	155	154	152	151	149	147	145	144	143	141	139	137	135	132	130	128	125	122	120	118	116	115	114	113	110	106	103	101	99	98	95	92	90	88	85	82	79	77	74	72	70	67	65	63	62	61	60	59	58	57	56	54	52	49	48	48	48	48	49	49	47	45	43	40	35	31	28	25	22	19	16	13	11	8	5	3	3	3	3	4	4	4	4	4	4	4	4	4	3	3	3	3	2	2	2	2	1	1	1	1	1	1	1	1	2	2	2	2	3	3	4	6	8	10	12	14	15	15	17	19	20	20	19	19	20	21	21	21	21	21	22	23	22	22	24	26	29	32	33	34	36	38	40	42	44	47	50	53	57	61	65	67	70	72	73	74	76	78	81	83	85	87	87	88	90	91	92	93	95	96	96	96	97	98	99	101	102	104	107	107	107	109	113	117	119	121	121	122	123	124	124	124	124	124	122	121	120	119	118	116	114	113	113	111	109	106	103	101	98	96	93	90	87	84	81	77	75	72	70	66	63	62	60	58	56	54	52	49	47	45	43	41	39	37	35	33	32	31	29	26	23	19	14	7	4	3	3	2	1	2	5	8	9	9	9	9	9	9	9	9	9	9	9	9	9	9	9	9	9	9	8	8	8	8	8	8	8	8	8	8	8	8	9	9	9	9	9	9	9	9	9	9	9	9	9	9	9	9	9	10	10	9	9	9	9	9	9	10	11	11	11	11	11	11	11	11	11	10	10	10	10	10	10	10	10	10	10	10	10	10	10	10	10	10	10	10	10	10	10	10	10	10	10	10	10	10	10	10	10	10	9	9	9	9	9	9	9	9	9	9	9	9	9	9	9	9	9	9	9	9	9	9	9	9	9	9	9	9	9	9	9	9	9	9	9	9	9	9	9	9	9	9	8	8	8	9	10	11	12	13	12	10	9	8	8	8	8	8	8	8	8	8	8	8	8	8	8	8	8	8	8	8	8	8	8	8	9	9	9	9	9	9	9	9	9	9	9	9	9	9	9	9	9	9	9	9	9	9	9	9	9	9	9	9	9	9	9	9	9	9	9	9	9	9	9	9	9	10	10	9	9	9	8	8	9	9	9	8	9	9	9	9	9	9	8	8	8	8	9	9	9	9	9	9	9	9	9	9	9	9	9	9	9	9	9	9	9	9	9	9	9	9	9	9	9	9	9	9	9	9	9	9	9	9	9	9	9	9	9	8	8	8	8	8	8	8	8	8	8	8	9	8	8	8	8	8	8	8	8	8	8	8	8	8	8	8	8	8	8	8	8	8	8	8	8	8	8	8	8	8	8	8	8	8	8	8	8	8	8	8	8	8	8	8	8	7	7	7	7	8	8	7	7	7	7	7	7	7	7	7	7	7	7	7	7	7	7	7	7	7	7	7	7	7	7	7	7	7	7	7	7	7	7	7	7	7	7	7	7	7	7	6	5	4	2	1	0	0	0	0	0	0	0	0	0	0	0	0	0	0	0	0	0	0	0	0	0	0	0	0	0	0	0	0	0	0	0	0	0	0	0	0	0	0	0	0	0	0	0	0	0	0	0	0	0	0	0	0	0	0	0	0	0	0	0	0	0	0	0	0	0	0	0	0	0	0	0	0	0	0	0	0	0	0	0	0	0	0	0	0	0	0	0	0	0	0	0	0	0	0	0	0	0	0	0	0	0	0	0	0	0	0	0	0	0	0	0	0	0	0	0	0	0	0	0	0	0	0	0	0	0	0	0	0	0	0	0	0	0	0	0	0	0	0	0	0	0	0	0	0	0	0	0	0	0	0	0	0	0	0	0	0	0	0	0	0	0	0	0	0	0	0	0	0	0	0	0	0	0	0	0	0	0	0	0	0	0	0	0	0	0	0	0	0	0	0	0	0	0	0	0	0	0	0	0	0	0	0	0	0	0	0	0	0	0	0	0	0	0	0	0	0	0	0	0	0	0	0	0	0	0	0	0	0	0	0	0	0	0	0	0	0	0	0	0	0	0	0	0	0	0	0
75	76	77	80	82	84	86	88	89	90	92	94	96	98	98	98	97	94	92	96	100	101	101	101	101	102	105	110	113	113	113	114	115	114	112	115	117	115	114	115	116	117	118	119	119	118	119	117	115	113	113	115	117	119	120	120	118	117	118	119	118	117	118	119	119	120	121	121	121	123	124	130	135	137	138	138	138	140	142	143	144	146	148	149	150	151	152	153	154	155	155	156	156	157	157	158	159	159	159	160	160	161	161	161	162	163	163	163	163	163	163	164	163	163	162	161	159	157	155	153	151	150	148	147	146	145	143	142	140	137	135	132	130	127	124	122	120	118	115	113	112	110	108	106	103	101	99	98	96	93	90	88	85	82	80	77	75	72	70	67	65	63	61	60	59	57	56	55	54	52	50	47	46	46	46	48	49	48	46	45	44	40	34	30	28	24	21	18	15	13	10	7	5	3	3	3	3	4	4	5	5	5	5	5	4	4	4	4	3	3	3	3	2	2	2	2	2	2	2	2	2	2	3	3	3	3	4	6	8	10	12	14	15	16	17	18	19	23	25	25	24	23	23	23	22	20	20	21	23	23	23	23	24	26	28	31	33	34	36	39	40	42	44	47	50	53	57	61	64	67	70	72	73	74	77	79	82	84	86	88	89	90	92	92	93	95	97	99	99	99	99	100	101	102	103	106	109	108	109	112	116	119	121	122	122	122	125	126	126	126	126	125	124	122	121	119	118	116	115	114	113	112	109	106	102	99	97	95	92	90	87	82	78	74	71	69	66	63	61	60	59	57	54	52	49	47	45	42	40	39	37	35	33	32	31	30	28	26	22	18	13	7	4	3	2	2	1	2	6	8	9	9	9	9	9	9	9	9	9	9	9	9	9	9	9	9	9	9	9	8	8	8	8	8	8	8	8	8	8	8	9	9	9	9	9	9	9	9	9	9	9	9	9	9	9	9	9	10	10	9	9	9	9	9	9	10	11	11	11	11	11	11	11	11	11	11	10	10	10	10	10	10	10	10	10	10	10	10	10	10	10	10	10	10	10	10	10	10	10	10	10	10	10	9	9	10	10	10	9	9	9	9	9	9	9	9	9	9	9	9	9	9	9	9	9	9	9	9	9	9	9	9	9	9	9	9	9	9	9	9	9	9	9	9	9	9	9	9	9	9	9	8	8	9	10	12	13	12	12	10	8	8	8	8	8	8	8	8	8	8	8	8	8	8	8	8	8	8	8	8	8	8	8	8	9	9	9	9	9	9	9	9	9	9	9	9	9	9	10	9	9	9	9	9	9	9	9	9	9	9	9	9	9	9	9	9	9	9	10	10	9	9	9	10	10	10	10	9	9	9	9	9	9	9	9	8	8	9	9	9	9	9	8	8	8	8	9	9	9	9	9	9	9	9	9	9	9	9	9	9	9	9	9	9	9	9	9	9	9	9	9	9	9	9	9	9	9	9	9	9	9	9	9	9	9	9	9	8	8	8	8	8	8	8	8	8	8	8	8	8	8	8	8	8	8	8	8	8	8	8	8	8	8	8	8	8	8	8	8	8	8	8	8	8	8	8	8	8	8	8	8	8	8	8	8	8	8	8	8	8	8	8	8	8	7	7	7	8	8	7	7	7	7	7	7	7	7	7	7	7	7	7	7	7	7	7	7	7	7	7	7	7	7	7	7	7	7	7	7	7	7	7	7	7	7	7	7	7	7	7	5	4	2	1	0	0	0	0	0	0	0	0	0	0	0	0	0	0	0	0	0	0	0	0	0	0	0	0	0	0	0	0	0	0	0	0	0	0	0	0	0	0	0	0	0	0	0	0	0	0	0	0	0	0	0	0	0	0	0	0	0	0	0	0	0	0	0	0	0	0	0	0	0	0	0	0	0	0	0	0	0	0	0	0	0	0	0	0	0	0	0	0	0	0	0	0	0	0	0	0	0	0	0	0	0	0	0	0	0	0	0	0	0	0	0	0	0	0	0	0	0	0	0	0	0	0	0	0	0	0	0	0	0	0	0	0	0	0	0	0	0	0	0	0	0	0	0	0	0	0	0	0	0	0	0	0	0	0	0	0	0	0	0	0	0	0	0	0	0	0	0	0	0	0	0	0	0	0	0	0	0	0	0	0	0	0	0	0	0	0	0	0	0	0	0	0	0	0	0	0	0	0	0	0	0	0	0	0	0	0	0	0	0	0	0	0	0	0	0	0	0	0	0	0	0	0	0	0	0	0	0	0	0	0	0	0	0	0	0	0	0	0	0	0	0	0	0	0	0	0
77	78	79	81	83	86	87	89	91	92	93	96	98	98	98	98	99	98	96	99	102	104	103	103	103	105	109	114	116	116	116	116	117	116	116	118	118	116	116	117	117	118	119	119	119	119	119	117	115	114	115	116	119	122	123	122	121	120	120	121	120	120	121	121	122	124	125	124	124	125	126	130	135	137	139	140	140	142	143	144	145	148	150	151	152	153	154	155	156	157	158	158	158	159	160	161	161	162	162	162	163	163	163	163	164	165	165	165	164	164	164	164	164	163	163	161	159	157	155	154	152	151	150	149	147	146	144	143	141	137	134	132	129	126	124	122	120	118	116	113	111	109	107	106	104	101	99	98	96	93	91	88	86	83	80	78	75	73	71	68	66	63	61	60	59	58	56	55	53	52	49	46	45	44	45	46	47	46	45	45	44	39	34	30	27	24	21	18	14	12	10	7	4	3	3	3	3	4	5	5	6	6	5	5	5	5	5	4	4	4	4	4	3	3	3	3	2	2	2	2	2	3	4	5	6	7	10	13	15	16	16	16	17	18	21	24	25	27	28	29	29	28	27	26	23	20	20	21	22	22	23	24	25	27	29	31	33	35	38	40	41	42	44	47	50	53	57	60	63	65	68	71	72	74	76	79	82	84	87	89	90	92	94	94	95	96	98	99	100	100	101	101	102	103	105	108	110	110	111	115	119	121	123	123	123	124	127	128	128	127	127	127	125	123	122	120	119	117	115	114	113	111	109	104	99	97	95	93	90	88	85	81	76	72	69	66	63	60	58	58	58	56	53	50	47	44	42	40	39	37	35	33	31	30	29	29	27	25	22	18	12	6	4	3	3	2	1	3	7	9	9	9	9	9	9	9	9	9	9	9	9	9	9	9	9	9	9	9	9	9	8	8	8	8	8	8	8	8	8	9	9	9	9	9	9	9	9	9	9	9	9	9	9	9	9	9	10	10	10	9	9	9	9	9	10	10	11	11	11	11	11	11	11	11	11	11	11	10	10	10	10	10	10	10	10	10	10	10	10	10	10	10	10	10	10	10	10	10	11	10	10	10	9	9	9	9	10	9	9	9	9	9	9	9	9	9	9	9	9	9	9	9	9	9	9	9	9	9	9	9	9	9	9	9	9	9	9	9	9	9	9	9	9	9	9	9	9	9	9	9	9	9	8	9	11	13	13	12	11	10	8	8	8	8	8	8	8	8	8	8	8	8	8	8	8	8	8	8	8	8	8	8	8	9	9	9	9	9	9	9	9	9	9	9	9	9	9	9	10	10	9	9	9	9	9	9	9	9	9	9	9	9	9	9	9	9	9	9	10	10	9	9	9	10	10	10	10	9	9	9	9	9	9	9	9	8	8	9	9	9	9	9	8	8	9	8	9	9	9	9	9	9	9	9	9	9	9	9	9	9	9	9	9	9	9	9	9	9	9	9	9	9	9	9	9	9	9	9	9	9	9	9	9	9	9	9	9	8	8	8	8	8	8	8	8	8	8	8	8	8	8	8	8	8	8	8	8	8	8	8	8	8	8	8	8	8	8	8	8	8	8	8	8	8	8	8	8	8	8	8	8	8	8	8	8	8	8	8	8	8	8	8	8	8	8	7	8	8	8	7	7	8	8	8	8	7	7	7	7	7	7	7	7	7	7	7	7	7	7	7	7	7	7	7	7	7	7	7	7	7	7	7	7	7	7	7	7	7	7	6	5	4	2	0	0	0	0	0	0	0	0	0	0	0	0	0	0	0	0	0	0	0	0	0	0	0	0	0	0	0	0	0	0	0	0	0	0	0	0	0	0	0	0	0	0	0	0	0	0	0	0	0	0	0	0	0	0	0	0	0	0	0	0	0	0	0	0	0	0	0	0	0	0	0	0	0	0	0	0	0	0	0	0	0	0	0	0	0	0	0	0	0	0	0	0	0	0	0	0	0	0	0	0	0	0	0	0	0	0	0	0	0	0	0	0	0	0	0	0	0	0	0	0	0	0	0	0	0	0	0	0	0	0	0	0	0	0	0	0	0	0	0	0	0	0	0	0	0	0	0	0	0	0	0	0	0	0	0	0	0	0	0	0	0	0	0	0	0	0	0	0	0	0	0	0	0	0	0	0	0	0	0	0	0	0	0	0	0	0	0	0	0	0	0	0	0	0	0	0	0	0	0	0	0	0	0	0	0	0	0	0	0	0	0	0	0	0	0	0	0	0	0	0	0	0	0	0	0	0	0	0	0	0	0	0	0	0	0	0	0	0	0	0	0	0	0	0	0	0	0
79	80	81	82	85	87	88	90	92	94	95	97	99	99	99	100	100	100	100	101	103	104	104	104	105	107	112	116	118	118	118	119	119	119	119	119	119	118	119	119	119	119	120	120	120	119	118	117	116	115	116	117	119	122	124	124	122	122	122	122	122	123	124	124	124	127	128	128	128	128	128	130	133	137	140	141	143	144	144	146	147	149	151	153	154	155	157	158	158	159	160	160	160	161	162	163	164	164	165	165	165	165	165	165	166	166	166	166	166	165	165	165	165	164	162	161	160	159	157	156	154	153	152	150	149	147	145	143	141	138	135	132	130	127	125	123	121	119	117	114	111	109	107	106	104	101	99	98	96	93	91	88	85	83	81	78	75	73	71	70	68	65	62	61	60	59	58	56	54	52	49	47	45	43	43	43	44	43	43	43	42	38	33	29	26	22	20	17	13	11	9	6	4	3	3	3	4	4	5	6	6	6	6	6	6	6	6	5	5	5	5	5	5	5	4	4	3	3	3	3	4	5	7	8	10	11	13	16	19	21	20	19	21	23	27	31	31	30	31	31	31	31	30	28	25	22	21	21	21	21	23	24	26	27	29	32	35	37	39	40	41	42	45	48	50	53	56	59	62	64	67	70	71	72	74	78	81	84	86	89	92	94	96	96	96	97	98	100	100	101	102	103	103	104	106	108	110	112	114	118	120	123	124	125	126	128	130	130	130	129	128	128	126	124	123	121	119	117	116	115	113	110	107	101	97	95	94	92	88	86	83	79	75	71	68	64	61	58	56	55	57	56	53	49	45	42	40	39	37	36	33	30	29	28	27	27	25	23	20	16	10	5	3	3	3	2	2	4	7	9	9	9	9	9	9	9	9	9	9	9	9	9	9	9	9	9	9	9	9	9	9	9	9	9	8	8	8	8	8	9	9	9	9	9	9	9	9	9	9	9	9	9	9	9	9	9	10	10	9	9	9	9	9	9	10	10	11	11	11	11	11	11	11	11	11	11	11	10	10	10	10	10	10	10	10	10	10	10	10	10	10	10	10	10	10	10	10	10	10	10	10	10	9	9	9	9	9	9	8	8	9	9	9	9	9	9	9	9	9	9	9	9	9	9	9	9	9	9	9	9	9	9	9	9	9	9	9	9	9	9	9	9	9	9	9	9	9	9	9	9	9	9	9	10	12	13	13	12	11	10	9	8	8	8	8	8	8	8	8	8	8	8	8	8	8	8	8	8	8	8	8	9	9	9	9	9	9	9	9	9	9	9	9	9	9	9	9	9	10	9	9	9	9	9	9	9	9	9	9	9	9	9	9	9	9	9	9	9	10	10	9	9	10	10	10	9	9	9	9	9	9	9	9	9	9	9	9	9	9	9	9	9	9	9	9	9	9	9	9	9	9	9	9	9	9	9	9	9	9	9	9	9	9	9	9	9	9	9	9	9	10	10	9	9	9	9	9	9	9	9	9	9	9	9	9	9	9	8	8	8	8	8	8	8	8	8	8	8	8	8	8	8	8	8	8	8	8	8	8	8	8	8	8	8	8	8	8	8	8	8	8	8	8	8	8	8	8	8	8	8	8	8	8	8	8	8	8	8	8	8	8	8	8	8	8	8	8	8	8	8	8	8	8	8	8	8	8	7	7	7	7	7	7	7	7	7	7	7	7	7	7	7	7	7	7	7	7	7	7	7	7	7	7	7	7	7	7	7	7	6	5	4	2	0	0	0	0	0	0	0	0	0	0	0	0	0	0	0	0	0	0	0	0	0	0	0	0	0	0	0	0	0	0	0	0	0	0	0	0	0	0	0	0	0	0	0	0	0	0	0	0	0	0	0	0	0	0	0	0	0	0	0	0	0	0	0	0	0	0	0	0	0	0	0	0	0	0	0	0	0	0	0	0	0	0	0	0	0	0	0	0	0	0	0	0	0	0	0	0	0	0	0	0	0	0	0	0	0	0	0	0	0	0	0	0	0	0	0	0	0	0	0	0	0	0	0	0	0	0	0	0	0	0	0	0	0	0	0	0	0	0	0	0	0	0	0	0	0	0	0	0	0	0	0	0	0	0	0	0	0	0	0	0	0	0	0	0	0	0	0	0	0	0	0	0	0	0	0	0	0	0	0	0	0	0	0	0	0	0	0	0	0	0	0	0	0	0	0	0	0	0	0	0	0	0	0	0	0	0	0	0	0	0	0	0	0	0	0	0	0	0	0	0	0	0	0	0	0	0	0	0	0	0	0	0	0	0	0	0	0	0	0	0	0	0	0	0	0	0	0
81	82	83	84	86	88	90	92	94	96	97	99	100	101	101	101	101	101	102	103	103	104	105	106	108	111	114	116	118	119	119	120	120	120	120	120	119	119	120	121	120	121	121	121	121	120	119	118	117	117	117	119	121	123	125	126	125	125	125	125	124	125	126	126	126	128	129	129	129	130	131	130	132	135	139	142	144	146	146	148	149	151	153	155	156	157	159	160	160	160	161	162	163	164	165	166	167	167	168	168	168	168	167	167	167	167	167	167	167	166	166	166	165	164	162	161	160	160	159	158	156	154	153	151	150	148	146	144	142	139	136	134	131	129	126	124	122	120	118	115	112	110	108	106	103	101	99	98	96	93	91	88	85	83	81	79	76	74	72	72	70	67	63	62	61	60	59	57	55	53	50	47	45	42	41	40	41	41	41	42	41	36	31	27	23	20	17	15	12	10	7	5	3	3	3	3	4	4	5	5	6	7	7	7	7	6	6	6	5	5	5	6	8	8	7	6	5	4	4	5	7	9	11	12	13	14	14	18	21	24	24	25	27	29	33	35	34	33	33	32	31	32	32	31	28	25	23	22	21	22	23	25	26	28	29	32	35	38	40	40	41	44	46	49	51	52	54	57	61	65	67	69	71	71	72	76	81	84	87	88	90	92	94	96	97	98	100	101	101	102	103	103	104	105	107	108	109	113	116	119	121	123	125	127	130	132	132	133	133	132	130	129	127	125	123	121	120	117	115	113	111	108	104	99	95	93	93	92	88	84	80	78	74	71	67	63	60	56	54	53	55	55	52	48	44	41	38	36	35	33	30	28	27	26	25	24	23	21	18	13	8	4	3	3	3	2	2	4	8	9	9	9	9	9	9	9	9	9	9	9	9	9	9	9	9	9	9	9	9	9	9	9	9	9	9	8	8	8	8	9	9	9	9	9	9	9	9	9	9	9	9	9	9	9	9	9	9	9	9	10	10	10	10	10	10	10	11	11	11	11	11	11	11	11	11	11	11	11	10	10	10	10	10	10	10	10	10	10	10	10	10	10	10	10	10	10	10	10	10	10	10	10	9	9	9	9	9	8	8	8	8	9	9	9	9	9	9	9	9	9	9	9	9	9	9	9	9	9	9	9	9	9	9	9	9	9	9	9	9	9	9	9	9	9	9	9	9	9	9	9	9	9	9	10	12	13	13	12	11	10	8	8	8	8	8	8	8	8	8	8	8	8	8	8	8	8	8	8	8	8	8	9	9	9	9	9	9	9	9	9	9	9	9	9	9	9	9	9	9	9	9	9	9	9	9	9	9	9	9	9	9	9	9	9	9	9	9	9	10	10	9	9	9	10	10	9	9	9	9	9	9	9	9	9	9	9	9	9	9	9	9	9	9	9	9	9	9	9	9	9	9	9	9	9	9	9	9	9	9	9	9	9	9	9	9	9	9	9	9	9	10	10	9	9	9	9	9	9	9	9	9	9	9	9	9	9	9	8	8	8	8	8	8	8	8	8	8	8	8	8	8	8	8	8	8	8	8	8	8	8	8	8	8	8	8	8	9	9	9	8	8	8	8	8	8	8	7	8	8	8	8	8	8	8	8	8	8	8	8	8	8	8	8	8	8	8	8	8	8	8	8	8	8	8	8	8	8	7	7	7	7	7	7	7	7	7	7	7	7	7	7	7	7	7	7	7	7	7	7	7	7	7	7	7	7	7	7	7	7	6	5	4	2	0	0	0	0	0	0	0	0	0	0	0	0	0	0	0	0	0	0	0	0	0	0	0	0	0	0	0	0	0	0	0	0	0	0	0	0	0	0	0	0	0	0	0	0	0	0	0	0	0	0	0	0	0	0	0	0	0	0	0	0	0	0	0	0	0	0	0	0	0	0	0	0	0	0	0	0	0	0	0	0	0	0	0	0	0	0	0	0	0	0	0	0	0	0	0	0	0	0	0	0	0	0	0	0	0	0	0	0	0	0	0	0	0	0	0	0	0	0	0	0	0	0	0	0	0	0	0	0	0	0	0	0	0	0	0	0	0	0	0	0	0	0	0	0	0	0	0	0	0	0	0	0	0	0	0	0	0	0	0	0	0	0	0	0	0	0	0	0	0	0	0	0	0	0	0	0	0	0	0	0	0	0	0	0	0	0	0	0	0	0	0	0	0	0	0	0	0	0	0	0	0	0	0	0	0	0	0	0	0	0	0	0	0	0	0	0	0	0	0	0	0	0	0	0	0	0	0	0	0	0	0	0	0	0	0	0	0	0	0	0	0	0	0	0	0	0	0
83	84	85	86	87	89	92	94	97	98	99	100	102	103	103	103	103	103	104	105	105	105	107	109	111	113	115	116	117	118	119	120	121	121	121	121	121	121	122	122	122	123	123	122	122	120	120	119	119	119	120	123	125	126	128	129	128	127	127	127	126	126	127	127	128	129	129	130	130	131	132	132	133	135	138	142	145	147	148	150	151	153	156	158	159	160	161	162	163	162	163	164	165	166	167	168	169	170	170	171	171	170	169	169	168	168	168	168	168	167	167	167	166	165	163	162	161	161	160	159	157	155	154	153	151	150	148	146	143	141	138	136	133	131	129	126	124	121	118	116	113	111	109	106	103	101	99	98	96	93	91	88	85	83	81	79	76	74	72	71	70	67	64	63	61	60	59	58	56	53	50	47	44	42	40	38	39	39	40	40	39	34	29	25	21	18	16	14	11	9	7	4	3	3	3	3	4	4	5	5	6	7	7	7	7	7	6	6	6	5	6	7	8	9	9	9	8	8	8	9	11	12	14	19	21	19	19	21	24	27	29	30	32	33	35	37	37	36	35	34	34	34	35	34	31	27	24	25	24	23	24	25	27	28	29	32	35	38	40	41	43	46	48	49	51	52	54	56	61	65	67	68	69	70	71	75	80	84	87	87	88	90	92	94	97	99	101	101	102	102	104	105	105	106	107	108	110	113	116	118	120	123	126	129	132	134	134	135	135	134	132	130	127	125	123	121	119	117	114	111	109	105	101	97	94	92	92	91	88	82	78	76	73	70	66	62	58	55	53	53	54	52	50	47	44	41	37	34	33	31	28	27	27	25	23	22	21	20	16	10	5	3	2	2	2	2	2	5	8	9	9	9	9	9	9	9	9	9	9	9	9	9	9	9	9	9	9	9	9	9	9	9	9	9	9	9	9	8	8	8	8	8	9	9	9	9	9	9	9	9	9	9	9	9	9	10	10	9	10	10	10	11	10	10	10	10	11	11	10	10	11	11	11	11	11	11	11	10	10	10	10	10	10	10	10	10	10	10	10	10	10	10	10	10	10	10	10	10	10	10	10	9	9	9	9	9	8	8	8	8	8	9	9	9	9	9	9	9	9	9	9	9	9	9	9	9	9	9	9	9	9	9	9	9	9	9	9	9	9	9	9	9	9	9	9	9	9	9	9	9	9	9	9	11	12	13	13	12	11	10	8	8	8	8	8	8	8	8	8	8	8	8	8	8	8	8	8	8	8	8	8	9	9	9	9	9	9	9	9	9	9	9	9	9	9	9	9	9	9	9	9	9	9	9	8	9	9	9	9	9	9	9	9	9	9	9	9	9	10	10	9	9	9	10	10	10	9	9	9	9	9	9	9	9	9	9	9	9	9	9	9	9	9	9	9	9	9	9	9	9	9	9	9	9	9	9	9	9	9	9	9	9	9	9	9	9	9	9	9	9	10	10	9	9	9	9	9	9	9	9	9	9	9	9	9	9	9	9	9	9	9	9	8	8	8	8	8	8	8	8	8	8	8	8	8	8	8	8	8	8	8	8	8	8	8	8	8	8	8	8	8	8	8	8	8	8	8	8	8	8	8	8	8	8	8	8	8	8	8	8	8	8	8	8	8	8	8	8	8	8	8	8	8	8	8	8	8	7	7	7	7	7	7	7	7	7	7	7	7	7	7	7	7	7	7	7	7	7	7	7	7	7	7	7	7	7	7	7	7	6	5	3	2	0	0	0	0	0	0	0	0	0	0	0	0	0	0	0	0	0	0	0	0	0	0	0	0	0	0	0	0	0	0	0	0	0	0	0	0	0	0	0	0	0	0	0	0	0	0	0	0	0	0	0	0	0	0	0	0	0	0	0	0	0	0	0	0	0	0	0	0	0	0	0	0	0	0	0	0	0	0	0	0	0	0	0	0	0	0	0	0	0	0	0	0	0	0	0	0	0	0	0	0	0	0	0	0	0	0	0	0	0	0	0	0	0	0	0	0	0	0	0	0	0	0	0	0	0	0	0	0	0	0	0	0	0	0	0	0	0	0	0	0	0	0	0	0	0	0	0	0	0	0	0	0	0	0	0	0	0	0	0	0	0	0	0	0	0	0	0	0	0	0	0	0	0	0	0	0	0	0	0	0	0	0	0	0	0	0	0	0	0	0	0	0	0	0	0	0	0	0	0	0	0	0	0	0	0	0	0	0	0	0	0	0	0	0	0	0	0	0	0	0	0	0	0	0	0	0	0	0	0	0	0	0	0	0	0	0	0	0	0	0	0	0	0	0	0	0	0
85	86	87	88	89	91	93	96	99	100	101	102	104	105	106	105	105	105	106	106	107	108	109	111	113	115	116	116	117	119	120	122	122	123	123	123	123	124	124	125	125	125	124	124	123	122	121	120	121	121	123	125	128	129	130	130	130	129	129	128	128	128	128	129	130	130	131	132	133	133	133	134	135	137	139	142	144	147	149	151	153	155	159	160	161	162	163	164	164	165	165	166	167	169	169	170	171	171	172	172	172	172	171	170	170	169	169	169	169	169	168	168	167	165	164	164	163	163	161	160	158	156	155	154	153	151	149	147	145	143	140	137	135	133	130	127	124	121	119	116	114	111	109	106	103	101	99	97	95	93	90	87	84	81	80	77	75	74	72	70	68	66	64	63	61	60	58	57	55	53	50	47	44	41	39	37	37	38	39	39	38	34	30	25	20	16	15	13	11	9	6	4	3	3	3	4	5	6	6	6	5	6	6	7	7	7	7	6	6	6	7	8	8	9	10	10	10	11	11	12	13	14	17	25	27	26	25	26	27	30	32	33	34	35	37	38	38	38	38	37	37	37	37	35	32	28	27	27	27	25	25	26	28	28	29	32	35	38	40	42	44	46	47	48	50	51	53	55	59	64	66	67	68	68	70	75	80	83	85	86	87	88	89	93	98	100	101	101	101	102	104	105	106	107	108	110	111	113	116	117	120	124	128	131	134	135	136	136	136	134	132	129	128	126	123	121	119	116	113	110	107	104	101	97	93	91	90	90	87	82	78	75	72	68	65	61	57	55	53	53	52	50	47	45	43	41	37	33	31	29	27	26	26	24	22	21	19	17	11	5	3	2	2	2	2	1	2	6	8	9	9	9	9	9	9	9	9	9	9	9	9	9	9	9	9	9	9	9	9	9	9	9	9	9	9	9	9	8	8	8	8	8	8	9	9	9	9	9	9	9	9	9	9	9	10	10	10	10	10	10	11	11	10	10	10	10	11	11	10	10	11	11	11	11	11	11	11	10	10	10	10	10	10	10	10	10	10	10	10	10	10	10	10	10	10	10	10	10	10	10	9	9	8	8	8	8	8	8	8	8	8	9	9	9	9	9	9	9	9	9	9	9	9	9	9	9	9	9	9	9	9	9	9	9	9	9	9	9	9	9	9	9	9	9	9	8	8	8	9	8	8	9	9	11	12	13	13	12	10	9	8	8	8	8	8	8	8	8	8	8	8	8	8	8	8	8	8	8	8	9	9	9	9	9	9	9	9	9	9	9	9	9	9	9	9	9	9	9	9	9	9	9	9	9	9	9	9	9	9	9	9	9	9	9	9	9	9	9	9	9	9	9	9	9	10	9	9	9	9	9	9	9	8	8	9	9	9	9	9	9	9	9	9	9	9	9	9	9	9	9	9	9	9	9	9	9	9	9	9	9	9	9	9	9	9	9	9	9	9	9	10	10	9	9	9	9	9	9	9	9	9	9	8	8	8	8	9	9	9	9	9	9	8	8	8	8	8	8	8	8	8	8	8	8	8	8	8	8	8	8	8	8	8	8	8	8	8	8	8	8	8	8	8	8	8	8	8	8	8	8	8	8	8	8	8	8	8	8	8	8	8	8	8	8	8	8	8	8	8	8	8	8	8	8	8	8	7	7	7	7	7	7	7	7	7	7	7	7	7	7	7	7	7	7	7	7	7	7	7	7	7	7	7	7	7	7	7	7	7	6	5	3	1	0	0	0	0	0	0	0	0	0	0	0	0	0	0	0	0	0	0	0	0	0	0	0	0	0	0	0	0	0	0	0	0	0	0	0	0	0	0	0	0	0	0	0	0	0	0	0	0	0	0	0	0	0	0	0	0	0	0	0	0	0	0	0	0	0	0	0	0	0	0	0	0	0	0	0	0	0	0	0	0	0	0	0	0	0	0	0	0	0	0	0	0	0	0	0	0	0	0	0	0	0	0	0	0	0	0	0	0	0	0	0	0	0	0	0	0	0	0	0	0	0	0	0	0	0	0	0	0	0	0	0	0	0	0	0	0	0	0	0	0	0	0	0	0	0	0	0	0	0	0	0	0	0	0	0	0	0	0	0	0	0	0	0	0	0	0	0	0	0	0	0	0	0	0	0	0	0	0	0	0	0	0	0	0	0	0	0	0	0	0	0	0	0	0	0	0	0	0	0	0	0	0	0	0	0	0	0	0	0	0	0	0	0	0	0	0	0	0	0	0	0	0	0	0	0	0	0	0	0	0	0	0	0	0	0	0	0	0	0	0	0	0	0	0	0	0	0
88	88	89	90	91	92	94	96	99	102	103	105	106	108	108	108	108	108	108	108	110	111	112	113	115	117	117	118	119	120	122	123	124	124	125	126	126	126	126	127	127	127	127	126	125	123	122	122	122	122	123	125	128	131	132	132	132	132	131	130	129	129	130	131	132	132	133	135	136	137	136	137	139	140	141	143	144	147	149	151	154	159	162	161	162	164	164	165	166	166	166	167	168	170	171	172	173	173	173	173	173	172	171	171	171	170	170	170	169	169	168	168	167	166	165	165	165	163	162	160	158	157	156	155	154	152	150	148	146	144	142	139	136	132	129	127	124	122	119	116	113	111	108	105	102	100	98	96	94	91	89	85	82	79	78	76	74	73	71	69	67	66	64	62	60	59	58	56	54	52	49	46	43	40	38	36	35	37	38	38	37	35	32	28	22	17	15	14	12	8	5	4	3	4	4	6	7	9	9	8	6	6	6	6	7	7	8	8	8	8	9	10	10	10	10	11	12	13	13	14	14	16	20	28	29	28	27	29	31	33	34	34	35	37	38	38	38	39	40	41	40	39	38	35	32	29	28	29	29	27	26	26	27	28	29	32	35	37	39	41	43	45	46	47	48	50	52	54	58	62	64	65	67	67	69	73	78	81	83	85	84	85	86	91	97	99	100	100	101	102	104	106	106	107	109	111	113	115	116	118	121	126	131	133	135	136	137	137	136	134	131	129	128	126	123	121	118	115	112	109	106	103	100	96	92	90	89	88	85	82	79	76	71	67	63	60	56	54	53	52	50	48	45	43	42	41	38	32	30	28	27	26	25	24	21	19	17	13	6	3	2	2	1	1	1	1	2	7	9	9	9	9	9	9	9	9	9	9	9	9	9	9	9	9	9	9	9	9	9	9	9	9	9	9	9	9	9	9	8	8	8	8	9	9	9	9	9	9	9	9	9	9	9	9	10	10	9	10	10	10	10	10	10	10	10	10	10	10	10	10	11	11	11	11	11	11	11	11	10	10	10	10	10	10	10	10	10	10	10	10	10	10	10	10	10	10	10	10	10	10	9	8	8	8	8	8	8	8	8	8	8	8	9	9	9	9	9	9	9	9	9	9	9	9	9	9	9	9	9	9	9	9	9	9	9	9	9	9	9	9	9	9	9	9	8	8	8	8	8	8	8	8	9	11	12	13	12	11	10	9	8	8	8	8	8	8	8	8	8	8	8	8	8	8	8	8	8	8	8	8	8	8	8	9	9	9	9	9	9	9	9	9	9	9	9	9	9	9	9	9	9	9	9	9	9	9	9	9	9	9	9	9	9	9	9	9	9	9	9	9	9	9	9	9	9	9	9	9	9	9	9	9	8	8	8	9	9	9	9	9	9	9	9	9	9	9	9	9	9	9	9	9	9	9	9	9	9	9	9	9	9	9	9	9	9	9	9	9	9	9	9	9	9	9	9	9	9	9	9	9	9	8	8	8	8	8	9	9	9	9	9	9	8	8	8	8	8	8	8	8	8	8	8	8	8	8	8	8	8	8	8	8	8	8	8	8	8	8	8	8	8	8	8	8	8	8	8	8	8	8	8	8	8	8	8	8	8	8	8	8	8	8	8	8	8	8	8	8	8	8	8	8	8	8	7	7	7	7	7	7	7	7	7	7	7	7	7	7	7	7	7	7	7	7	7	7	7	7	7	7	7	7	7	7	7	7	7	7	7	6	5	3	1	0	0	0	0	0	0	0	0	0	0	0	0	0	0	0	0	0	0	0	0	0	0	0	0	0	0	0	0	0	0	0	0	0	0	0	0	0	0	0	0	0	0	0	0	0	0	0	0	0	0	0	0	0	0	0	0	0	0	0	0	0	0	0	0	0	0	0	0	0	0	0	0	0	0	0	0	0	0	0	0	0	0	0	0	0	0	0	0	0	0	0	0	0	0	0	0	0	0	0	0	0	0	0	0	0	0	0	0	0	0	0	0	0	0	0	0	0	0	0	0	0	0	0	0	0	0	0	0	0	0	0	0	0	0	0	0	0	0	0	0	0	0	0	0	0	0	0	0	0	0	0	0	0	0	0	0	0	0	0	0	0	0	0	0	0	0	0	0	0	0	0	0	0	0	0	0	0	0	0	0	0	0	0	0	0	0	0	0	0	0	0	0	0	0	0	0	0	0	0	0	0	0	0	0	0	0	0	0	0	0	0	0	0	0	0	0	0	0	0	0	0	0	0	0	0	0	0	0	0	0	0	0	0	0	0	0	0	0	0	0	0	0	0	0	0	0	0
90	90	91	92	93	95	96	97	100	103	105	108	110	111	111	112	111	111	110	111	113	115	115	116	117	118	120	121	122	122	123	124	126	127	128	129	129	128	129	129	130	131	131	129	127	126	125	124	124	123	122	123	127	131	133	134	134	133	132	131	131	131	132	133	135	137	138	138	140	141	140	141	143	144	144	146	147	150	151	153	157	163	164	160	161	163	164	166	168	167	167	168	169	171	173	174	175	175	174	173	173	172	172	172	171	171	170	169	168	167	167	166	165	164	164	164	164	162	160	159	158	157	156	155	153	152	150	148	147	145	142	138	134	130	127	125	123	121	118	115	113	110	107	104	102	99	97	95	93	90	87	84	80	77	75	74	73	71	70	68	67	65	63	61	59	57	56	54	52	50	47	45	42	40	37	35	34	34	36	37	36	35	33	29	23	19	17	15	12	8	5	4	5	6	7	8	10	11	11	10	8	8	8	8	8	9	10	10	9	10	11	12	11	11	12	13	13	15	16	16	16	19	24	29	30	29	29	31	33	34	35	34	35	38	38	38	38	40	42	43	42	39	37	35	32	31	30	29	29	29	28	27	27	28	30	33	35	37	38	40	42	44	45	46	48	51	53	56	58	61	63	65	67	68	68	70	75	78	81	83	82	84	86	90	94	96	98	99	100	103	105	106	106	108	110	112	114	116	117	119	124	129	132	134	136	137	138	137	135	132	130	129	128	126	123	120	117	114	111	108	105	102	99	95	92	89	88	86	83	81	80	76	70	65	62	60	56	54	52	50	49	47	43	40	38	39	36	31	29	28	26	25	23	21	19	16	12	8	4	2	1	1	1	1	1	1	3	7	9	9	9	9	9	9	9	9	9	9	9	9	9	9	9	9	9	9	9	9	9	9	9	9	9	9	9	9	9	9	9	9	9	9	9	9	9	9	9	9	9	9	9	9	9	9	9	9	9	9	9	10	10	10	10	10	11	10	10	10	10	10	10	11	11	11	11	11	11	11	11	10	10	10	10	10	10	10	10	10	10	10	10	10	10	10	10	10	10	11	10	9	9	8	8	8	8	8	8	8	8	8	8	8	9	9	9	9	9	9	9	9	9	9	9	9	9	9	9	9	9	9	9	9	9	8	8	8	8	8	8	8	9	9	9	9	8	8	8	8	8	8	9	9	9	11	12	13	12	11	10	8	8	8	8	8	8	8	8	8	8	8	8	8	8	8	8	8	8	8	8	8	8	8	8	9	9	9	9	9	9	9	9	9	9	9	9	9	9	9	9	9	9	9	9	9	9	9	9	9	9	9	9	9	9	9	9	9	9	9	9	9	9	9	9	9	9	9	9	9	9	9	9	9	9	8	9	9	9	9	9	9	9	9	9	9	9	9	9	9	9	9	9	9	9	9	9	9	9	9	9	9	9	9	9	9	9	9	9	9	9	9	9	9	9	9	9	9	9	9	9	9	9	9	8	8	8	9	8	8	9	9	9	8	8	8	8	8	8	8	8	8	8	8	8	8	8	8	8	8	8	8	8	8	8	8	8	8	8	8	8	8	8	8	8	8	8	8	8	8	8	8	8	8	8	8	8	8	8	8	8	8	8	8	8	8	8	8	8	8	8	8	8	8	8	7	7	7	7	7	7	7	7	7	7	7	7	7	7	7	7	7	7	7	7	7	7	7	7	7	7	7	7	7	7	7	7	7	7	7	7	6	5	3	1	0	0	0	0	0	0	0	0	0	0	0	0	0	0	0	0	0	0	0	0	0	0	0	0	0	0	0	0	0	0	0	0	0	0	0	0	0	0	0	0	0	0	0	0	0	0	0	0	0	0	0	0	0	0	0	0	0	0	0	0	0	0	0	0	0	0	0	0	0	0	0	0	0	0	0	0	0	0	0	0	0	0	0	0	0	0	0	0	0	0	0	0	0	0	0	0	0	0	0	0	0	0	0	0	0	0	0	0	0	0	0	0	0	0	0	0	0	0	0	0	0	0	0	0	0	0	0	0	0	0	0	0	0	0	0	0	0	0	0	0	0	0	0	0	0	0	0	0	0	0	0	0	0	0	0	0	0	0	0	0	0	0	0	0	0	0	0	0	0	0	0	0	0	0	0	0	0	0	0	0	0	0	0	0	0	0	0	0	0	0	0	0	0	0	0	0	0	0	0	0	0	0	0	0	0	0	0	0	0	0	0	0	0	0	0	0	0	0	0	0	0	0	0	0	0	0	0	0	0	0	0	0	0	0	0	0	0	0	0	0	0	0	0	0	0	0	0
92	92	92	94	96	97	98	99	101	105	108	112	113	114	115	115	114	113	113	114	117	118	118	118	119	120	122	123	124	125	126	127	128	129	131	131	131	130	131	132	132	133	133	132	129	127	126	125	125	124	123	125	128	132	135	135	135	133	132	132	132	132	133	136	138	141	141	142	143	145	145	146	147	146	147	149	152	154	156	159	163	165	163	160	161	162	164	166	168	168	168	169	170	172	173	174	175	175	174	173	173	173	173	172	172	170	169	167	166	165	164	164	163	162	162	162	162	160	159	158	157	156	155	154	152	150	149	148	146	143	139	135	131	127	125	123	122	120	117	114	111	109	106	103	100	98	95	93	91	88	85	82	78	75	73	72	70	69	68	67	65	64	62	60	57	55	53	52	50	48	45	43	41	39	37	34	32	32	33	35	35	34	31	28	24	21	19	16	12	7	4	5	6	8	9	11	12	12	11	11	10	10	10	10	10	10	11	11	11	11	12	13	13	13	14	15	16	17	18	19	21	25	29	30	31	32	32	33	35	35	35	35	36	38	40	40	41	42	44	44	43	40	38	36	34	33	31	30	30	30	30	28	28	29	31	34	36	37	38	40	42	44	45	47	50	53	55	57	59	62	63	65	68	69	69	70	73	78	83	84	83	84	87	91	94	96	98	100	101	102	104	106	107	108	110	112	115	116	119	122	127	131	133	135	136	137	137	135	133	131	130	129	127	125	123	120	116	113	110	107	103	100	97	95	91	88	86	84	82	81	79	75	70	66	62	61	58	54	51	49	48	47	42	37	34	34	32	29	28	26	25	23	21	19	15	11	8	5	3	1	1	1	1	1	1	2	5	8	9	9	9	9	9	9	9	9	9	9	9	9	9	9	9	9	9	9	9	9	9	9	9	9	9	9	9	9	9	8	8	9	9	9	9	9	9	9	9	9	9	9	9	9	9	9	9	9	9	9	9	9	10	10	10	10	11	10	10	9	10	10	10	10	11	11	11	11	11	11	11	10	10	10	10	10	10	10	10	10	10	10	10	10	10	10	10	10	10	10	10	9	8	8	8	8	8	8	8	8	8	8	8	8	8	8	9	9	9	9	9	9	9	9	9	9	9	9	9	9	9	9	9	9	8	8	8	8	8	8	8	8	9	9	9	9	9	8	9	8	8	9	9	9	9	10	11	12	12	11	9	8	8	8	8	8	8	8	8	8	8	8	8	8	8	8	8	8	8	8	8	8	8	8	8	9	9	9	9	9	9	9	9	9	9	9	9	9	9	9	9	9	9	9	9	9	9	9	9	9	9	9	9	9	9	9	9	9	9	9	9	9	9	9	9	9	9	9	9	9	9	9	9	9	9	9	9	9	9	9	9	9	9	9	9	9	9	9	9	9	9	9	9	9	9	9	9	9	9	9	9	9	9	9	9	9	9	9	9	9	9	9	9	9	9	9	9	9	9	9	9	9	9	9	9	9	9	9	8	8	8	9	8	8	8	8	8	8	8	8	8	8	8	8	8	8	8	8	8	8	8	8	8	8	8	8	8	8	8	8	8	8	8	8	8	8	8	8	8	8	8	8	8	8	8	8	8	8	8	8	8	8	8	8	8	8	8	8	8	8	8	8	8	7	7	7	7	7	7	7	7	7	7	7	7	7	7	7	7	7	7	8	8	7	7	7	7	7	7	7	7	7	7	7	7	7	7	7	7	7	7	6	5	3	1	0	0	0	0	0	0	0	0	0	0	0	0	0	0	0	0	0	0	0	0	0	0	0	0	0	0	0	0	0	0	0	0	0	0	0	0	0	0	0	0	0	0	0	0	0	0	0	0	0	0	0	0	0	0	0	0	0	0	0	0	0	0	0	0	0	0	0	0	0	0	0	0	0	0	0	0	0	0	0	0	0	0	0	0	0	0	0	0	0	0	0	0	0	0	0	0	0	0	0	0	0	0	0	0	0	0	0	0	0	0	0	0	0	0	0	0	0	0	0	0	0	0	0	0	0	0	0	0	0	0	0	0	0	0	0	0	0	0	0	0	0	0	0	0	0	0	0	0	0	0	0	0	0	0	0	0	0	0	0	0	0	0	0	0	0	0	0	0	0	0	0	0	0	0	0	0	0	0	0	0	0	0	0	0	0	0	0	0	0	0	0	0	0	0	0	0	0	0	0	0	0	0	0	0	0	0	0	0	0	0	0	0	0	0	0	0	0	0	0	0	0	0	0	0	0	0	0	0	0	0	0	0	0	0	0	0	0	0	0	0	0	0	0	0	0	0	0
93	94	94	96	98	99	100	101	104	107	111	113	114	116	118	118	117	116	116	118	120	121	120	120	121	123	124	126	127	128	128	129	130	131	132	133	133	132	132	132	132	132	133	132	130	128	127	126	126	125	126	128	131	134	136	137	136	135	134	134	134	134	135	136	139	141	143	144	146	149	150	150	151	150	151	152	153	155	157	162	164	163	160	160	162	163	164	166	167	168	169	170	171	173	174	175	175	174	174	174	174	175	174	172	171	169	166	165	163	162	161	161	161	160	160	159	159	158	157	156	154	154	153	151	150	148	147	146	144	141	137	133	129	126	124	122	121	118	116	113	110	108	105	102	99	96	93	91	89	86	83	80	77	74	71	69	68	67	66	65	63	62	60	58	56	53	51	49	48	46	43	41	40	38	36	33	31	30	31	34	34	32	29	26	23	21	19	16	11	6	4	5	7	9	11	12	13	12	12	12	12	12	12	13	13	13	13	14	13	13	12	14	14	15	16	19	20	20	20	23	27	30	31	32	34	35	35	36	36	36	36	37	39	41	42	43	44	45	45	45	46	45	42	40	37	36	34	32	31	31	31	30	28	29	31	34	36	37	39	41	42	44	46	48	52	55	56	58	60	62	65	67	69	71	71	72	74	80	85	86	85	86	90	94	96	99	101	102	102	102	103	106	107	108	110	113	115	118	123	127	130	132	134	135	136	136	135	133	131	130	129	128	126	124	122	119	116	113	110	106	102	98	96	94	91	88	85	83	82	80	77	74	71	67	64	63	61	57	53	50	48	46	40	35	33	33	30	28	27	25	23	20	18	15	11	7	5	4	2	1	1	1	1	1	1	2	5	8	9	9	9	9	9	9	9	9	9	9	9	9	9	9	9	9	9	9	9	9	9	9	9	9	9	9	9	9	9	8	8	8	9	9	9	9	9	9	9	9	9	9	9	9	9	9	9	9	9	9	9	9	9	9	9	10	11	11	10	9	9	10	10	10	11	11	11	11	11	11	10	10	10	10	10	10	10	10	10	10	10	10	10	10	10	10	10	10	10	9	9	9	8	8	8	8	8	8	8	8	8	8	8	8	8	8	8	9	9	9	9	9	9	9	9	9	9	9	9	9	9	9	9	9	9	8	8	8	8	8	8	8	9	9	9	9	9	9	9	9	9	9	9	9	9	9	10	12	12	10	9	8	8	8	8	8	8	8	8	8	8	8	8	8	8	8	8	8	8	8	8	9	8	8	9	9	9	9	9	9	9	9	9	9	9	9	9	9	9	9	9	9	9	9	9	9	9	9	9	9	9	9	9	9	9	9	9	9	9	9	9	9	9	9	9	9	9	9	9	9	9	9	9	9	9	9	9	9	9	9	9	9	9	9	9	9	9	9	9	9	9	9	9	9	9	9	9	9	9	9	9	9	9	9	9	9	9	9	9	9	9	9	9	9	9	9	9	9	9	9	9	9	9	9	9	9	9	9	8	8	9	8	8	8	8	8	8	8	8	8	8	8	8	8	8	8	8	8	8	8	8	8	8	8	8	8	8	8	8	8	8	8	8	8	8	8	8	8	8	8	8	8	8	8	8	8	8	8	8	8	8	8	8	8	8	8	8	8	8	8	8	8	8	7	7	7	8	7	7	7	7	7	7	7	7	7	7	7	7	7	7	8	8	7	7	7	7	7	7	7	7	7	7	7	7	7	7	7	7	7	7	6	4	2	1	0	0	0	0	0	0	0	0	0	0	0	0	0	0	0	0	0	0	0	0	0	0	0	0	0	0	0	0	0	0	0	0	0	0	0	0	0	0	0	0	0	0	0	0	0	0	0	0	0	0	0	0	0	0	0	0	0	0	0	0	0	0	0	0	0	0	0	0	0	0	0	0	0	0	0	0	0	0	0	0	0	0	0	0	0	0	0	0	0	0	0	0	0	0	0	0	0	0	0	0	0	0	0	0	0	0	0	0	0	0	0	0	0	0	0	0	0	0	0	0	0	0	0	0	0	0	0	0	0	0	0	0	0	0	0	0	0	0	0	0	0	0	0	0	0	0	0	0	0	0	0	0	0	0	0	0	0	0	0	0	0	0	0	0	0	0	0	0	0	0	0	0	0	0	0	0	0	0	0	0	0	0	0	0	0	0	0	0	0	0	0	0	0	0	0	0	0	0	0	0	0	0	0	0	0	0	0	0	0	0	0	0	0	0	0	0	0	0	0	0	0	0	0	0	0	0	0	0	0	0	0	0	0	0	0	0	0	0	0	0	0	0	0	0	0	0	0
95	95	96	97	99	101	102	104	106	109	113	115	115	118	121	121	120	120	121	122	123	123	123	123	123	125	127	128	129	130	131	132	132	133	134	135	135	134	134	134	133	133	133	132	131	130	129	128	127	127	128	129	132	136	138	138	137	136	136	136	136	135	136	137	139	141	145	146	148	150	152	153	153	152	153	154	154	155	157	158	160	160	160	161	163	164	165	167	168	168	170	171	173	174	176	176	175	174	174	174	174	175	174	172	170	167	164	162	161	160	159	159	159	158	157	156	156	155	155	153	151	150	150	148	147	146	145	143	141	139	136	132	128	126	124	122	120	118	114	112	109	106	103	100	97	94	91	89	86	84	81	78	75	72	70	67	65	64	64	62	61	60	58	56	54	51	49	47	45	43	41	40	39	37	35	33	31	29	29	31	32	30	28	25	22	20	18	15	10	5	4	5	7	9	11	13	14	13	13	14	14	14	14	14	15	15	16	16	15	14	14	15	17	18	20	23	25	24	23	26	30	32	33	35	36	37	38	39	39	39	39	39	41	43	45	47	49	49	48	49	51	49	46	43	41	40	38	36	34	33	33	31	29	29	30	32	34	36	38	40	41	43	45	47	50	54	57	60	62	64	67	69	71	73	74	75	77	82	86	86	86	88	93	97	99	101	103	104	103	102	104	106	108	109	112	115	118	122	127	129	131	133	134	135	135	134	132	130	130	129	128	127	125	124	122	119	115	112	109	105	101	98	95	92	90	87	83	80	80	79	77	73	71	67	64	63	62	59	56	53	49	45	37	34	33	32	29	27	26	23	20	17	15	12	8	5	5	4	2	1	1	1	1	1	1	2	5	8	9	9	9	9	9	9	9	9	9	9	9	9	9	9	9	9	9	9	9	9	9	9	9	9	9	9	9	9	9	8	8	8	9	9	9	9	9	9	9	9	9	9	9	9	9	9	9	9	9	9	9	9	8	8	9	9	10	11	10	9	9	10	10	10	11	11	11	11	11	11	10	10	10	10	10	10	10	10	10	10	10	10	10	10	10	9	9	9	9	9	9	8	8	8	8	8	8	8	8	8	8	8	8	8	8	8	8	9	9	9	9	9	9	9	9	9	9	9	9	9	9	9	9	9	9	8	8	8	8	8	8	8	9	9	9	9	9	9	9	9	9	9	9	9	9	8	9	11	12	10	8	8	8	8	8	8	8	8	8	8	8	8	8	8	8	8	8	8	8	8	8	8	9	9	9	9	9	9	9	9	9	9	9	9	9	9	9	9	9	9	9	9	9	9	9	9	9	9	9	9	9	9	9	9	9	9	9	9	9	10	10	9	9	9	9	9	9	9	9	9	9	9	9	9	9	9	9	9	9	8	8	9	9	9	9	9	9	9	9	9	9	9	9	9	9	9	9	9	9	9	9	9	9	9	9	9	9	9	9	9	9	9	9	9	9	9	9	9	9	9	9	9	9	9	9	9	9	9	9	9	8	8	8	8	8	8	8	8	8	8	8	8	8	8	8	8	8	8	8	8	8	8	8	8	8	8	8	8	8	8	8	8	8	8	8	8	8	8	8	8	8	8	8	8	8	8	8	8	8	8	8	8	8	8	8	8	8	8	8	7	8	8	8	7	7	7	8	8	7	7	7	7	7	7	7	7	7	7	7	7	8	8	8	7	7	7	7	7	7	7	7	7	7	7	7	7	7	7	7	7	7	6	4	2	1	0	0	0	0	0	0	0	0	0	0	0	0	0	0	0	0	0	0	0	0	0	0	0	0	0	0	0	0	0	0	0	0	0	0	0	0	0	0	0	0	0	0	0	0	0	0	0	0	0	0	0	0	0	0	0	0	0	0	0	0	0	0	0	0	0	0	0	0	0	0	0	0	0	0	0	0	0	0	0	0	0	0	0	0	0	0	0	0	0	0	0	0	0	0	0	0	0	0	0	0	0	0	0	0	0	0	0	0	0	0	0	0	0	0	0	0	0	0	0	0	0	0	0	0	0	0	0	0	0	0	0	0	0	0	0	0	0	0	0	0	0	0	0	0	0	0	0	0	0	0	0	0	0	0	0	0	0	0	0	0	0	0	0	0	0	0	0	0	0	0	0	0	0	0	0	0	0	0	0	0	0	0	0	0	0	0	0	0	0	0	0	0	0	0	0	0	0	0	0	0	0	0	0	0	0	0	0	0	0	0	0	0	0	0	0	0	0	0	0	0	0	0	0	0	0	0	0	0	0	0	0	0	0	0	0	0	0	0	0	0	0	0	0	0	0	0	0
96	97	97	99	101	103	104	106	108	111	114	116	117	119	121	122	122	123	124	125	126	126	125	125	126	127	129	130	132	132	133	134	135	135	136	137	137	137	136	136	136	135	135	134	133	132	131	130	129	129	131	131	132	137	141	141	141	139	138	138	138	138	138	139	141	144	148	148	148	150	153	155	155	153	153	154	155	157	158	160	161	161	162	164	165	166	168	169	170	170	171	173	174	175	176	176	176	175	175	174	174	174	173	171	169	166	163	161	160	158	157	157	156	156	154	153	152	152	151	149	148	147	146	145	144	144	143	141	139	137	135	132	129	126	124	122	120	117	113	110	107	104	101	98	95	93	90	87	84	82	79	77	74	71	68	66	64	62	61	60	59	57	56	54	51	49	47	45	43	41	39	38	37	36	34	33	31	29	28	29	29	28	26	23	21	20	19	15	9	6	5	6	7	9	11	13	14	14	15	16	16	16	16	17	17	17	17	17	17	17	16	18	21	24	25	27	30	29	27	29	32	34	36	38	38	40	42	43	42	41	41	43	44	47	49	51	52	52	52	53	54	53	49	46	44	43	42	40	38	36	35	33	31	31	32	32	33	34	37	38	39	41	43	44	47	52	58	62	63	65	67	70	73	75	77	78	80	83	85	85	86	88	94	99	100	102	104	104	104	104	106	108	109	111	114	118	121	123	125	128	130	132	134	134	133	132	130	129	128	127	126	125	124	122	120	118	115	112	109	105	101	97	94	91	88	86	82	79	78	78	76	73	70	67	64	62	60	58	55	53	49	42	35	31	30	28	26	25	23	20	17	15	12	9	5	3	4	3	2	1	1	1	1	1	2	3	6	8	9	9	9	9	9	9	9	9	9	9	9	9	9	9	9	9	9	9	9	9	9	9	9	9	9	9	9	9	9	8	8	8	8	9	9	9	9	9	9	9	9	9	9	9	9	9	9	9	9	9	9	9	8	8	8	9	9	9	9	8	9	9	10	10	10	10	10	10	10	10	10	10	10	10	10	10	10	10	10	10	10	10	10	10	10	9	9	9	9	9	9	8	8	8	8	8	8	8	8	8	8	8	9	8	8	8	8	9	9	9	9	9	9	9	9	9	9	9	9	9	9	9	9	9	8	8	8	8	8	8	8	8	8	8	8	9	9	9	9	9	9	9	9	9	9	9	9	11	12	10	8	8	8	8	8	8	8	8	8	8	8	8	8	8	8	8	8	8	8	8	8	8	9	9	9	9	9	9	9	9	9	9	9	9	9	9	9	9	9	9	9	9	9	9	9	9	9	9	9	9	9	9	9	9	10	10	10	10	10	10	10	10	9	9	9	9	9	9	9	9	9	9	9	9	9	9	9	9	9	8	8	9	9	9	9	9	9	9	9	9	9	9	9	9	9	9	9	9	9	9	9	9	9	9	9	9	9	9	9	9	9	9	9	9	9	9	9	9	9	9	9	9	9	9	9	9	9	9	9	8	8	8	8	8	8	8	8	8	8	8	8	8	8	8	8	8	8	8	8	8	8	8	8	8	8	8	8	8	8	8	8	8	8	8	8	8	8	8	8	8	8	8	8	8	8	8	8	8	8	8	8	8	8	8	8	8	8	8	8	7	7	7	7	7	7	7	7	7	7	7	7	7	7	7	7	7	7	7	7	7	8	8	8	7	7	7	7	7	7	7	7	7	7	7	7	7	7	7	7	7	6	6	4	2	1	0	0	0	0	0	0	0	0	0	0	0	0	0	0	0	0	0	0	0	0	0	0	0	0	0	0	0	0	0	0	0	0	0	0	0	0	0	0	0	0	0	0	0	0	0	0	0	0	0	0	0	0	0	0	0	0	0	0	0	0	0	0	0	0	0	0	0	0	0	0	0	0	0	0	0	0	0	0	0	0	0	0	0	0	0	0	0	0	0	0	0	0	0	0	0	0	0	0	0	0	0	0	0	0	0	0	0	0	0	0	0	0	0	0	0	0	0	0	0	0	0	0	0	0	0	0	0	0	0	0	0	0	0	0	0	0	0	0	0	0	0	0	0	0	0	0	0	0	0	0	0	0	0	0	0	0	0	0	0	0	0	0	0	0	0	0	0	0	0	0	0	0	0	0	0	0	0	0	0	0	0	0	0	0	0	0	0	0	0	0	0	0	0	0	0	0	0	0	0	0	0	0	0	0	0	0	0	0	0	0	0	0	0	0	0	0	0	0	0	0	0	0	0	0	0	0	0	0	0	0	0	0	0	0	0	0	0	0	0	0	0	0	0	0	0	0	0
98	98	100	101	103	105	106	108	110	112	114	116	117	119	121	123	124	125	127	128	128	128	128	128	128	129	131	133	134	135	136	137	138	138	138	139	140	140	139	138	138	137	137	136	136	134	133	132	132	134	137	135	134	137	142	144	144	143	141	140	140	139	140	141	143	148	150	150	149	151	155	158	157	155	155	157	159	161	162	164	165	165	165	166	167	168	170	171	172	172	173	175	176	177	176	176	176	176	175	175	174	173	171	169	167	164	162	160	158	157	156	155	155	154	153	151	150	150	149	147	146	145	143	142	141	141	140	138	136	135	134	132	129	125	123	121	119	115	111	108	105	102	99	96	93	91	88	85	82	80	78	75	73	70	67	65	63	60	58	57	56	56	55	52	50	47	45	43	41	38	35	34	34	33	32	31	29	27	26	27	27	26	25	22	20	19	17	14	8	6	7	7	8	10	12	13	14	15	16	17	18	18	19	19	19	19	18	18	19	19	19	21	24	27	28	28	30	30	30	32	35	37	38	40	42	44	46	46	44	43	45	47	49	50	52	53	54	55	54	54	55	53	51	48	47	46	45	44	42	40	38	35	34	34	35	35	34	34	36	37	38	39	41	43	46	51	56	60	61	63	66	70	74	77	79	80	81	82	84	84	85	88	94	99	101	103	104	105	105	106	107	108	110	112	117	120	123	123	124	126	129	132	133	134	132	130	129	128	127	125	124	123	121	120	118	116	113	111	108	104	100	96	93	90	87	84	80	77	76	77	76	73	69	66	63	61	59	56	54	51	46	39	33	28	27	25	24	22	20	17	15	13	10	6	3	2	2	2	1	1	1	1	1	1	2	5	7	8	9	9	9	9	9	9	9	9	9	9	9	9	9	10	10	9	9	9	9	9	9	9	9	9	9	9	9	9	9	9	8	8	8	9	9	9	9	9	9	9	9	9	9	9	9	9	9	9	9	9	9	9	8	7	7	8	8	9	8	8	9	9	10	10	10	10	10	10	10	10	10	10	10	10	10	10	10	10	10	10	10	10	10	9	9	9	9	9	9	9	8	8	8	8	8	8	8	8	8	8	8	9	9	9	9	9	9	9	9	9	9	9	9	9	9	9	9	9	9	9	9	9	9	9	9	8	8	8	8	8	8	8	8	8	8	8	9	9	9	9	9	9	9	9	9	9	9	10	11	10	9	8	8	9	9	8	8	8	8	8	8	8	8	8	8	8	8	8	8	8	8	9	9	9	9	9	9	9	9	9	9	9	9	9	9	9	9	9	9	9	9	9	9	9	9	9	9	9	9	9	9	9	9	9	10	10	10	10	10	10	10	10	10	9	9	9	9	9	9	9	9	9	9	9	9	9	9	9	9	9	9	9	9	9	9	9	9	9	9	9	9	9	9	9	9	9	9	9	9	9	9	9	9	9	9	9	9	9	9	9	9	9	9	9	9	9	9	9	10	9	9	8	9	9	9	9	9	9	9	9	8	8	8	8	9	8	8	8	8	8	8	8	8	8	8	8	8	8	8	8	8	8	8	8	8	8	8	8	8	8	8	8	8	8	8	8	8	8	8	8	8	8	8	8	8	8	8	8	8	8	8	8	8	8	8	8	8	8	8	8	7	7	7	7	7	7	7	7	7	7	7	7	7	7	7	7	7	7	7	7	7	8	8	8	8	7	7	7	7	7	7	7	7	7	7	7	7	7	7	7	6	5	4	2	1	0	0	0	0	0	0	0	0	0	0	0	0	0	0	0	0	0	0	0	0	0	0	0	0	0	0	0	0	0	0	0	0	0	0	0	0	0	0	0	0	0	0	0	0	0	0	0	0	0	0	0	0	0	0	0	0	0	0	0	0	0	0	0	0	0	0	0	0	0	0	0	0	0	0	0	0	0	0	0	0	0	0	0	0	0	0	0	0	0	0	0	0	0	0	0	0	0	0	0	0	0	0	0	0	0	0	0	0	0	0	0	0	0	0	0	0	0	0	0	0	0	0	0	0	0	0	0	0	0	0	0	0	0	0	0	0	0	0	0	0	0	0	0	0	0	0	0	0	0	0	0	0	0	0	0	0	0	0	0	0	0	0	0	0	0	0	0	0	0	0	0	0	0	0	0	0	0	0	0	0	0	0	0	0	0	0	0	0	0	0	0	0	0	0	0	0	0	0	0	0	0	0	0	0	0	0	0	0	0	0	0	0	0	0	0	0	0	0	0	0	0	0	0	0	0	0	0	0	0	0	0	0	0	0	0	0	0	0	0	0	0	0	0	0	0	0	0
100	100	101	103	105	107	109	111	112	113	115	116	118	120	122	123	126	127	129	131	131	131	131	131	131	132	134	135	137	138	139	139	140	140	141	141	142	142	141	141	140	140	139	139	138	136	134	134	135	139	141	139	137	139	142	144	145	145	144	143	142	141	142	143	145	148	150	151	151	153	158	161	161	160	160	162	163	165	166	168	170	170	170	170	170	171	173	174	175	175	176	177	178	178	177	177	177	177	176	175	173	172	170	168	165	163	161	160	158	157	155	155	154	153	152	151	150	149	148	147	145	144	142	140	139	137	136	135	134	133	132	131	128	124	121	120	118	114	110	107	104	100	97	94	91	89	87	83	81	79	76	73	71	68	66	65	62	59	57	55	54	54	54	51	48	45	43	41	39	36	33	31	31	30	28	28	27	26	25	26	27	26	24	23	20	17	14	10	8	8	9	9	9	11	13	14	14	15	16	17	18	20	21	22	22	21	20	20	21	21	21	23	26	30	31	30	29	31	33	36	38	39	41	45	47	48	48	48	47	48	50	52	52	53	54	55	57	58	59	58	58	55	53	51	50	49	47	46	45	43	41	38	37	37	38	38	37	36	36	37	37	39	41	43	46	50	54	58	59	61	64	69	75	79	81	83	82	81	82	83	84	87	93	98	101	103	104	106	109	109	108	109	110	114	119	122	124	125	125	126	129	132	133	134	132	130	128	127	125	123	122	121	119	117	115	113	111	108	106	102	98	95	92	89	86	83	79	76	74	75	75	72	68	66	63	60	57	55	52	49	42	38	32	26	24	23	22	20	19	17	14	11	7	4	2	2	1	1	1	1	1	1	1	1	3	6	8	9	9	9	9	9	9	9	9	9	9	9	9	9	9	9	10	9	9	8	8	9	9	9	9	9	9	9	9	9	9	9	8	8	8	9	9	9	9	9	9	9	9	9	9	9	9	9	9	9	9	9	9	9	9	8	7	8	8	9	8	8	8	9	9	10	10	10	9	9	9	9	9	9	10	10	10	10	10	10	10	10	10	10	9	9	9	9	9	9	9	9	8	8	8	8	8	8	8	8	8	8	9	9	9	9	9	9	9	9	9	9	9	9	9	9	9	9	9	9	9	9	9	9	9	9	9	8	8	8	8	8	8	8	8	8	8	8	9	9	9	9	9	9	9	9	9	9	9	9	10	9	9	9	9	9	9	8	8	8	8	8	8	8	8	8	8	8	8	8	8	9	9	9	9	9	9	9	9	9	9	9	9	9	9	9	9	9	9	9	9	9	9	9	9	9	9	9	9	9	9	9	9	9	9	9	10	10	10	10	10	10	10	10	10	9	9	9	9	9	9	9	9	9	9	9	9	9	9	9	9	9	9	9	9	9	9	9	9	9	9	9	9	9	9	9	9	9	9	9	9	9	9	9	9	9	9	9	9	9	9	9	9	9	9	9	9	9	9	9	10	10	9	9	9	9	9	9	9	9	9	9	8	8	8	8	9	9	8	8	8	8	8	8	8	8	8	8	8	8	8	8	8	8	8	8	8	8	8	8	8	8	8	8	8	8	8	8	8	8	8	8	8	8	8	8	8	8	8	8	7	7	8	8	8	8	8	8	8	8	8	8	7	7	7	7	7	7	7	7	7	7	7	7	7	7	7	7	7	7	7	7	7	8	8	8	8	8	7	7	7	7	7	7	7	7	7	7	7	7	7	7	6	5	3	2	1	0	0	0	0	0	0	0	0	0	0	0	0	0	0	0	0	0	0	0	0	0	0	0	0	0	0	0	0	0	0	0	0	0	0	0	0	0	0	0	0	0	0	0	0	0	0	0	0	0	0	0	0	0	0	0	0	0	0	0	0	0	0	0	0	0	0	0	0	0	0	0	0	0	0	0	0	0	0	0	0	0	0	0	0	0	0	0	0	0	0	0	0	0	0	0	0	0	0	0	0	0	0	0	0	0	0	0	0	0	0	0	0	0	0	0	0	0	0	0	0	0	0	0	0	0	0	0	0	0	0	0	0	0	0	0	0	0	0	0	0	0	0	0	0	0	0	0	0	0	0	0	0	0	0	0	0	0	0	0	0	0	0	0	0	0	0	0	0	0	0	0	0	0	0	0	0	0	0	0	0	0	0	0	0	0	0	0	0	0	0	0	0	0	0	0	0	0	0	0	0	0	0	0	0	0	0	0	0	0	0	0	0	0	0	0	0	0	0	0	0	0	0	0	0	0	0	0	0	0	0	0	0	0	0	0	0	0	0	0	0	0	0	0	0	0	0	0
102	102	103	105	107	109	111	113	114	115	117	118	120	122	123	125	127	130	132	134	134	134	134	134	135	135	136	138	140	141	142	142	142	143	144	144	144	144	144	143	143	142	141	141	140	138	137	136	138	143	144	143	142	141	143	144	146	147	147	145	144	144	145	145	146	148	150	151	152	155	160	164	165	166	166	167	166	166	168	170	172	173	174	174	174	174	175	177	178	178	178	179	179	180	179	179	178	178	176	175	173	171	170	168	166	164	162	161	160	158	156	155	154	153	152	151	150	149	148	146	145	143	141	139	137	135	134	133	132	131	130	129	126	123	120	119	117	113	110	107	104	100	97	93	90	87	84	82	80	79	76	72	69	67	65	64	61	58	56	54	52	51	51	49	46	44	42	39	37	35	32	30	29	27	26	25	25	24	24	26	27	26	25	23	20	16	11	9	10	10	11	10	11	12	14	14	15	15	16	17	19	20	22	23	24	24	23	23	23	23	24	24	28	32	35	34	33	33	35	39	41	43	46	48	49	49	49	51	52	54	55	55	55	56	57	59	61	62	64	64	63	59	55	54	53	51	50	49	48	47	44	41	40	40	41	40	39	38	37	37	38	40	42	43	46	49	52	56	59	61	64	67	73	78	81	83	83	81	82	83	84	86	90	95	99	102	104	107	111	111	110	111	113	118	122	124	125	126	127	128	130	132	133	134	132	129	127	126	124	123	121	119	117	115	113	111	109	106	104	101	97	94	90	87	84	81	78	75	73	72	70	68	66	64	62	58	55	52	50	47	43	40	35	27	23	22	20	19	18	17	15	11	5	2	2	2	1	1	1	1	1	1	1	2	4	7	8	9	9	9	9	9	9	9	9	9	9	9	9	9	9	9	9	9	9	8	8	8	9	9	9	9	9	9	9	9	9	9	8	8	8	9	9	9	9	9	9	9	9	9	9	9	9	9	9	9	9	9	9	9	9	9	9	8	8	9	8	8	8	8	9	10	10	10	9	8	8	9	9	9	10	10	11	10	10	10	10	10	10	9	9	9	9	9	9	9	9	9	8	8	8	8	8	8	8	8	8	9	9	9	9	9	9	9	9	9	9	9	9	9	9	9	9	9	9	9	9	9	9	9	9	9	9	8	8	8	8	8	8	8	8	8	8	8	9	9	9	9	9	9	9	9	9	9	9	9	9	9	9	9	9	9	9	9	8	8	8	8	8	8	8	8	8	8	8	8	8	9	9	10	10	10	9	9	9	9	9	9	9	9	9	9	9	9	9	9	9	9	9	9	9	9	9	9	9	9	9	9	9	9	9	9	10	10	10	10	10	10	10	10	10	9	9	9	9	9	9	9	9	9	9	9	9	9	9	9	9	9	9	9	9	9	9	9	9	9	9	9	9	9	9	9	9	9	9	9	9	9	9	9	9	9	9	9	9	9	9	9	9	9	9	9	9	9	9	9	10	10	9	9	9	9	9	9	9	9	9	9	9	8	8	8	8	9	9	8	8	8	8	8	8	8	8	8	8	8	8	8	8	8	8	8	8	8	8	8	8	8	8	8	8	8	8	8	8	8	8	8	8	8	8	8	8	8	8	8	7	7	7	8	8	8	8	8	8	8	8	8	8	7	7	7	7	7	7	7	7	7	7	7	7	7	7	7	7	7	7	7	7	7	8	8	8	8	8	8	7	7	7	7	7	7	7	7	7	7	7	7	6	5	3	2	1	0	0	0	0	0	0	0	0	0	0	0	0	0	0	0	0	0	0	0	0	0	0	0	0	0	0	0	0	0	0	0	0	0	0	0	0	0	0	0	0	0	0	0	0	0	0	0	0	0	0	0	0	0	0	0	0	0	0	0	0	0	0	0	0	0	0	0	0	0	0	0	0	0	0	0	0	0	0	0	0	0	0	0	0	0	0	0	0	0	0	0	0	0	0	0	0	0	0	0	0	0	0	0	0	0	0	0	0	0	0	0	0	0	0	0	0	0	0	0	0	0	0	0	0	0	0	0	0	0	0	0	0	0	0	0	0	0	0	0	0	0	0	0	0	0	0	0	0	0	0	0	0	0	0	0	0	0	0	0	0	0	0	0	0	0	0	0	0	0	0	0	0	0	0	0	0	0	0	0	0	0	0	0	0	0	0	0	0	0	0	0	0	0	0	0	0	0	0	0	0	0	0	0	0	0	0	0	0	0	0	0	0	0	0	0	0	0	0	0	0	0	0	0	0	0	0	0	0	0	0	0	0	0	0	0	0	0	0	0	0	0	0	0	0	0	0	0
104	105	105	107	109	111	113	114	115	116	118	120	122	124	125	127	130	132	135	137	136	136	137	137	138	138	138	141	143	144	145	146	146	146	147	147	147	147	146	146	145	144	143	143	142	141	139	139	140	144	146	147	146	145	146	147	149	151	150	148	147	147	147	148	148	150	151	153	156	158	162	166	168	169	169	170	168	168	169	172	173	174	175	176	176	177	177	179	180	180	180	180	181	181	181	181	180	179	177	175	174	172	171	170	168	166	164	163	161	160	157	156	155	154	153	152	151	150	148	146	145	142	141	139	137	135	133	131	130	128	127	125	123	121	119	117	115	112	109	106	104	100	97	94	90	87	83	80	79	77	75	71	67	65	63	62	59	56	54	52	49	48	48	47	44	42	40	38	35	33	31	29	28	26	24	24	23	23	24	27	27	26	24	23	19	14	10	9	10	12	13	12	13	14	14	15	15	16	16	18	20	21	23	24	25	27	27	26	26	26	26	27	29	33	38	39	38	37	38	42	45	47	50	51	52	52	52	53	54	56	56	56	57	59	62	63	64	65	66	66	65	61	58	57	56	54	54	53	52	50	48	45	44	44	43	42	41	40	39	39	40	41	43	46	48	50	53	56	59	62	64	67	70	74	76	80	81	81	83	84	86	87	90	93	97	102	105	108	111	112	112	114	118	122	124	125	126	127	129	130	132	133	133	133	132	129	128	126	125	123	121	119	116	114	112	110	108	106	104	101	97	93	90	86	83	80	77	74	71	69	65	63	62	61	58	54	50	47	47	45	43	41	38	31	26	23	21	19	17	16	14	10	5	2	2	2	1	1	1	1	1	1	1	2	5	7	8	9	9	9	9	9	9	9	9	9	9	9	9	9	9	9	9	9	9	8	8	9	9	9	9	9	9	9	9	9	9	8	8	8	8	9	9	9	9	9	9	9	9	9	9	9	9	9	9	9	9	9	9	9	9	10	9	8	8	8	9	8	8	8	8	9	10	10	9	8	8	9	9	9	10	10	10	10	10	10	10	10	10	9	9	9	9	9	9	9	9	9	9	8	8	8	8	8	8	8	8	8	9	9	9	9	9	9	9	9	9	9	9	9	9	9	9	9	9	9	9	9	9	9	9	9	9	9	9	9	9	9	9	9	8	8	8	9	9	9	9	9	9	9	9	9	9	9	9	9	9	9	9	9	9	9	9	9	9	9	9	8	8	8	9	9	9	9	9	9	9	9	9	10	10	10	10	9	9	9	9	9	9	9	9	9	9	9	9	9	9	9	9	9	9	9	9	9	9	9	9	9	9	9	9	9	9	10	10	10	10	10	10	10	10	9	9	9	9	9	9	9	9	9	9	9	9	9	9	9	9	9	9	9	9	9	9	9	9	9	9	9	9	9	9	9	9	9	9	9	9	9	9	9	9	9	9	9	9	9	9	9	9	9	9	9	9	9	9	9	9	10	9	9	9	9	9	9	9	9	9	9	9	8	8	8	8	8	8	8	8	8	8	8	8	8	8	8	8	8	8	8	8	8	8	8	8	8	8	8	8	8	8	8	8	8	8	8	7	8	8	8	7	8	8	8	7	7	7	7	7	7	7	7	7	8	8	8	8	8	8	8	8	8	7	7	7	7	7	7	7	7	7	7	7	7	7	7	7	7	7	7	7	7	7	7	7	8	8	8	8	7	7	7	7	7	7	7	7	7	7	7	6	5	3	2	1	0	0	0	0	0	0	0	0	0	0	0	0	0	0	0	0	0	0	0	0	0	0	0	0	0	0	0	0	0	0	0	0	0	0	0	0	0	0	0	0	0	0	0	0	0	0	0	0	0	0	0	0	0	0	0	0	0	0	0	0	0	0	0	0	0	0	0	0	0	0	0	0	0	0	0	0	0	0	0	0	0	0	0	0	0	0	0	0	0	0	0	0	0	0	0	0	0	0	0	0	0	0	0	0	0	0	0	0	0	0	0	0	0	0	0	0	0	0	0	0	0	0	0	0	0	0	0	0	0	0	0	0	0	0	0	0	0	0	0	0	0	0	0	0	0	0	0	0	0	0	0	0	0	0	0	0	0	0	0	0	0	0	0	0	0	0	0	0	0	0	0	0	0	0	0	0	0	0	0	0	0	0	0	0	0	0	0	0	0	0	0	0	0	0	0	0	0	0	0	0	0	0	0	0	0	0	0	0	0	0	0	0	0	0	0	0	0	0	0	0	0	0	0	0	0	0	0	0	0	0	0	0	0	0	0	0	0	0	0	0	0	0	0	0	0	0	0
107	107	108	109	111	113	115	116	116	118	120	122	123	125	127	130	132	134	137	137	137	139	140	140	140	140	141	143	145	147	148	149	149	150	150	150	150	150	149	148	148	146	145	145	145	143	142	141	142	145	147	150	151	151	151	152	154	155	153	151	150	150	150	150	150	152	154	157	160	163	165	168	170	171	172	172	170	170	172	174	175	176	176	177	178	179	180	181	182	182	182	182	182	183	183	182	181	180	178	176	175	174	173	172	169	168	166	164	163	161	160	158	157	156	154	153	152	150	149	147	145	143	141	138	136	134	132	130	128	126	124	121	119	118	117	115	113	110	107	105	103	100	97	94	91	86	82	79	77	75	73	69	66	63	61	59	56	54	53	50	48	46	45	44	42	41	39	36	34	32	29	28	26	25	23	23	22	23	26	28	27	25	23	21	18	13	9	9	10	13	15	15	17	17	15	15	16	16	17	19	21	22	24	26	28	29	30	29	28	28	29	30	32	34	37	40	41	42	43	45	48	50	52	54	55	56	56	57	57	57	57	58	60	62	64	65	66	66	66	66	67	64	61	60	59	57	57	56	55	54	52	50	49	48	46	45	44	43	42	42	43	44	46	49	52	53	55	58	60	62	65	67	69	72	73	76	78	81	83	85	87	89	91	94	98	103	107	109	111	113	115	117	121	124	125	125	126	129	131	132	133	133	134	134	132	130	129	128	126	124	121	119	117	115	113	111	109	107	104	101	97	93	89	86	82	79	76	73	70	67	63	60	58	56	53	50	47	45	44	41	40	40	39	34	29	25	23	19	16	15	13	8	4	2	2	2	1	1	1	1	1	1	1	3	5	8	9	9	9	9	9	9	9	9	9	9	9	9	9	9	9	9	9	9	9	9	9	9	9	9	9	9	9	9	9	9	9	8	8	8	9	9	9	9	9	9	9	9	9	9	9	9	9	9	9	9	9	9	9	9	9	9	9	8	8	8	9	9	8	8	8	9	10	10	9	8	8	9	9	9	9	9	9	10	10	10	10	10	10	9	9	9	9	9	9	9	9	9	9	9	8	8	8	8	8	8	8	8	8	9	9	9	9	9	8	8	9	9	9	9	9	9	9	9	9	9	9	9	9	9	9	9	9	9	9	9	9	9	9	9	8	8	8	9	9	9	9	9	9	9	9	9	9	9	9	9	9	9	9	9	9	9	9	9	9	9	9	9	9	9	9	9	9	9	9	9	9	9	9	9	10	10	10	9	9	9	9	9	9	9	9	9	9	9	9	9	9	9	9	9	9	9	9	9	9	9	9	9	9	9	9	9	9	9	10	10	10	10	11	10	10	10	9	9	9	9	9	9	9	9	9	9	9	9	9	9	9	9	9	9	9	9	9	9	9	9	9	9	9	9	9	9	9	9	9	9	9	9	9	9	9	9	9	9	9	9	9	9	9	9	9	9	9	9	9	9	9	10	9	9	9	9	9	9	9	9	9	9	9	8	8	8	8	8	8	8	8	8	9	8	8	8	8	8	8	8	8	8	8	8	8	8	8	8	8	8	8	8	8	8	8	8	8	7	7	7	7	7	7	7	7	7	7	7	7	7	7	7	7	7	8	8	8	8	8	8	8	8	8	8	7	7	7	7	7	7	7	7	7	7	7	7	7	7	7	7	7	7	7	7	7	7	7	7	7	8	8	8	7	7	7	7	7	7	7	7	7	7	6	5	3	2	0	0	0	0	0	0	0	0	0	0	0	0	0	0	0	0	0	0	0	0	0	0	0	0	0	0	0	0	0	0	0	0	0	0	0	0	0	0	0	0	0	0	0	0	0	0	0	0	0	0	0	0	0	0	0	0	0	0	0	0	0	0	0	0	0	0	0	0	0	0	0	0	0	0	0	0	0	0	0	0	0	0	0	0	0	0	0	0	0	0	0	0	0	0	0	0	0	0	0	0	0	0	0	0	0	0	0	0	0	0	0	0	0	0	0	0	0	0	0	0	0	0	0	0	0	0	0	0	0	0	0	0	0	0	0	0	0	0	0	0	0	0	0	0	0	0	0	0	0	0	0	0	0	0	0	0	0	0	0	0	0	0	0	0	0	0	0	0	0	0	0	0	0	0	0	0	0	0	0	0	0	0	0	0	0	0	0	0	0	0	0	0	0	0	0	0	0	0	0	0	0	0	0	0	0	0	0	0	0	0	0	0	0	0	0	0	0	0	0	0	0	0	0	0	0	0	0	0	0	0	0	0	0	0	0	0	0	0	0	0	0	0	0	0	0	0	0	0
110	110	111	112	113	115	117	118	119	120	121	123	125	127	129	131	133	135	137	138	139	141	142	142	143	143	144	146	147	149	151	152	152	153	153	153	153	152	151	151	150	149	147	147	147	145	144	143	144	146	148	151	154	155	155	155	156	155	154	153	153	153	152	152	153	154	157	160	163	165	166	168	171	172	173	173	171	173	175	177	179	179	179	179	181	182	183	183	184	185	185	184	184	184	184	183	182	181	179	177	176	176	175	172	170	169	167	166	164	163	162	161	159	158	156	154	152	151	149	147	145	143	141	139	136	134	132	130	128	125	122	119	117	116	114	113	110	108	105	103	101	99	96	94	90	86	82	78	76	74	72	69	65	62	59	56	54	52	51	49	47	45	43	42	40	39	37	35	33	30	28	26	24	23	22	22	23	26	28	28	26	24	22	20	16	12	9	9	11	14	16	17	21	21	17	17	17	17	18	20	22	23	25	27	29	30	31	31	31	31	32	33	35	36	37	39	42	45	48	49	50	52	54	56	58	58	59	59	59	59	60	62	63	64	65	66	67	67	66	65	66	65	63	62	61	60	59	58	57	56	55	55	53	51	50	49	47	46	45	46	47	48	49	51	54	55	57	60	61	62	64	66	69	72	73	75	78	81	83	85	88	90	93	96	99	103	108	111	113	115	117	120	123	124	125	125	127	131	133	134	134	134	134	134	133	132	130	129	127	125	123	121	119	117	115	113	111	108	105	101	97	93	89	85	82	79	76	73	70	66	62	59	57	54	52	50	47	44	42	39	36	37	37	33	28	25	22	19	16	14	11	7	4	2	2	2	1	1	1	1	1	1	2	3	6	8	9	9	9	9	9	9	9	9	9	9	9	9	9	9	9	9	9	9	8	8	9	9	9	9	9	9	9	9	9	9	9	8	8	8	9	9	9	9	9	9	9	9	9	9	9	9	9	9	9	9	9	9	9	9	9	9	9	8	8	9	9	9	9	9	8	9	10	10	10	9	8	8	9	9	9	9	9	10	10	10	10	10	10	9	9	9	9	9	9	9	9	9	9	9	9	9	8	8	8	8	8	8	8	9	9	9	9	8	8	8	9	9	9	9	9	9	9	9	9	9	9	9	9	9	9	9	9	9	9	9	9	9	9	9	8	8	8	9	9	9	9	9	9	9	9	9	9	9	9	9	9	9	9	9	9	9	9	9	9	9	9	9	9	9	9	9	9	9	9	9	9	9	9	9	9	10	10	10	10	9	9	9	9	9	9	9	9	9	9	9	9	9	9	9	9	9	9	9	9	9	9	9	9	9	9	9	9	9	10	10	10	11	11	11	10	10	9	9	9	9	9	9	9	9	9	9	9	9	9	9	9	9	9	9	9	9	9	9	9	9	9	9	9	9	9	9	9	9	9	9	9	9	9	9	9	9	9	9	9	9	9	9	9	9	9	9	9	9	9	9	9	9	9	9	9	9	9	9	9	9	9	9	9	9	8	9	8	8	8	8	8	8	8	8	8	8	8	8	8	8	8	8	8	8	8	8	8	8	8	8	8	8	8	8	8	8	8	8	7	7	7	7	8	8	7	7	7	7	7	7	8	8	7	7	8	8	8	8	8	7	7	7	7	7	7	7	7	7	7	7	7	7	7	7	7	7	7	7	7	7	7	7	7	7	7	7	7	7	7	8	8	8	8	7	7	7	7	7	7	7	7	7	6	4	3	2	0	0	0	0	0	0	0	0	0	0	0	0	0	0	0	0	0	0	0	0	0	0	0	0	0	0	0	0	0	0	0	0	0	0	0	0	0	0	0	0	0	0	0	0	0	0	0	0	0	0	0	0	0	0	0	0	0	0	0	0	0	0	0	0	0	0	0	0	0	0	0	0	0	0	0	0	0	0	0	0	0	0	0	0	0	0	0	0	0	0	0	0	0	0	0	0	0	0	0	0	0	0	0	0	0	0	0	0	0	0	0	0	0	0	0	0	0	0	0	0	0	0	0	0	0	0	0	0	0	0	0	0	0	0	0	0	0	0	0	0	0	0	0	0	0	0	0	0	0	0	0	0	0	0	0	0	0	0	0	0	0	0	0	0	0	0	0	0	0	0	0	0	0	0	0	0	0	0	0	0	0	0	0	0	0	0	0	0	0	0	0	0	0	0	0	0	0	0	0	0	0	0	0	0	0	0	0	0	0	0	0	0	0	0	0	0	0	0	0	0	0	0	0	0	0	0	0	0	0	0	0	0	0	0	0	0	0	0	0	0	0	0	0	0	0	0	0	0
113	113	114	114	116	118	120	121	122	123	123	125	127	130	132	134	135	136	138	140	143	145	145	145	146	146	146	147	148	151	154	155	155	156	156	156	155	154	154	153	152	151	149	148	147	146	145	145	147	148	150	152	155	157	158	157	157	156	155	155	156	156	155	155	155	156	159	163	165	165	166	168	171	174	175	175	175	177	179	182	183	183	182	181	183	185	186	186	187	188	188	187	187	187	186	185	183	182	180	178	178	177	176	173	171	170	169	167	166	164	163	162	161	159	157	155	154	152	150	148	146	144	141	138	136	134	132	130	127	124	121	117	115	113	112	110	108	105	103	101	98	96	94	92	89	85	81	78	75	73	71	69	65	61	58	55	53	51	49	48	46	44	42	40	39	37	36	34	31	29	27	25	23	23	22	21	23	26	27	26	25	22	20	18	15	12	9	10	12	14	16	20	23	23	20	19	18	19	19	21	22	24	26	28	30	31	33	35	35	35	36	38	39	40	39	39	42	47	50	50	52	54	56	57	59	60	61	62	61	61	63	65	66	66	66	67	69	70	69	67	67	66	65	65	65	63	62	60	59	58	58	57	56	55	54	53	50	48	47	49	50	51	52	53	55	56	57	60	61	62	64	66	69	72	74	76	79	82	84	87	89	92	94	97	100	104	109	114	116	117	119	122	124	125	126	126	128	131	134	136	136	136	135	134	134	133	132	131	129	127	125	124	122	120	118	115	112	110	106	102	98	93	90	86	83	80	77	73	69	65	62	59	56	53	51	49	47	45	41	38	35	34	33	29	26	23	21	17	15	12	10	6	3	2	2	1	1	1	1	1	1	1	2	4	6	8	9	9	10	10	10	9	9	9	9	9	9	9	9	9	9	9	9	9	8	8	9	9	9	9	9	9	9	9	9	9	9	8	8	8	9	9	9	9	9	9	9	9	9	9	9	9	9	9	9	9	9	9	9	9	9	9	9	9	9	9	9	9	9	9	9	9	9	10	10	9	8	9	9	9	9	9	9	10	10	10	10	10	9	9	9	9	9	9	9	9	9	9	9	9	9	9	9	8	8	8	8	8	8	8	8	8	9	8	8	8	8	9	9	9	9	9	9	9	9	9	9	9	9	9	9	9	9	9	9	9	9	9	9	8	8	8	8	9	9	9	9	9	9	9	9	9	9	9	9	9	9	9	9	9	9	9	9	9	9	9	9	9	9	9	9	9	9	9	9	9	9	9	9	9	9	9	10	10	10	9	9	9	9	9	9	9	9	9	9	9	9	9	9	9	9	9	9	9	9	9	9	9	9	9	9	9	9	9	10	10	10	11	11	11	10	10	9	9	9	9	9	9	9	9	9	9	9	9	9	9	9	9	9	9	9	9	9	9	9	9	9	9	9	9	9	9	9	9	9	9	9	9	9	9	9	9	9	9	9	9	9	9	9	9	9	9	9	9	9	9	9	9	9	9	9	9	9	9	9	9	9	9	9	9	8	8	8	8	8	8	8	8	8	8	8	8	8	8	8	8	8	8	8	8	8	8	8	8	8	8	8	8	8	8	8	8	8	8	8	8	7	7	8	8	8	8	8	7	7	8	8	8	7	7	8	8	8	8	7	7	7	7	7	7	7	7	7	7	7	7	7	7	7	7	7	7	7	7	7	7	7	7	7	7	7	7	7	7	7	7	8	8	8	8	7	7	7	7	7	7	7	7	6	4	3	1	0	0	0	0	0	0	0	0	0	0	0	0	0	0	0	0	0	0	0	0	0	0	0	0	0	0	0	0	0	0	0	0	0	0	0	0	0	0	0	0	0	0	0	0	0	0	0	0	0	0	0	0	0	0	0	0	0	0	0	0	0	0	0	0	0	0	0	0	0	0	0	0	0	0	0	0	0	0	0	0	0	0	0	0	0	0	0	0	0	0	0	0	0	0	0	0	0	0	0	0	0	0	0	0	0	0	0	0	0	0	0	0	0	0	0	0	0	0	0	0	0	0	0	0	0	0	0	0	0	0	0	0	0	0	0	0	0	0	0	0	0	0	0	0	0	0	0	0	0	0	0	0	0	0	0	0	0	0	0	0	0	0	0	0	0	0	0	0	0	0	0	0	0	0	0	0	0	0	0	0	0	0	0	0	0	0	0	0	0	0	0	0	0	0	0	0	0	0	0	0	0	0	0	0	0	0	0	0	0	0	0	0	0	0	0	0	0	0	0	0	0	0	0	0	0	0	0	0	0	0	0	0	0	0	0	0	0	0	0	0	0	0	0	0	0	0	0	0
115	116	117	117	118	121	122	124	124	125	125	127	129	132	135	136	136	137	139	142	146	147	147	147	148	148	148	149	150	152	154	156	157	158	158	158	157	156	156	155	154	152	150	148	148	147	147	147	149	151	152	154	156	157	159	160	160	159	158	158	158	157	157	157	157	158	160	163	165	166	167	170	173	176	177	178	180	182	184	185	185	185	185	185	186	188	189	189	189	190	189	189	189	189	188	186	184	183	181	180	179	178	177	175	173	172	171	169	167	166	164	163	162	160	159	157	155	152	150	148	146	144	141	138	135	133	131	129	126	122	119	116	113	111	109	107	105	102	99	97	95	92	90	88	86	82	79	76	73	71	70	68	64	60	57	55	52	50	49	47	45	43	41	39	37	36	34	32	30	29	27	26	25	24	23	21	21	22	23	24	23	21	19	17	14	11	10	10	12	16	19	23	25	25	24	22	20	20	20	21	23	25	27	29	31	34	37	39	38	37	39	40	41	43	42	40	41	47	50	49	51	55	57	58	61	63	64	65	64	65	66	68	68	69	69	70	72	72	72	71	70	68	68	68	69	67	66	65	63	61	61	62	60	57	56	55	53	51	50	51	53	54	55	55	55	56	57	59	61	62	64	66	69	72	74	77	80	83	85	88	90	93	96	98	101	104	110	115	117	119	121	123	125	127	128	128	129	131	135	139	139	138	137	135	135	135	135	134	132	130	128	127	126	124	121	117	114	111	107	103	99	95	91	87	84	81	77	72	68	65	62	58	56	53	51	50	49	47	44	39	35	32	30	27	25	22	20	17	14	12	9	6	4	3	2	1	1	1	1	1	1	1	2	4	7	8	9	9	10	11	10	9	9	9	9	9	9	9	9	9	9	9	9	9	8	8	9	9	9	9	9	9	9	9	9	9	9	8	8	8	9	9	9	9	9	9	9	9	9	9	9	9	9	9	9	9	9	9	9	9	9	9	8	9	9	9	9	9	9	9	9	9	9	10	10	10	9	9	9	9	9	9	9	10	10	10	10	10	9	9	9	9	9	9	9	9	9	9	9	9	9	9	9	9	8	8	8	8	8	8	8	8	8	9	8	8	8	9	8	8	9	9	9	9	9	9	9	9	9	9	9	9	9	9	9	9	9	9	9	8	8	8	8	9	9	9	9	9	9	9	9	9	9	9	9	9	9	9	9	9	9	9	9	9	9	9	9	9	9	9	9	9	9	9	9	9	9	9	9	9	9	9	9	10	9	9	9	9	9	9	9	9	9	9	9	9	9	9	9	9	9	9	9	9	9	9	9	9	9	9	9	9	9	9	9	10	10	10	11	10	10	10	9	9	9	9	9	9	9	9	9	9	9	9	9	9	9	9	9	9	9	9	9	9	9	9	9	9	9	9	9	9	9	9	9	9	9	9	9	9	9	9	9	9	9	9	9	9	9	9	9	9	9	9	9	9	10	9	9	9	10	9	9	9	9	9	9	9	9	8	8	8	8	8	8	8	8	8	8	8	8	8	8	8	8	8	8	8	8	8	8	8	8	8	8	8	8	8	8	8	8	8	8	8	8	7	7	7	7	7	7	8	8	8	8	8	8	8	7	7	8	8	8	8	7	7	7	7	7	7	7	7	7	7	7	7	7	7	7	7	7	7	7	7	7	7	7	7	7	7	7	7	8	8	7	7	8	8	8	7	7	7	7	7	7	7	7	7	6	4	3	1	0	0	0	0	0	0	0	0	0	0	0	0	0	0	0	0	0	0	0	0	0	0	0	0	0	0	0	0	0	0	0	0	0	0	0	0	0	0	0	0	0	0	0	0	0	0	0	0	0	0	0	0	0	0	0	0	0	0	0	0	0	0	0	0	0	0	0	0	0	0	0	0	0	0	0	0	0	0	0	0	0	0	0	0	0	0	0	0	0	0	0	0	0	0	0	0	0	0	0	0	0	0	0	0	0	0	0	0	0	0	0	0	0	0	0	0	0	0	0	0	0	0	0	0	0	0	0	0	0	0	0	0	0	0	0	0	0	0	0	0	0	0	0	0	0	0	0	0	0	0	0	0	0	0	0	0	0	0	0	0	0	0	0	0	0	0	0	0	0	0	0	0	0	0	0	0	0	0	0	0	0	0	0	0	0	0	0	0	0	0	0	0	0	0	0	0	0	0	0	0	0	0	0	0	0	0	0	0	0	0	0	0	0	0	0	0	0	0	0	0	0	0	0	0	0	0	0	0	0	0	0	0	0	0	0	0	0	0	0	0	0	0	0	0	0	0	0	0
118	119	119	120	121	123	125	126	126	127	127	129	131	134	137	137	138	139	141	144	146	147	148	149	149	150	150	151	152	153	154	155	157	158	159	159	159	158	157	156	155	153	151	149	149	148	149	149	151	153	155	156	158	159	161	163	164	163	161	160	159	159	158	159	160	161	162	165	167	169	172	174	176	178	179	181	183	184	184	185	186	187	188	189	189	190	190	190	191	191	190	190	190	190	189	187	185	184	183	182	181	180	179	177	176	174	173	171	170	168	166	164	163	162	160	158	155	153	150	148	146	144	141	137	135	132	130	127	124	121	117	114	111	109	106	104	101	98	95	93	91	88	86	84	82	79	76	74	71	69	68	65	62	59	57	55	53	51	49	47	44	42	40	39	37	35	33	31	30	28	27	27	28	27	25	23	21	21	21	22	22	20	18	16	13	11	11	12	13	18	23	24	25	25	26	25	23	22	22	23	24	26	28	31	34	37	41	41	39	38	39	40	42	45	45	42	42	47	50	50	52	56	58	59	61	64	66	67	67	67	69	70	70	71	72	72	72	73	74	74	73	72	71	71	71	70	69	69	67	65	66	68	65	60	58	57	55	53	52	53	55	57	57	58	57	58	59	60	62	63	65	67	69	71	74	78	81	84	86	89	92	96	101	102	102	105	109	114	117	121	124	126	127	129	131	131	131	133	137	141	141	141	139	137	137	137	138	137	135	133	131	130	128	126	123	119	116	113	109	105	101	97	93	89	85	81	77	72	68	65	62	59	56	54	53	52	52	51	49	44	39	34	32	29	25	23	21	18	15	12	9	6	4	3	2	1	1	1	1	1	1	1	2	5	7	9	9	10	11	11	10	9	9	9	9	8	8	8	9	9	9	9	9	9	8	8	9	9	9	9	9	9	9	9	9	9	9	8	8	8	9	9	9	8	9	9	9	9	9	9	9	9	9	9	9	9	9	9	9	9	9	9	9	9	9	9	9	9	9	9	9	9	9	9	10	10	9	9	9	9	9	9	9	10	10	10	10	10	9	9	9	9	9	9	9	9	9	9	9	9	9	9	9	9	9	8	8	8	8	9	9	8	9	9	9	9	9	8	8	8	9	9	9	9	9	9	9	9	9	9	9	9	9	9	9	9	9	9	9	8	7	8	8	9	9	9	9	9	9	9	9	9	9	9	9	9	9	9	9	9	9	9	9	9	9	9	9	9	9	9	9	9	9	9	9	9	9	9	9	9	9	9	9	9	9	9	9	9	9	9	9	9	9	9	9	9	9	9	9	9	9	9	9	9	9	9	9	9	9	9	9	9	9	9	9	9	10	10	10	10	10	10	9	9	9	9	9	9	9	9	9	9	9	9	9	9	9	9	9	9	9	9	9	9	9	9	9	9	9	9	9	9	9	9	9	9	9	9	9	9	9	9	9	9	9	9	9	9	9	9	9	9	9	9	9	9	9	9	9	10	10	9	9	9	9	9	9	9	9	9	8	8	8	9	8	8	8	8	8	8	8	8	8	8	8	8	8	8	8	8	8	8	8	8	8	8	8	8	8	8	8	8	8	8	8	7	7	7	7	7	7	7	8	8	8	8	8	7	7	8	8	8	8	8	7	7	7	7	7	7	7	7	7	7	7	7	7	7	7	7	7	7	7	7	7	7	7	7	7	8	8	7	7	8	7	7	8	8	7	7	7	7	7	7	7	7	7	6	5	4	3	1	0	0	0	0	0	0	0	0	0	0	0	0	0	0	0	0	0	0	0	0	0	0	0	0	0	0	0	0	0	0	0	0	0	0	0	0	0	0	0	0	0	0	0	0	0	0	0	0	0	0	0	0	0	0	0	0	0	0	0	0	0	0	0	0	0	0	0	0	0	0	0	0	0	0	0	0	0	0	0	0	0	0	0	0	0	0	0	0	0	0	0	0	0	0	0	0	0	0	0	0	0	0	0	0	0	0	0	0	0	0	0	0	0	0	0	0	0	0	0	0	0	0	0	0	0	0	0	0	0	0	0	0	0	0	0	0	0	0	0	0	0	0	0	0	0	0	0	0	0	0	0	0	0	0	0	0	0	0	0	0	0	0	0	0	0	0	0	0	0	0	0	0	0	0	0	0	0	0	0	0	0	0	0	0	0	0	0	0	0	0	0	0	0	0	0	0	0	0	0	0	0	0	0	0	0	0	0	0	0	0	0	0	0	0	0	0	0	0	0	0	0	0	0	0	0	0	0	0	0	0	0	0	0	0	0	0	0	0	0	0	0	0	0	0	0	0	0	0
121	121	122	122	124	126	128	129	129	129	130	131	132	135	138	139	140	141	143	145	146	148	149	150	152	153	154	154	154	154	155	156	157	159	160	160	159	158	158	157	155	153	151	150	150	151	152	153	154	157	158	160	160	162	163	164	164	163	161	161	161	161	160	161	164	165	165	167	170	174	176	177	179	181	182	183	184	184	184	185	186	188	189	190	191	191	191	191	192	192	192	191	191	191	190	188	186	185	185	184	183	182	181	179	178	176	174	173	171	169	167	165	164	162	160	158	155	153	150	148	146	144	141	138	135	132	129	126	122	119	116	113	110	107	104	101	98	96	93	90	88	85	83	81	79	77	74	72	70	68	65	63	60	58	56	55	53	52	50	47	44	42	40	38	37	35	34	32	30	28	27	27	28	28	27	25	23	22	21	20	20	19	16	14	12	11	12	13	14	19	24	26	26	26	28	28	26	24	23	24	26	27	29	32	37	40	43	43	41	39	40	41	42	44	44	43	43	46	50	53	55	58	59	60	62	64	68	70	70	70	71	72	72	73	73	73	72	73	75	76	75	75	74	73	72	71	69	69	70	69	70	70	69	64	60	59	57	56	56	55	55	57	59	61	63	63	63	64	65	66	67	69	70	73	76	79	82	85	88	90	93	100	105	105	105	107	110	114	118	123	126	127	130	133	135	135	135	136	139	142	142	141	140	138	138	140	141	141	139	137	134	132	131	128	124	121	117	114	111	107	103	98	94	90	86	81	76	72	69	66	63	60	57	55	54	54	54	53	50	47	44	37	33	32	27	24	21	19	16	13	9	6	4	3	2	1	1	1	1	1	1	1	3	5	8	9	9	10	11	11	10	9	9	9	9	8	8	8	9	9	9	9	9	8	8	8	9	9	9	9	9	9	9	9	9	9	8	8	8	9	9	9	9	9	9	9	9	9	9	9	9	9	9	9	9	9	9	9	9	9	9	9	9	9	9	9	9	9	9	9	9	9	9	9	10	11	10	9	9	9	9	9	9	10	11	10	10	10	9	9	9	9	9	9	9	9	9	9	9	9	9	9	9	9	9	9	8	8	8	9	9	9	8	8	9	9	9	8	8	8	9	9	9	9	9	9	9	9	9	9	9	9	9	9	9	9	9	9	8	8	7	8	8	9	9	9	9	9	9	9	9	9	9	9	9	9	9	9	9	9	9	9	9	9	9	9	9	9	9	9	9	9	9	9	9	9	9	9	9	9	9	9	9	9	9	9	9	9	9	9	9	9	9	9	9	9	9	9	9	9	9	9	9	9	9	9	9	9	9	9	9	9	9	9	9	9	10	10	10	10	10	10	9	9	9	9	9	9	9	9	9	9	9	9	9	9	9	9	9	9	9	9	9	9	9	9	9	9	9	9	9	9	9	9	9	9	9	9	9	9	9	9	9	9	9	9	9	9	9	9	9	9	9	9	9	9	9	9	9	9	10	9	9	9	9	9	9	9	9	9	9	8	8	8	8	8	8	8	8	8	8	8	8	8	8	8	8	8	8	8	8	8	8	8	8	8	8	8	8	8	8	8	8	8	8	7	7	7	7	7	7	7	7	7	7	7	7	7	7	8	8	8	8	7	7	7	7	7	7	7	7	7	7	7	7	7	7	7	7	7	7	7	7	7	7	7	7	7	7	8	8	7	7	7	7	8	8	8	7	7	7	7	7	7	7	7	7	6	5	4	3	1	0	0	0	0	0	0	0	0	0	0	0	0	0	0	0	0	0	0	0	0	0	0	0	0	0	0	0	0	0	0	0	0	0	0	0	0	0	0	0	0	0	0	0	0	0	0	0	0	0	0	0	0	0	0	0	0	0	0	0	0	0	0	0	0	0	0	0	0	0	0	0	0	0	0	0	0	0	0	0	0	0	0	0	0	0	0	0	0	0	0	0	0	0	0	0	0	0	0	0	0	0	0	0	0	0	0	0	0	0	0	0	0	0	0	0	0	0	0	0	0	0	0	0	0	0	0	0	0	0	0	0	0	0	0	0	0	0	0	0	0	0	0	0	0	0	0	0	0	0	0	0	0	0	0	0	0	0	0	0	0	0	0	0	0	0	0	0	0	0	0	0	0	0	0	0	0	0	0	0	0	0	0	0	0	0	0	0	0	0	0	0	0	0	0	0	0	0	0	0	0	0	0	0	0	0	0	0	0	0	0	0	0	0	0	0	0	0	0	0	0	0	0	0	0	0	0	0	0	0	0	0	0	0	0	0	0	0	0	0	0	0	0	0	0	0	0	0	0
123	123	124	125	126	127	130	131	132	133	133	133	134	136	138	141	142	143	145	146	148	149	150	152	154	156	157	157	157	157	157	157	158	159	161	161	161	160	159	158	156	153	152	151	152	154	156	156	157	159	162	163	164	164	166	166	165	163	162	162	163	163	163	165	167	169	170	170	172	176	177	179	181	184	185	185	185	185	186	187	188	190	190	190	191	191	191	192	192	193	193	192	192	192	191	190	188	186	186	185	184	183	182	180	179	177	176	174	173	171	169	166	164	162	159	157	154	152	150	148	146	144	142	139	136	132	128	124	121	117	114	112	109	105	102	99	96	94	91	89	86	83	80	78	76	74	72	70	68	66	63	61	59	57	56	54	53	51	49	46	44	42	39	38	37	35	33	32	30	28	27	27	28	30	29	27	25	23	22	20	19	17	15	13	13	13	13	14	14	19	26	27	27	27	29	29	27	25	25	26	27	28	30	33	39	42	45	45	42	41	41	42	43	44	44	45	45	46	50	54	57	59	61	63	64	66	70	73	73	73	74	75	75	75	75	74	73	75	77	76	75	76	76	74	72	71	70	70	71	72	73	73	73	67	62	63	63	62	63	61	56	58	61	67	68	68	67	67	68	69	71	72	74	75	78	81	84	87	90	92	95	101	106	105	106	109	112	116	120	124	126	129	133	137	139	138	138	139	141	143	143	141	141	141	141	142	143	142	142	141	137	134	133	130	126	122	118	115	111	108	103	98	94	89	85	81	77	73	69	66	63	60	58	56	55	55	54	53	50	46	43	37	33	32	28	24	22	20	17	13	8	5	4	3	2	1	1	1	1	1	1	2	3	6	8	9	9	10	11	11	10	9	9	9	9	8	8	9	9	9	9	9	9	8	8	8	9	9	9	9	9	9	9	9	9	9	8	8	8	8	9	9	9	9	9	9	9	9	9	9	9	9	9	9	9	9	9	9	9	8	8	8	8	9	9	9	9	9	9	9	9	9	8	9	9	10	11	10	9	9	9	9	9	10	11	10	10	9	9	9	9	9	9	9	9	9	9	9	9	9	9	9	9	9	9	9	8	8	8	9	9	9	9	9	9	9	9	9	9	9	9	9	9	9	9	9	9	9	9	9	9	9	9	9	9	9	9	8	8	7	7	7	8	9	9	9	9	9	9	9	9	9	9	9	9	9	9	9	9	9	9	9	9	9	9	9	9	9	9	9	9	9	9	9	9	9	8	9	9	9	9	9	9	9	9	9	9	9	9	9	9	9	9	9	9	9	9	9	9	9	9	9	9	9	10	9	9	9	9	9	9	9	9	9	9	9	9	10	10	9	10	10	9	9	9	9	9	9	9	9	9	9	9	9	9	9	9	9	9	9	9	9	9	9	9	9	9	9	9	9	9	9	9	9	9	9	9	9	9	9	9	9	9	9	9	9	9	9	9	9	9	9	9	9	9	9	9	9	9	9	9	9	9	9	9	9	9	9	9	9	9	8	8	8	9	9	8	8	8	8	8	8	8	8	8	8	8	8	8	8	8	8	8	8	8	8	8	8	8	8	8	8	8	8	8	8	7	7	7	7	7	7	7	7	7	7	7	7	7	8	8	8	7	7	7	7	8	7	7	7	7	7	7	7	7	7	7	7	7	7	7	7	7	7	7	7	7	7	7	7	7	7	7	7	8	8	8	8	7	7	7	7	7	7	7	7	7	6	5	4	2	1	0	0	0	0	0	0	0	0	0	0	0	0	0	0	0	0	0	0	0	0	0	0	0	0	0	0	0	0	0	0	0	0	0	0	0	0	0	0	0	0	0	0	0	0	0	0	0	0	0	0	0	0	0	0	0	0	0	0	0	0	0	0	0	0	0	0	0	0	0	0	0	0	0	0	0	0	0	0	0	0	0	0	0	0	0	0	0	0	0	0	0	0	0	0	0	0	0	0	0	0	0	0	0	0	0	0	0	0	0	0	0	0	0	0	0	0	0	0	0	0	0	0	0	0	0	0	0	0	0	0	0	0	0	0	0	0	0	0	0	0	0	0	0	0	0	0	0	0	0	0	0	0	0	0	0	0	0	0	0	0	0	0	0	0	0	0	0	0	0	0	0	0	0	0	0	0	0	0	0	0	0	0	0	0	0	0	0	0	0	0	0	0	0	0	0	0	0	0	0	0	0	0	0	0	0	0	0	0	0	0	0	0	0	0	0	0	0	0	0	0	0	0	0	0	0	0	0	0	0	0	0	0	0	0	0	0	0	0	0	0	0	0	0	0	0	0	0	0
126	126	127	127	128	130	132	133	135	136	136	136	137	138	140	141	144	146	147	148	149	151	152	154	156	158	160	160	160	160	159	159	160	161	162	163	163	163	162	160	157	154	154	153	154	156	158	158	159	161	164	166	166	167	168	169	168	165	164	164	165	164	165	167	170	172	174	174	175	177	178	181	185	186	186	187	187	187	188	189	190	192	192	192	192	192	192	192	193	193	193	193	193	193	192	191	189	187	186	185	184	183	181	180	179	177	176	175	173	171	169	167	164	161	158	156	153	151	150	148	146	144	142	140	136	132	127	123	119	116	113	110	107	103	100	97	94	92	90	87	84	81	78	75	73	71	69	67	66	64	61	59	58	57	55	53	51	50	47	45	43	42	39	37	35	34	32	31	30	29	28	27	29	31	30	27	26	25	23	21	19	16	14	13	14	14	14	14	14	20	26	28	28	29	29	28	26	26	26	27	28	29	31	35	40	43	45	45	43	43	44	44	45	46	46	47	48	49	51	54	57	58	61	64	66	68	74	77	76	75	77	78	77	77	76	76	76	78	79	77	76	78	78	76	73	72	72	72	72	74	76	76	74	69	65	66	68	66	65	64	59	58	63	69	70	71	70	70	72	73	74	76	77	78	80	82	85	89	91	93	96	102	105	106	107	111	115	119	123	126	128	131	135	138	140	141	140	141	142	144	143	142	142	143	143	143	143	142	141	140	138	135	133	131	127	123	119	115	111	107	103	98	93	89	85	82	78	74	71	67	64	61	59	56	55	55	53	51	49	45	42	36	33	31	28	25	23	20	17	14	9	6	4	3	2	1	1	1	1	1	1	2	4	7	8	9	9	10	11	10	9	9	9	9	9	8	8	9	9	9	9	9	9	9	8	9	9	9	9	9	9	9	9	9	9	9	8	8	8	8	8	9	9	9	9	9	9	9	9	9	9	9	9	9	9	9	9	8	8	8	7	8	9	9	9	9	9	9	8	9	9	9	9	9	9	10	11	10	9	9	9	9	10	10	11	10	10	9	9	9	9	9	9	9	9	9	9	9	9	9	9	9	9	9	9	9	9	9	9	10	11	11	11	11	10	10	9	9	9	9	9	9	9	9	9	9	9	9	9	9	9	9	9	9	9	9	8	8	8	7	7	7	8	9	9	9	9	9	9	9	9	9	9	9	9	9	9	9	9	9	9	9	9	9	9	9	9	9	9	9	9	9	9	9	9	9	9	9	9	9	9	9	9	9	9	9	9	9	9	9	9	9	9	9	9	9	9	9	9	9	10	9	9	9	9	9	9	9	9	9	9	9	9	9	9	9	9	9	9	9	10	10	10	9	9	9	9	9	9	9	9	9	9	9	9	9	9	9	9	9	9	9	9	9	9	9	9	9	9	9	9	9	9	9	9	9	9	9	9	9	9	9	9	9	9	9	9	9	9	9	9	9	9	9	9	9	9	9	9	9	9	9	9	10	9	9	9	9	9	9	9	8	8	8	8	9	8	8	8	9	8	8	8	8	8	8	8	8	8	8	8	8	8	8	8	8	8	8	8	8	8	8	8	8	8	8	7	7	7	7	7	7	7	7	8	7	7	7	7	8	8	8	8	8	7	7	7	7	7	7	7	7	7	7	7	7	7	7	7	7	7	7	7	7	7	7	8	7	7	7	7	7	7	8	8	8	8	7	7	7	7	7	7	7	7	7	7	6	5	4	2	1	0	0	0	0	0	0	0	0	0	0	0	0	0	0	0	0	0	0	0	0	0	0	0	0	0	0	0	0	0	0	0	0	0	0	0	0	0	0	0	0	0	0	0	0	0	0	0	0	0	0	0	0	0	0	0	0	0	0	0	0	0	0	0	0	0	0	0	0	0	0	0	0	0	0	0	0	0	0	0	0	0	0	0	0	0	0	0	0	0	0	0	0	0	0	0	0	0	0	0	0	0	0	0	0	0	0	0	0	0	0	0	0	0	0	0	0	0	0	0	0	0	0	0	0	0	0	0	0	0	0	0	0	0	0	0	0	0	0	0	0	0	0	0	0	0	0	0	0	0	0	0	0	0	0	0	0	0	0	0	0	0	0	0	0	0	0	0	0	0	0	0	0	0	0	0	0	0	0	0	0	0	0	0	0	0	0	0	0	0	0	0	0	0	0	0	0	0	0	0	0	0	0	0	0	0	0	0	0	0	0	0	0	0	0	0	0	0	0	0	0	0	0	0	0	0	0	0	0	0	0	0	0	0	0	0	0	0	0	0	0	0	0	0	0	0	0	0	0
130	130	130	130	131	132	134	136	137	138	139	139	140	141	141	143	146	148	149	150	151	153	154	155	157	160	162	162	162	162	162	162	162	163	164	164	165	165	166	163	159	156	155	156	156	158	161	161	162	163	166	168	169	170	171	171	170	167	165	166	167	166	166	169	171	174	178	178	178	179	180	183	186	187	186	187	188	189	190	191	192	194	194	193	193	193	193	193	193	193	193	193	193	192	191	191	190	188	186	185	184	182	181	179	178	177	176	174	173	171	169	166	163	160	158	155	153	151	149	147	145	143	141	139	135	131	127	123	119	115	112	109	106	102	98	95	92	90	88	86	83	80	77	74	71	69	67	65	63	61	59	58	56	55	53	51	50	48	46	44	42	41	38	36	34	33	31	30	29	29	28	27	29	32	29	26	26	25	25	23	19	15	14	14	14	15	15	15	16	20	25	27	29	30	29	27	26	27	27	29	31	31	32	35	41	43	44	44	44	45	46	46	47	47	48	49	50	51	52	54	55	57	59	63	67	71	77	79	78	78	79	80	79	78	78	78	79	80	80	79	80	82	81	78	76	75	76	76	76	77	78	77	75	69	67	67	70	69	67	67	65	61	62	70	74	75	75	76	78	79	77	78	80	82	83	84	87	89	92	95	99	103	106	108	109	113	117	121	125	128	130	133	136	138	141	143	143	143	144	145	144	143	143	144	144	144	143	142	140	138	136	134	131	129	126	123	120	116	111	107	103	97	92	88	85	82	79	75	72	68	65	62	59	57	54	52	50	48	47	44	41	38	35	31	28	25	23	21	18	14	10	7	5	3	2	1	1	1	1	1	1	2	5	7	8	9	9	10	10	10	9	9	9	9	9	8	9	9	9	9	9	9	9	9	9	9	9	9	9	9	9	9	9	9	9	9	8	8	8	8	8	8	8	8	9	8	9	9	9	9	9	9	9	9	9	9	9	8	8	8	8	9	9	9	9	9	9	9	9	9	9	9	9	10	10	10	11	10	10	9	9	9	10	10	11	10	10	9	9	9	9	9	9	9	9	9	9	9	9	9	9	9	9	9	9	9	9	10	11	11	11	11	10	10	11	11	10	10	9	9	9	9	9	9	9	9	9	9	9	9	9	9	9	9	9	8	8	8	7	7	7	7	8	8	8	9	9	9	9	9	9	9	9	9	9	9	9	9	9	9	9	9	9	9	9	9	9	9	9	9	9	9	9	9	9	9	9	9	9	9	9	9	9	9	9	9	9	9	9	9	9	9	9	9	9	9	9	9	9	10	10	10	9	9	9	9	9	9	9	9	9	9	9	9	9	9	9	9	9	9	10	10	10	9	9	9	9	9	9	9	9	9	9	9	9	9	9	9	9	9	9	9	9	9	9	9	9	9	9	9	9	9	9	9	9	9	9	9	9	9	9	9	9	9	9	9	9	9	9	9	9	9	9	9	9	9	9	9	9	9	9	9	10	10	10	9	9	9	9	9	9	9	8	8	8	8	8	8	9	9	8	8	8	8	8	8	8	8	8	8	8	8	8	8	8	8	8	8	8	8	8	8	8	8	8	7	7	7	7	7	7	7	7	7	8	8	8	7	8	8	8	8	8	8	7	7	7	7	7	7	7	7	7	7	7	7	7	7	7	7	7	7	7	7	7	7	8	8	8	7	7	7	7	8	8	8	7	7	7	7	7	7	7	7	7	7	7	6	5	4	2	1	0	0	0	0	0	0	0	0	0	0	0	0	0	0	0	0	0	0	0	0	0	0	0	0	0	0	0	0	0	0	0	0	0	0	0	0	0	0	0	0	0	0	0	0	0	0	0	0	0	0	0	0	0	0	0	0	0	0	0	0	0	0	0	0	0	0	0	0	0	0	0	0	0	0	0	0	0	0	0	0	0	0	0	0	0	0	0	0	0	0	0	0	0	0	0	0	0	0	0	0	0	0	0	0	0	0	0	0	0	0	0	0	0	0	0	0	0	0	0	0	0	0	0	0	0	0	0	0	0	0	0	0	0	0	0	0	0	0	0	0	0	0	0	0	0	0	0	0	0	0	0	0	0	0	0	0	0	0	0	0	0	0	0	0	0	0	0	0	0	0	0	0	0	0	0	0	0	0	0	0	0	0	0	0	0	0	0	0	0	0	0	0	0	0	0	0	0	0	0	0	0	0	0	0	0	0	0	0	0	0	0	0	0	0	0	0	0	0	0	0	0	0	0	0	0	0	0	0	0	0	0	0	0	0	0	0	0	0	0	0	0	0	0	0	0	0	0	0
133	133	133	133	134	135	136	138	140	141	142	142	143	144	144	145	147	150	151	152	154	155	156	157	159	163	166	165	163	164	164	164	165	165	165	166	166	167	167	165	162	159	158	158	158	159	162	163	164	166	169	171	172	173	173	172	170	168	167	168	170	169	168	171	173	175	179	180	181	181	183	185	188	188	188	190	191	191	192	193	194	194	194	194	194	193	193	193	193	193	193	194	193	192	191	190	190	189	187	185	183	181	179	178	177	176	174	173	172	170	168	165	163	160	157	155	152	150	148	146	144	142	140	137	133	129	126	122	118	115	112	109	105	101	98	94	90	88	87	84	82	80	76	73	70	67	65	63	61	59	57	55	54	52	51	50	48	47	44	42	41	39	37	35	33	32	31	29	28	28	28	27	28	28	26	25	25	26	25	23	19	15	14	14	15	15	15	16	18	21	25	28	30	31	29	27	27	28	29	31	34	34	34	36	39	41	43	44	45	46	47	48	49	49	50	51	53	53	54	55	55	56	58	62	69	74	77	80	81	79	80	81	81	81	81	81	81	81	81	81	83	83	82	79	78	78	79	82	81	81	80	78	74	70	68	68	71	72	70	69	67	63	62	68	74	76	78	80	83	84	82	81	82	84	86	88	89	91	94	97	103	107	108	109	112	115	119	123	126	128	130	132	135	138	141	145	146	146	147	147	145	143	144	145	146	146	144	141	139	136	134	132	129	127	125	123	119	115	111	107	103	97	92	88	84	81	78	75	71	68	65	62	59	56	54	51	49	46	44	42	40	39	37	32	28	26	23	21	18	14	10	7	5	3	2	1	1	1	1	1	1	3	5	8	9	9	10	10	10	10	9	9	9	9	9	8	9	9	9	9	9	9	8	8	8	9	9	9	9	9	9	9	9	9	9	9	8	8	8	8	8	8	8	8	8	8	8	9	8	8	8	8	8	8	8	8	9	9	9	9	9	9	9	9	9	9	9	9	9	9	9	9	9	10	11	11	11	11	10	10	10	10	10	11	11	10	10	9	9	9	9	9	9	9	9	9	9	9	9	9	9	9	9	9	9	9	10	11	11	11	10	9	9	9	10	11	11	10	9	9	8	9	9	9	9	9	9	9	9	9	9	9	9	9	9	8	8	7	7	7	6	7	7	8	8	9	9	9	9	9	9	9	9	9	9	9	9	9	9	9	9	9	9	9	9	9	9	9	9	9	9	9	9	9	9	8	9	9	9	9	9	9	9	9	9	9	9	9	9	9	9	9	9	9	9	9	9	9	10	10	10	10	9	9	9	9	9	9	9	9	9	9	9	9	9	9	9	9	9	9	9	9	9	9	9	9	9	9	9	9	8	9	9	9	10	10	9	9	9	9	9	9	9	9	9	9	9	9	9	9	9	9	9	9	9	9	9	9	9	9	9	9	9	9	9	9	9	9	9	9	9	9	9	9	9	9	9	9	9	9	9	9	9	10	10	9	9	9	9	9	9	9	8	8	8	8	8	9	9	9	8	8	8	8	8	9	8	8	8	8	8	8	8	8	8	8	8	8	8	8	8	8	8	8	8	7	7	7	7	7	7	7	7	8	8	8	8	7	8	8	8	8	8	8	7	7	7	7	7	7	7	7	7	7	7	7	7	7	7	7	7	7	7	7	7	8	8	8	8	8	8	7	7	8	8	8	7	7	7	7	7	7	7	7	7	7	7	6	5	3	2	0	0	0	0	0	0	0	0	0	0	0	0	0	0	0	0	0	0	0	0	0	0	0	0	0	0	0	0	0	0	0	0	0	0	0	0	0	0	0	0	0	0	0	0	0	0	0	0	0	0	0	0	0	0	0	0	0	0	0	0	0	0	0	0	0	0	0	0	0	0	0	0	0	0	0	0	0	0	0	0	0	0	0	0	0	0	0	0	0	0	0	0	0	0	0	0	0	0	0	0	0	0	0	0	0	0	0	0	0	0	0	0	0	0	0	0	0	0	0	0	0	0	0	0	0	0	0	0	0	0	0	0	0	0	0	0	0	0	0	0	0	0	0	0	0	0	0	0	0	0	0	0	0	0	0	0	0	0	0	0	0	0	0	0	0	0	0	0	0	0	0	0	0	0	0	0	0	0	0	0	0	0	0	0	0	0	0	0	0	0	0	0	0	0	0	0	0	0	0	0	0	0	0	0	0	0	0	0	0	0	0	0	0	0	0	0	0	0	0	0	0	0	0	0	0	0	0	0	0	0	0	0	0	0	0	0	0	0	0	0	0	0	0	0	0	0	0	0	0
