0	0	0	0	0	0	0	0	0	0	0	0	0	0	0	0	0	0	0	0	0	0	0	0	0	0	0	0	0	0	0	0	0	0	0	0	0	0	0	0	0	0	0	0	0	0	1	2	6	9	10	11	11	11	11	10	11	11	12	16	20	21	25	28	31	34	37	38	35	31	33	42	47	48	47	47	50	51	51	49	46	39	30	36	40	40	40	42	42	39	37	37	35	33	32	34	37	37	37	37	37	37	36	38	42	44	47	50	51	52	52	52	51	50	50	50	50	49	49	49	48	48	48	48	49	49	49	49	48	49	49	49	49	49	49	49	50	50	51	51	51	50	49	49	48	48	49	48	45	43	41	39	37	34	32	34	35	36	37	38	39	40	41	43	45	47	48	49	50	50	51	51	52	53	54	55	56	56	57	57	58	55	54	54	54	56	57	56	55	54	54	53	52	52	50	48	47	46	45	44	44	42	41	39	36	33	31	31	32	34	36	38	40	42	43	42	40	38	30	21	19	19	19	19	19	19	19	19	19	19	19	19	19	19	19	20	21	23	25	29	32	33	30	27	25	24	22	21	19	18	16	14	13	13	13	14	16	18	19	19	20	20	17	16	19	25	35	40	41	41	41	41	41	41	41	42	41	41	41	41	40	37	36	40	47	50	50	51	55	62	63	63	62	63	68	76	83	85	86	86	84	81	80	80	79	79	80	80	80	80	80	80	80	80	80	80	80	81	82	83	83	90	101	103	103	100	99	104	106	108	117	118	117	117	117	117	117	117	118	122	128	124	122	121	124	127	133	138	139	140	143	147	150	151	153	153	153	154	156	157	158	157	157	158	159	162	164	167	169	172	174	176	179	182	185	189	193	196	198	202	205	206	206	208	211	213	215	218	221	224	226	228	231	234	235	236	236	235	233	231	229	226	224	222	221	214	207	208	208	204	202	202	201	200	198	194	191	191	192	191	188	189	188	183	180	178	177	174	168	162	156	152	148	145	143	141	139	137	136	134	133	133	132	131	131	130	130	130	131	133	135	137	139	142	143	144	144	144	144	144	144	144	144	144	144	144	144	144	144	144	145	147	149	150	150	151	152	153	155	157	157	156	154	152	153	157	161	163	163	162	156	148	145	144	143	143	143	143	143	143	143	143	143	143	143	143	143	143	143	143	143	143	143	143	143	143	143	143	143	143	143	143	143	143	144	148	153	156	157	158	159	160	161	161	161	160	159	160	161	162	164	167	169	172	175	177	180	181	182	182	181	180	179	178	178	177	176	176	176	175	174	174	174	174	174	174	175	176	176	177	177	178	179	180	181	182	183	184	184	185	186	188	189	190	192	194	196	198	200	201	202	204	205	202	204	209	213	218	220	221	222	223	223	224	225	226	227	227	226	225	225	224	222	221	221	220	220	219	218	216	215	213	212	212	212	211	209	207	205	205	204	203	200	196	192	187	183	179	176	173	170	168	165	162	159	158	157	156	154	149	144	140	139	139	139	139	139	139	139	139	139	139	139	139	139	139	140	140	137	132	125	122	120	120	121	121	121	121	121	121	121	121	121	121	121	121	121	121	121	121	121	121	121	121	121	121	120	120	120	120	119	119	118	117	115	113	111	109	108	108	108	108	108	109	109	105	97	94	94	94	93	93	93	93	92	91	89	86	84	84	84	83	82	80	79	78	78	78	78	77	77	76	75	73	70	68	67	67	67	67	67	67	66	66	66	66	66	65	63	62	60	58	56	56	58	59	60	60	59	59	59	59	58	58	57	56	56	56	56	57	57	57	56	56	55	53	50	50	50	50	50	49	47	46	45	42	38	37	37	36	32	27	25	25	24	24	24	24	24	23	23	23	23	22	22	22	22	22	21	20	18	17	16	16	17	17	18	18	18	18	18	16	13	10	9	9	8	8	7	7	7	7	7	7	7	7	7	7	7	7	7	7	7	7	7	7	7	7	7	7	7	6	6	6	6	5	5	5	5	5	5	5	5	5	5	5	5	5	5	4	4	5	5	4	5	5	5	5	5	5	5	5	5	5	6	7	6	6	6	6	6	6	6	5	5	5	5	5	5	5	5	5	5	5	5	5	5	5	6	6	6	6	6	6	6	6	6	6	6	6	6	7	6	7	7	7	7	7	7	7	7	7	7	7	7	7	7	7	7	7	6	6	7	7	7	7	7	7	7	7	7	7	8	8	8	8	7	7	6	7	7	7	7	7	7	6	7	7	7	6	6	6	6	6	6	6	6	6	6	6	6	6	6	6	6	6	6	6	6	6
0	0	0	0	0	0	0	0	0	0	0	0	0	0	0	0	0	0	0	0	0	0	0	0	0	0	0	0	0	0	0	0	0	0	0	0	0	0	0	0	0	0	0	0	0	0	0	0	1	5	9	10	11	11	11	11	11	11	11	11	12	18	22	24	28	33	37	37	35	33	32	34	36	36	35	37	43	46	47	46	43	34	28	32	39	38	39	41	41	37	31	30	30	30	32	35	36	36	35	33	34	36	36	36	39	42	45	47	49	49	50	50	50	48	47	47	47	47	47	47	47	47	46	47	47	47	47	47	47	47	47	47	47	47	47	48	48	48	48	49	49	48	48	47	47	47	47	46	44	41	39	36	32	28	27	29	32	34	35	36	37	38	40	42	44	45	46	47	48	48	49	50	51	51	51	53	54	54	54	55	53	51	52	52	52	52	52	52	51	51	52	52	51	49	48	46	44	43	43	43	42	41	40	38	35	32	29	26	27	30	33	35	37	39	40	39	37	35	27	20	19	19	19	19	19	19	19	19	18	18	18	18	18	17	17	16	17	19	22	24	26	25	23	22	21	20	19	18	16	15	15	14	14	13	13	13	14	15	15	15	19	24	21	19	26	30	37	41	41	41	41	41	41	41	43	44	42	41	41	41	40	38	36	38	54	62	62	60	60	62	62	62	62	62	65	75	84	85	85	86	84	80	79	80	79	79	80	80	80	80	80	80	80	80	80	80	80	81	82	83	83	85	98	103	103	102	101	104	109	114	117	117	117	117	117	117	117	121	128	133	132	125	123	121	122	126	130	135	138	140	144	147	150	151	152	152	152	153	155	157	158	157	156	157	158	160	162	165	168	170	172	174	176	180	184	190	194	196	198	201	204	204	205	207	210	212	214	216	219	223	226	227	229	232	234	235	234	233	231	230	229	227	224	221	219	213	208	209	209	204	202	201	200	197	195	192	189	189	190	189	187	187	186	182	179	177	174	170	165	160	154	150	146	143	141	139	137	135	134	133	132	131	131	130	129	129	129	130	131	132	134	137	140	142	144	144	144	144	144	144	144	144	144	144	144	144	144	144	144	144	144	144	146	147	149	150	150	150	152	153	155	156	154	151	150	149	151	153	153	152	147	145	144	143	143	143	143	143	143	143	143	143	143	143	143	143	143	142	142	142	143	143	143	143	143	143	143	143	143	143	143	143	143	143	145	148	152	154	155	156	157	158	158	158	158	156	155	154	156	158	160	163	166	168	170	173	175	178	180	180	179	177	176	175	174	174	173	173	172	171	170	169	169	169	169	167	168	169	170	171	173	174	175	176	177	178	179	180	181	182	183	184	185	185	187	189	191	193	195	197	199	200	199	198	201	206	210	214	216	218	219	219	221	223	223	222	223	224	223	223	222	221	219	219	218	218	218	217	216	215	214	212	210	209	209	209	207	205	202	201	201	199	196	193	190	186	182	177	173	171	168	164	161	159	157	157	157	156	156	153	148	141	139	139	139	139	139	139	139	139	139	139	139	139	139	139	138	135	129	123	121	120	121	121	121	121	122	122	122	122	122	122	122	122	122	122	122	122	122	122	122	121	121	121	121	121	121	120	120	120	119	118	116	113	111	109	108	108	108	108	108	108	108	108	107	101	95	94	94	94	93	93	93	93	93	92	89	86	84	84	84	82	80	79	78	78	78	78	77	77	75	73	72	70	68	67	67	67	67	67	67	67	66	66	66	66	65	64	62	61	58	56	56	56	57	58	59	59	58	58	58	58	57	56	56	56	57	57	57	57	56	56	55	53	52	50	50	50	50	50	50	50	48	46	45	43	39	37	36	36	31	26	24	24	24	24	24	24	23	23	23	23	22	22	22	22	22	22	20	18	17	16	16	16	16	17	17	17	17	17	17	15	12	10	9	9	8	8	7	7	7	7	7	7	7	7	7	7	7	7	7	7	7	7	7	7	7	7	7	7	6	6	6	6	5	5	5	5	5	5	5	5	5	5	5	5	5	5	5	5	5	6	6	5	5	5	5	5	5	5	5	5	5	5	7	8	7	6	6	6	6	6	7	6	5	5	5	5	5	5	5	5	5	5	5	5	5	5	6	6	6	6	6	6	6	6	6	6	6	6	6	6	6	7	6	7	7	7	7	7	7	6	6	6	6	6	6	6	6	7	6	6	6	7	7	7	7	7	7	7	7	7	8	8	8	8	7	7	7	7	7	7	7	7	7	7	7	7	7	6	6	6	6	6	6	6	6	6	6	6	6	6	6	6	6	6	6	6	6	6
0	0	0	0	0	0	0	0	0	0	0	0	0	0	0	0	0	0	0	0	0	0	0	0	0	0	0	0	0	0	0	0	0	0	0	0	0	0	0	0	0	0	0	0	0	0	0	0	0	1	5	8	10	11	11	10	11	11	11	10	11	15	19	21	24	33	35	36	35	33	32	32	32	30	30	30	31	37	40	40	35	28	27	28	32	31	34	34	32	30	26	25	24	27	33	36	37	36	35	32	32	34	36	36	36	38	41	46	47	48	48	48	48	47	46	45	45	45	45	45	45	45	45	45	46	46	46	45	45	45	46	46	46	46	46	46	46	47	47	47	48	48	47	47	46	46	46	44	42	39	35	31	28	27	27	27	29	31	32	33	34	36	39	40	42	43	44	45	46	46	47	49	49	49	49	50	52	53	53	51	49	49	50	50	50	50	50	49	49	49	50	50	49	47	46	44	42	41	41	41	40	39	39	37	34	31	28	25	26	29	31	33	35	37	37	36	35	33	25	19	19	19	19	19	19	19	19	18	18	18	18	18	17	16	15	14	13	13	14	14	15	15	15	16	16	16	16	15	15	14	14	14	14	14	13	13	13	13	14	15	22	28	26	21	23	27	36	40	41	41	41	41	41	41	43	45	43	41	41	41	41	39	37	38	54	62	61	61	61	62	62	62	62	62	64	74	83	84	84	83	82	80	80	80	79	80	80	80	80	80	80	80	80	80	80	81	81	81	81	82	82	84	95	102	104	104	105	111	116	117	117	117	117	117	117	117	120	129	134	135	131	126	124	123	123	126	129	133	136	138	142	145	145	145	145	148	149	151	153	155	157	157	155	155	156	158	160	163	166	168	170	172	175	179	183	187	191	194	197	200	202	203	204	206	209	211	214	216	218	221	225	227	228	230	232	233	233	231	229	229	228	226	223	220	216	213	210	209	205	202	201	199	196	194	191	190	189	188	187	187	186	185	183	179	178	176	171	166	161	158	154	149	146	142	140	138	136	134	133	131	130	130	129	128	128	127	128	129	130	132	134	137	140	142	144	144	144	144	144	144	144	144	144	144	144	144	144	144	144	144	144	144	144	145	146	147	148	149	149	150	151	152	151	150	149	147	147	147	147	146	145	145	144	143	143	143	143	143	143	143	143	143	143	143	143	143	143	142	142	142	142	143	143	143	143	143	143	143	143	143	143	143	143	143	145	148	150	151	152	153	154	155	155	155	154	153	151	150	151	153	157	160	162	164	166	168	170	172	173	174	174	172	171	171	171	170	170	169	168	167	167	166	166	166	164	160	159	160	161	162	164	166	168	170	172	174	175	177	178	178	179	180	181	182	183	185	187	189	190	193	195	196	195	197	201	205	208	210	213	215	216	216	217	219	219	218	219	220	220	221	220	219	218	217	216	216	216	215	215	214	213	211	209	207	207	206	205	202	199	197	197	195	193	191	188	185	180	175	171	168	164	160	158	157	156	156	156	156	155	151	146	141	139	139	139	139	139	139	139	138	138	138	139	139	139	137	132	126	121	120	120	121	121	121	121	122	122	122	122	122	122	122	122	122	122	122	122	122	122	122	122	122	122	122	122	121	121	120	120	119	117	114	111	109	108	108	107	107	107	107	107	107	107	107	105	97	94	94	94	93	93	93	93	93	93	92	90	87	84	84	83	81	79	78	78	78	78	77	77	75	73	71	69	68	67	67	67	67	67	67	67	67	66	66	65	65	64	63	61	59	57	56	56	56	56	57	58	58	58	57	57	57	56	56	56	56	56	56	56	56	55	54	52	51	50	50	50	50	50	50	50	50	49	46	45	43	40	37	36	35	30	25	24	24	24	24	24	24	23	23	23	23	22	22	22	22	22	21	19	17	16	16	16	16	16	16	17	17	17	17	17	15	13	10	9	9	8	8	8	7	7	7	7	7	7	7	7	7	7	7	7	7	7	7	7	7	7	7	7	6	6	6	6	6	5	5	5	5	5	5	5	5	5	5	5	5	5	5	5	5	5	6	6	5	5	5	5	5	5	5	5	5	5	5	7	8	7	6	6	6	6	6	7	6	5	5	5	5	5	5	5	5	5	5	5	5	5	5	6	6	6	6	6	6	6	6	6	6	6	6	6	6	6	7	6	6	7	7	7	7	6	6	6	6	6	7	6	6	6	6	6	6	6	6	7	6	7	7	7	7	7	7	7	8	8	8	7	7	7	7	7	7	8	7	7	7	7	7	7	6	6	6	6	6	6	6	6	6	6	6	6	6	6	6	6	6	6	6	6	6
0	0	0	0	0	0	0	0	0	0	0	0	0	0	0	0	0	0	0	0	0	0	0	0	0	0	0	0	0	0	0	0	0	0	0	0	0	0	0	0	0	0	0	0	0	0	0	0	0	0	2	5	9	10	11	11	11	11	11	11	11	11	15	16	19	29	34	34	32	30	30	32	32	30	30	30	30	30	30	29	28	28	28	27	27	28	27	24	23	23	23	23	23	27	34	36	37	37	37	35	34	34	34	35	36	36	38	45	46	46	46	46	47	46	45	44	44	44	44	44	44	44	44	44	45	45	44	44	44	44	45	45	45	45	45	45	45	45	46	46	46	46	47	46	46	45	44	42	39	35	30	28	27	27	27	27	27	28	30	31	32	34	36	38	40	41	42	43	44	45	46	47	47	47	48	49	50	51	49	47	48	48	48	48	49	49	49	48	47	47	49	49	47	46	44	43	41	39	39	40	39	39	39	37	33	30	27	25	26	28	30	32	33	34	34	33	32	30	23	18	18	18	18	18	18	18	18	18	18	18	18	18	17	16	14	14	13	13	13	13	13	13	14	14	14	14	14	14	14	14	14	14	14	14	13	13	13	13	13	14	16	19	18	15	17	22	27	36	38	39	41	41	41	41	42	43	42	41	41	41	41	39	38	39	54	61	61	62	62	62	62	62	62	62	63	71	81	82	82	80	79	79	79	80	80	80	81	80	80	80	80	81	81	81	81	81	81	81	81	82	82	84	92	98	104	108	110	115	117	117	117	117	117	117	118	119	122	128	132	131	129	127	126	125	124	127	129	132	135	135	137	139	140	140	141	144	146	148	150	152	154	155	154	154	154	156	158	161	164	166	169	172	174	180	183	185	188	191	195	198	200	201	203	205	208	211	214	216	218	220	223	225	227	228	229	230	230	229	228	228	226	223	220	218	215	212	210	207	203	201	199	195	191	188	187	188	188	187	184	183	183	182	179	177	177	174	167	163	160	158	153	148	144	140	138	136	134	132	131	130	129	128	127	127	126	126	126	127	129	131	134	136	139	142	144	144	144	144	144	144	144	144	144	144	144	144	144	144	144	144	144	144	144	144	144	145	146	147	148	149	148	148	148	148	147	147	146	145	145	145	145	145	144	144	143	143	143	143	143	143	143	143	143	143	143	142	142	142	142	142	143	143	143	143	143	143	143	143	143	143	143	143	143	143	144	146	148	149	149	150	151	152	152	152	151	149	148	147	147	150	153	156	159	161	163	165	166	167	168	168	169	169	168	168	168	168	167	167	166	165	164	164	164	163	161	157	155	155	155	156	156	157	159	162	165	167	170	173	174	175	176	177	178	179	180	182	184	186	187	189	192	193	194	196	201	207	208	208	210	210	210	210	211	214	216	215	216	217	218	218	218	217	217	216	215	214	214	213	213	213	211	210	208	206	206	204	202	199	197	195	193	192	190	189	186	182	175	171	167	163	160	158	156	156	156	156	155	154	150	145	141	139	139	139	139	139	139	139	138	138	138	138	138	138	134	128	123	121	120	121	121	121	121	121	122	122	122	122	122	122	122	123	122	122	122	122	122	122	122	122	122	122	122	122	122	121	121	120	118	115	112	109	108	108	107	107	107	107	107	107	107	107	107	106	100	95	94	94	93	93	93	93	93	93	93	92	90	87	84	83	81	80	79	79	78	78	78	77	75	73	71	69	68	68	68	68	67	67	67	67	67	67	66	66	65	64	64	62	60	58	56	56	56	56	56	56	57	57	57	56	56	56	56	56	56	56	55	55	55	54	53	52	50	50	50	50	50	50	50	50	50	50	49	47	45	43	41	38	37	35	30	25	24	24	24	24	24	23	23	23	23	22	22	22	22	22	21	20	18	16	16	16	16	16	16	16	16	16	16	16	16	16	14	11	9	9	8	8	8	8	7	7	7	7	7	7	7	7	7	7	7	7	7	7	7	7	7	7	7	6	6	6	6	5	5	5	5	5	5	5	5	5	5	5	5	5	5	5	5	5	5	5	5	5	5	5	5	5	5	5	5	5	5	5	6	7	6	6	6	6	6	6	6	6	6	6	6	5	5	5	5	5	5	5	5	5	5	5	5	6	6	6	6	6	6	6	7	6	6	6	6	6	6	6	6	6	7	7	7	7	6	6	6	6	6	6	6	6	6	6	6	6	6	6	6	7	6	7	7	7	7	7	7	7	8	8	7	7	7	7	7	8	7	7	7	7	7	7	7	6	6	6	6	6	6	6	6	6	6	6	6	6	6	6	6	6	6	6	6	6
0	0	0	0	0	0	0	0	0	0	0	0	0	0	0	0	0	0	0	0	0	0	0	0	0	0	0	0	0	0	0	0	0	0	0	0	0	0	0	0	0	0	0	0	0	0	0	0	0	0	0	3	5	8	10	11	11	10	11	11	11	11	11	11	13	20	24	29	28	26	26	28	28	28	29	31	32	31	29	28	28	30	29	28	28	28	24	22	22	22	22	22	22	25	31	35	36	36	37	37	37	35	33	33	34	35	36	44	46	45	45	45	45	45	45	44	44	43	43	43	43	43	43	43	43	43	43	43	43	43	44	44	43	43	44	44	44	44	45	45	45	45	45	45	45	45	43	39	35	30	28	27	27	27	27	27	27	27	28	29	30	32	34	36	38	39	40	41	42	43	44	45	45	45	46	48	48	47	46	46	47	47	47	47	47	47	47	47	46	47	47	47	45	44	43	41	40	39	39	39	39	39	38	36	33	30	27	25	26	27	28	30	31	32	31	31	30	28	21	18	18	18	18	18	18	18	18	18	18	18	18	17	16	15	14	13	13	13	13	13	13	13	14	14	14	14	14	14	14	14	14	13	13	13	13	13	13	13	13	14	13	13	13	13	14	16	16	19	20	27	37	40	41	42	42	41	39	39	41	40	40	40	38	39	52	61	62	62	62	62	62	62	62	62	62	66	78	82	82	79	77	78	78	79	80	81	82	81	80	80	81	81	81	81	81	81	81	81	81	81	82	82	86	93	99	107	111	114	117	117	117	117	117	118	119	119	122	124	125	125	124	124	124	123	122	126	129	131	133	133	134	135	136	136	137	140	143	145	146	147	149	151	153	154	155	156	157	161	164	166	169	172	175	181	183	184	187	190	193	196	198	200	202	205	206	209	213	215	217	218	220	223	224	225	226	227	227	227	226	225	223	220	218	217	214	211	208	205	201	200	198	194	189	185	185	186	187	184	180	178	178	178	176	175	174	171	166	162	160	157	152	145	141	139	136	134	132	130	129	128	127	126	126	125	125	124	125	126	128	130	133	136	139	141	143	144	144	144	144	144	144	144	144	144	144	144	144	144	144	144	144	144	144	144	144	144	144	145	146	147	148	147	147	147	147	146	146	145	145	145	145	145	144	144	143	143	143	143	143	143	143	142	142	142	142	142	142	142	142	142	142	143	143	143	143	143	143	143	143	143	143	143	143	143	144	144	145	146	147	148	149	149	149	148	148	147	146	146	146	147	149	152	155	157	160	162	164	164	165	165	166	166	166	166	166	166	165	164	163	162	161	161	161	160	157	155	155	155	155	155	155	155	155	156	157	159	162	165	168	171	173	174	176	177	178	179	181	183	185	187	189	191	194	196	199	204	207	208	207	205	205	206	207	211	212	212	212	214	214	215	215	215	215	215	214	213	212	212	211	210	209	207	206	204	204	202	199	196	194	192	190	188	185	183	179	174	167	163	161	159	157	156	156	156	156	155	152	149	144	141	139	139	139	139	139	139	139	138	138	138	138	138	136	131	125	122	120	120	120	121	121	121	121	122	122	122	122	122	123	123	123	123	123	123	123	123	123	123	122	122	122	122	122	122	122	121	119	116	113	110	108	107	107	107	107	107	107	107	107	106	106	106	106	101	96	94	93	93	93	93	93	93	93	93	92	91	90	88	84	81	80	79	79	79	78	78	77	75	73	71	70	68	68	68	68	68	68	68	67	65	66	66	66	65	65	64	63	61	59	57	56	56	56	56	56	56	56	56	56	56	56	56	56	56	55	54	53	53	53	53	52	51	51	50	50	50	50	50	50	50	50	50	50	48	45	44	42	38	37	35	30	25	24	24	24	24	24	23	23	23	23	22	22	22	22	22	21	18	16	16	16	16	16	16	16	16	16	15	14	14	15	15	14	12	9	9	8	8	8	8	8	7	7	7	7	7	7	7	7	7	7	7	7	7	7	7	7	7	6	6	6	6	5	5	5	5	5	5	5	5	5	5	5	5	5	5	5	5	5	5	5	5	5	5	5	5	5	5	5	5	5	5	5	5	5	6	6	6	6	7	7	6	6	6	6	7	6	6	5	5	5	5	5	5	5	5	5	5	5	6	6	6	6	6	7	7	7	7	7	6	6	5	6	6	6	6	6	6	7	6	6	6	6	6	6	6	6	6	6	6	6	6	6	6	6	6	6	6	6	6	6	7	7	7	7	8	7	7	7	7	7	8	8	7	7	7	7	7	7	6	6	6	6	6	6	6	6	6	6	6	6	6	6	6	6	6	6	6	6	6
0	0	0	0	0	0	0	0	0	0	0	0	0	0	0	0	0	0	0	0	0	0	0	0	0	0	0	0	0	0	0	0	0	0	0	0	0	0	0	0	0	0	0	0	0	0	0	0	0	0	0	1	3	5	9	10	10	10	10	11	11	10	10	10	11	12	13	19	19	20	22	23	24	27	29	30	32	32	29	28	29	31	30	28	28	27	23	22	22	22	22	22	22	22	25	30	30	29	33	36	36	36	34	34	37	37	38	44	45	45	44	44	44	44	44	44	43	43	42	42	41	41	41	41	41	41	41	40	40	40	41	41	41	40	41	41	41	41	41	42	42	42	43	43	44	43	39	34	30	28	27	27	27	27	27	27	27	27	27	28	29	31	33	35	37	38	39	40	41	41	42	43	43	44	45	45	44	44	44	44	45	45	46	46	46	46	45	45	45	45	46	45	43	42	41	40	39	38	39	39	39	39	38	35	32	29	26	25	25	26	27	28	29	29	29	28	28	26	19	18	18	18	18	18	18	18	18	18	18	18	18	17	16	14	14	13	13	13	13	13	13	13	14	14	14	14	14	14	14	14	13	13	13	13	13	12	13	13	13	13	13	13	12	12	12	13	13	13	13	16	24	33	36	38	40	38	36	36	40	41	41	41	39	39	51	61	62	62	62	62	62	62	62	62	62	63	76	83	81	79	77	77	78	78	79	81	82	81	81	80	81	81	81	81	81	81	81	81	81	81	82	82	82	87	95	104	110	110	113	117	117	116	115	118	119	118	120	121	122	121	119	120	120	119	121	125	127	128	130	131	132	133	133	134	134	137	140	142	142	144	146	148	151	155	156	156	158	161	164	165	168	172	176	180	180	182	186	189	192	195	197	199	201	203	206	208	211	214	215	217	218	220	222	223	223	223	223	224	223	221	220	219	218	216	213	208	204	201	199	198	196	193	189	185	184	184	184	181	177	174	174	174	174	172	170	167	164	161	159	155	148	142	139	137	134	131	129	128	127	126	125	125	124	123	123	123	124	125	127	130	133	135	138	140	142	143	143	144	144	144	144	144	144	144	144	144	144	144	144	144	144	144	144	144	144	144	144	144	144	145	146	146	146	146	146	146	145	145	145	145	145	145	144	144	143	143	143	143	143	143	143	142	142	142	142	142	142	141	141	141	141	142	142	143	143	143	143	143	143	143	143	143	143	143	143	143	144	144	145	145	146	146	146	146	146	146	146	146	146	146	147	149	152	155	157	160	161	162	162	163	164	164	164	164	164	164	163	162	161	160	159	158	158	157	155	155	155	155	155	155	155	155	154	154	155	155	156	157	160	164	167	170	172	174	176	177	178	180	182	184	186	188	191	193	196	199	203	204	204	203	203	204	205	207	208	209	210	212	212	211	211	212	212	212	212	211	211	210	208	207	206	204	203	202	200	198	195	193	190	186	183	179	175	170	166	161	155	154	156	157	156	156	156	155	153	151	147	143	140	139	139	139	139	138	138	138	138	138	138	138	137	134	129	123	121	120	120	121	121	121	121	121	122	122	122	122	122	123	123	123	123	123	123	123	123	123	123	123	123	123	123	122	122	122	120	118	115	111	109	107	107	107	107	107	107	106	106	106	106	106	106	105	102	96	94	93	93	93	93	93	93	93	92	92	91	90	89	88	85	81	79	79	79	78	78	76	75	73	71	70	68	68	68	68	68	68	68	67	64	61	63	65	65	65	65	64	62	59	57	56	55	55	55	55	55	55	56	56	56	56	56	55	55	54	53	53	52	52	52	52	51	51	50	50	50	50	50	50	49	49	49	50	50	49	46	44	42	39	37	36	30	25	24	24	24	24	23	23	23	23	22	22	22	22	22	21	19	17	15	15	16	15	15	15	16	15	15	14	13	13	14	14	14	13	10	9	9	8	8	8	8	8	7	7	7	7	7	7	7	7	7	7	7	7	7	7	7	6	6	6	6	5	5	5	5	5	5	5	5	5	5	5	5	5	5	5	5	5	5	5	5	5	5	5	5	5	5	5	5	5	5	5	5	5	5	6	7	7	7	7	7	7	7	6	6	7	7	6	5	5	5	5	5	5	5	5	5	5	5	6	6	6	6	6	7	7	7	7	6	5	5	5	5	5	5	6	6	6	6	6	6	6	6	6	6	6	6	6	6	6	6	6	6	6	6	6	7	7	6	7	6	6	8	8	8	8	8	8	7	7	7	7	7	7	7	7	7	7	6	6	6	6	6	6	6	6	6	6	6	6	6	6	6	6	6	6	6	6	6	6
0	0	0	0	0	0	0	0	0	0	0	0	0	0	0	0	0	0	0	0	0	0	0	0	0	0	0	0	0	0	0	0	0	0	0	0	0	0	0	0	0	0	0	0	0	0	0	0	0	0	0	0	1	3	6	6	7	9	10	10	10	10	10	10	11	11	11	11	11	12	13	17	21	25	29	30	32	31	28	28	29	29	28	27	27	25	22	22	22	22	22	22	22	22	23	24	24	24	28	32	34	35	35	37	39	40	40	41	42	42	41	41	40	41	41	41	41	41	39	39	38	37	37	37	37	37	37	36	36	36	37	37	37	37	37	37	37	38	38	38	38	38	39	39	40	38	34	30	28	28	28	27	27	27	27	27	27	27	27	27	29	31	33	35	36	37	38	39	39	40	40	41	41	42	43	42	42	42	43	43	43	43	44	45	45	44	44	44	43	44	44	44	42	40	39	39	38	38	38	39	39	38	37	34	31	28	26	24	25	25	25	26	26	26	26	26	26	23	19	18	18	18	18	18	18	18	18	18	18	18	18	16	15	14	14	13	13	13	13	13	13	14	14	14	14	14	14	14	13	13	13	13	13	13	12	12	13	13	13	13	13	12	12	12	12	12	12	12	12	12	14	16	18	20	29	33	35	33	38	41	42	43	41	40	46	60	62	62	62	62	62	62	62	62	62	63	76	82	81	80	79	79	78	79	80	81	82	82	81	81	81	81	81	81	81	81	81	81	81	81	81	82	81	82	89	99	106	106	108	113	116	114	113	117	117	116	117	117	117	116	115	114	116	119	121	124	125	125	127	128	130	130	131	131	131	133	136	138	140	142	144	147	149	154	156	157	160	164	165	164	166	171	175	178	179	181	184	188	192	194	196	198	200	202	205	207	210	212	214	215	216	218	219	220	220	220	220	220	220	218	217	217	216	214	211	205	201	198	196	195	193	189	186	184	182	182	181	179	176	173	172	172	173	170	166	163	161	159	157	153	146	140	137	135	132	129	127	125	124	123	123	122	122	122	122	122	123	124	127	129	132	135	137	140	141	141	142	142	143	143	143	144	144	144	144	144	144	144	144	144	144	144	144	144	144	144	144	144	144	144	144	145	145	145	145	145	145	145	145	145	145	145	144	144	144	143	143	143	143	143	142	142	142	142	141	141	141	140	139	139	139	140	141	142	142	143	143	143	143	143	143	143	143	143	143	143	143	143	143	144	144	144	144	145	145	145	146	146	146	146	146	147	148	151	155	157	158	159	160	161	161	162	162	162	162	161	160	159	158	157	155	154	153	153	153	154	155	155	155	155	155	155	155	155	155	155	155	155	155	157	159	163	166	169	172	174	176	178	179	181	183	185	187	189	192	194	197	199	200	201	201	203	205	206	208	209	210	210	209	209	208	208	209	209	210	209	209	207	206	205	203	201	200	198	196	194	191	187	182	176	172	167	163	158	154	150	147	147	152	155	156	155	154	152	149	145	142	140	139	139	139	139	138	138	138	138	138	137	137	136	132	126	122	120	120	120	121	121	121	121	122	122	122	122	122	123	123	123	123	123	123	124	124	123	123	123	123	123	123	123	123	122	121	119	116	112	110	108	107	106	106	106	106	106	106	106	106	105	105	105	105	102	96	94	93	93	93	93	93	93	93	92	92	91	90	89	88	88	85	81	79	79	79	78	76	75	73	71	70	69	68	68	68	68	68	68	67	64	60	59	60	62	64	65	64	63	60	58	56	55	55	55	54	54	54	54	54	54	54	54	54	54	53	53	52	52	52	52	51	51	50	50	50	50	50	50	49	49	49	49	49	50	50	49	47	44	42	40	37	36	31	26	24	24	24	24	23	23	23	23	22	22	22	22	22	20	17	16	15	15	15	15	15	15	15	14	14	13	13	12	13	13	13	13	11	9	9	9	8	8	8	8	7	7	7	7	7	7	7	7	7	7	7	7	7	7	7	6	6	6	6	5	5	5	5	5	5	5	5	5	5	5	5	5	5	5	5	5	5	5	5	5	5	5	5	5	5	5	5	5	5	5	5	5	5	6	8	8	8	8	7	7	7	6	7	8	7	6	5	5	5	5	5	5	5	5	5	5	5	5	6	6	6	6	7	7	6	5	5	5	5	5	5	5	5	6	6	6	6	6	6	6	6	6	6	6	5	6	6	6	5	5	6	6	6	6	6	6	6	6	6	6	7	7	7	7	7	7	7	7	7	7	7	7	7	7	7	7	7	6	6	6	6	6	6	6	6	5	5	6	6	6	6	6	6	6	6	6	5	5
0	0	0	0	0	0	0	0	0	0	0	0	0	0	0	0	0	0	0	0	0	0	0	0	0	0	0	0	0	0	0	0	0	0	0	0	0	0	0	0	0	0	0	0	0	0	0	0	0	0	0	0	0	2	4	4	5	8	9	9	9	9	10	10	11	11	10	10	10	9	9	12	16	23	28	29	31	30	28	28	27	24	24	25	25	25	23	22	22	22	22	22	22	22	22	22	22	23	23	25	29	33	34	37	39	40	40	38	39	39	39	39	38	38	38	39	39	39	38	36	36	35	35	35	35	35	35	35	35	35	36	35	35	35	36	36	36	37	37	37	37	37	37	36	35	33	29	28	27	27	27	27	27	27	27	27	27	27	27	28	29	30	33	34	35	36	37	37	38	38	38	39	40	40	39	39	40	41	41	41	41	42	43	43	43	43	42	42	42	42	43	42	40	39	38	38	37	37	37	38	39	38	36	33	31	28	25	24	24	23	23	23	24	24	24	24	24	23	20	19	18	18	18	18	18	18	18	18	18	18	17	16	15	14	14	13	13	13	13	13	13	14	14	14	14	14	14	13	13	13	13	13	13	12	12	12	13	13	13	13	13	12	11	11	11	10	11	12	12	12	12	12	12	12	16	26	33	36	38	41	44	46	44	42	43	57	62	62	62	62	62	62	62	62	62	63	74	80	79	80	80	80	80	80	81	82	82	82	82	81	81	81	81	81	81	81	81	81	81	81	81	81	81	81	85	96	103	104	104	106	110	110	109	108	113	113	113	112	112	113	113	112	115	119	121	122	123	124	125	126	128	129	129	128	129	131	133	136	139	142	144	146	149	153	157	159	162	165	167	165	165	169	173	177	181	182	184	188	192	194	196	198	200	201	203	206	208	210	212	213	213	214	215	216	216	217	216	216	216	215	214	215	214	213	210	204	199	196	194	192	189	185	182	180	178	179	180	177	175	172	169	168	170	167	161	159	158	157	154	150	143	138	135	132	129	127	124	123	122	121	121	121	120	120	121	121	122	123	126	129	132	135	137	139	139	140	140	140	141	141	142	142	142	143	143	144	144	144	144	144	144	144	144	144	144	144	144	144	144	144	144	144	144	145	145	145	145	145	145	145	145	145	144	144	144	144	143	143	143	143	142	142	142	141	141	140	140	140	139	139	138	138	139	140	140	141	142	142	143	143	143	143	143	143	143	143	143	143	143	143	143	144	144	144	145	145	145	146	146	146	146	146	146	148	151	155	156	157	158	158	159	160	160	160	160	159	158	157	155	153	151	149	148	148	150	152	154	155	155	155	155	155	155	155	155	155	155	155	155	155	155	156	159	162	166	170	173	176	177	179	180	182	183	185	187	189	191	193	195	197	198	199	202	204	206	208	208	206	206	205	206	206	206	207	207	207	207	206	204	202	200	198	195	194	192	189	184	179	172	166	161	157	152	149	148	146	145	144	147	153	155	154	152	148	144	141	139	139	139	139	139	139	138	138	138	138	137	137	135	129	123	120	120	120	120	121	121	121	121	122	122	122	122	122	123	123	123	123	123	124	124	124	124	124	124	124	124	123	123	123	122	119	117	113	110	108	107	107	106	106	106	106	106	106	106	106	105	105	105	104	102	96	94	93	94	93	93	93	93	93	93	92	90	89	88	88	88	88	86	82	80	79	78	77	75	73	71	70	69	68	68	68	68	68	68	67	64	60	59	59	59	60	62	64	64	61	59	57	56	55	55	54	54	53	52	52	52	51	52	53	53	53	52	52	52	52	51	50	50	50	50	50	50	50	49	49	49	49	49	49	49	49	50	50	48	44	42	40	38	36	32	26	24	24	24	24	23	23	23	23	22	22	22	22	21	18	16	15	15	15	15	15	15	15	14	14	13	13	12	12	12	12	12	12	11	10	9	8	8	8	8	8	7	7	7	7	7	7	7	7	7	7	7	7	7	7	6	6	6	6	5	5	5	5	5	5	5	5	5	5	5	5	5	5	5	5	5	5	5	5	5	5	5	5	5	5	5	5	5	5	5	5	5	5	5	6	8	9	9	8	8	8	7	7	8	8	7	6	5	5	5	5	5	5	5	5	5	5	5	5	5	5	5	5	5	5	5	5	5	5	5	5	5	5	5	6	6	6	6	6	6	6	6	6	6	6	5	6	6	5	5	5	6	6	6	6	6	6	6	7	6	6	7	7	7	7	7	7	7	7	7	7	7	7	7	7	7	7	6	6	6	6	6	6	6	6	5	5	6	6	6	6	6	6	6	6	6	6	6	5
0	0	0	0	0	0	0	0	0	0	0	0	0	0	0	0	0	0	0	0	0	0	0	0	0	0	0	0	0	0	0	0	0	0	0	0	0	0	0	0	0	0	0	0	0	0	0	0	0	0	0	0	0	1	3	4	5	6	7	7	7	7	8	9	10	10	10	10	9	9	9	11	15	22	24	25	26	28	28	28	25	19	19	21	22	22	23	23	23	23	22	22	20	21	23	23	23	23	23	23	24	27	30	36	38	39	40	39	38	37	38	39	38	37	37	37	37	37	37	36	34	34	33	34	34	34	34	33	33	33	34	34	34	34	34	35	35	36	36	36	36	35	34	33	32	31	27	27	27	27	27	27	27	27	27	27	27	27	27	28	29	29	31	33	34	34	35	36	36	36	36	37	37	37	36	37	38	39	40	39	40	40	41	42	42	42	41	41	40	41	41	40	38	37	37	36	36	36	36	37	38	38	35	32	30	27	25	23	23	22	21	21	22	22	22	23	23	22	20	19	18	18	18	18	18	18	18	18	18	18	17	16	15	14	14	14	14	14	14	14	14	14	14	14	14	14	13	13	13	13	13	13	12	12	12	12	13	13	13	12	12	11	11	11	11	10	10	11	12	12	12	12	12	12	12	16	29	38	40	42	45	47	47	46	43	50	61	62	62	62	62	62	62	62	62	62	67	74	76	77	78	79	79	80	82	83	82	82	82	81	81	81	81	81	81	81	81	81	82	82	83	83	81	81	82	89	101	102	102	103	106	107	105	102	107	111	110	108	109	111	111	111	114	117	119	120	121	122	123	124	126	126	126	127	129	130	132	135	138	143	146	146	149	155	158	159	161	164	166	166	166	168	172	177	181	183	185	188	192	194	196	198	200	200	202	205	207	209	210	210	210	211	212	212	212	212	212	211	211	210	211	213	214	212	209	204	198	195	193	190	187	183	180	177	176	178	178	175	173	169	164	163	164	162	158	156	155	153	149	146	141	136	133	130	127	125	122	121	119	119	119	118	118	119	119	120	121	123	125	128	132	134	136	137	138	138	138	139	139	140	140	140	141	141	142	142	143	143	143	144	144	144	144	144	144	144	144	144	144	144	144	144	144	144	145	144	144	144	145	145	145	145	145	144	144	144	144	143	143	143	142	142	142	141	141	140	140	139	139	139	139	138	138	138	138	139	139	140	140	141	141	142	142	143	143	143	143	143	143	143	143	143	144	144	144	145	145	146	146	146	146	146	146	146	148	152	154	155	155	156	157	158	158	158	158	157	155	154	152	149	147	146	146	146	147	150	154	155	155	155	155	155	155	155	155	155	155	155	155	155	155	155	155	156	159	164	169	173	175	176	178	179	180	182	183	185	187	188	189	191	192	193	194	196	198	200	200	200	200	201	201	202	202	202	201	202	203	202	199	198	196	193	191	189	187	182	176	169	162	157	153	150	148	147	145	145	144	143	144	148	151	150	147	144	141	139	139	139	139	139	139	138	138	138	138	137	136	132	126	121	120	120	120	120	120	121	121	121	122	122	122	122	122	123	123	123	123	124	124	124	124	124	124	124	124	124	124	123	123	121	118	114	111	109	108	107	107	106	106	105	105	106	106	106	106	106	105	104	104	103	97	94	93	93	93	93	93	93	93	93	92	90	89	88	88	87	88	87	86	83	80	78	77	75	74	72	70	69	69	68	68	68	68	68	67	64	60	59	59	59	58	58	59	62	62	60	57	56	55	55	55	55	54	53	52	51	50	49	50	51	52	52	52	51	51	50	50	50	50	50	50	50	49	49	49	49	49	49	49	49	49	49	50	50	48	45	42	40	38	37	33	27	24	24	24	24	23	23	23	22	22	22	22	21	19	16	15	15	15	14	14	14	14	14	14	13	12	12	12	12	11	11	11	12	11	10	9	8	8	8	8	7	7	7	7	7	7	7	7	7	7	7	7	7	7	6	6	6	6	5	5	5	5	5	5	5	5	5	5	5	5	5	5	5	5	5	5	5	5	5	5	5	5	5	5	5	5	5	5	5	5	5	5	5	5	6	8	9	9	8	8	8	7	6	7	7	7	6	5	5	5	5	5	5	5	5	5	5	5	5	5	5	5	5	5	5	5	5	5	5	5	5	5	5	6	6	6	5	6	6	6	6	6	5	5	6	6	6	6	6	6	5	6	6	5	6	6	6	6	6	6	6	6	7	7	7	6	6	7	7	7	7	6	7	7	7	7	7	6	6	6	6	6	5	6	6	6	5	6	6	6	6	6	6	6	6	6	6	5	5
0	0	0	0	0	0	0	0	0	0	0	0	0	0	0	0	0	0	0	0	0	0	0	0	0	0	0	0	0	0	0	0	0	0	0	0	0	0	0	0	0	0	0	0	0	0	0	0	0	0	0	0	0	0	2	3	4	5	5	5	5	5	5	6	7	8	10	9	9	9	9	12	18	23	23	22	23	26	27	27	24	16	15	13	11	13	19	22	23	25	25	23	17	20	23	23	23	23	23	23	23	23	25	32	36	37	38	38	35	34	35	36	35	34	34	34	34	34	34	34	32	31	31	31	31	31	31	30	30	30	31	31	31	31	32	32	33	33	33	33	33	31	30	30	30	30	27	26	27	27	27	27	27	27	27	26	26	26	26	27	28	29	30	31	32	33	34	34	34	34	34	35	35	35	35	36	37	38	38	38	39	39	40	40	41	40	40	40	39	39	39	37	36	36	35	35	35	35	35	36	38	37	34	32	29	27	24	23	21	20	19	18	19	20	20	21	21	21	19	18	18	17	17	17	17	17	17	17	17	17	16	15	15	14	14	14	14	14	14	14	14	14	14	14	14	14	13	13	13	13	12	12	12	12	12	12	12	12	12	12	12	11	11	11	11	10	10	11	12	12	12	12	12	12	12	13	21	36	41	43	45	46	48	48	44	46	60	62	62	62	62	62	62	62	62	62	63	67	72	75	76	75	75	79	83	84	82	82	82	81	81	81	81	81	81	82	83	85	88	89	89	88	83	81	81	84	96	98	99	102	106	106	104	101	102	107	107	106	106	109	110	112	114	116	116	117	119	120	120	121	122	123	124	126	129	131	132	135	139	144	146	146	150	156	158	159	161	163	165	166	168	170	173	177	181	184	187	189	192	194	195	197	199	200	201	204	206	207	207	208	208	208	209	209	209	209	208	207	207	207	208	211	212	210	206	201	197	195	192	190	186	183	180	178	176	175	173	171	169	166	163	162	163	162	158	153	151	148	146	145	141	135	131	128	125	123	120	118	117	117	117	117	117	117	118	119	121	123	125	128	131	133	135	136	136	137	137	137	137	138	138	138	139	139	139	140	141	141	142	142	143	143	144	144	144	144	144	144	144	144	144	144	144	144	144	144	144	144	144	145	145	145	145	145	144	144	144	144	143	143	142	142	141	140	139	138	138	137	137	137	137	137	137	137	137	137	137	137	137	137	138	138	139	140	142	142	143	143	143	143	143	143	143	144	144	145	145	146	146	146	146	146	146	146	147	151	154	154	154	155	155	156	157	156	155	154	152	150	148	147	146	146	146	146	146	149	152	154	155	155	155	155	155	155	155	155	154	154	155	155	155	155	155	155	156	159	164	169	172	174	177	178	179	180	181	182	183	184	185	185	187	188	189	190	191	192	193	194	195	196	196	196	196	195	195	196	197	196	195	193	192	189	188	186	182	175	169	162	155	151	149	148	146	146	145	144	144	143	144	145	146	145	143	141	139	139	139	139	139	139	139	138	138	138	137	135	129	123	120	120	120	120	120	120	120	121	121	121	122	122	122	122	123	123	123	123	123	124	124	124	124	124	124	124	124	124	123	122	120	116	112	110	108	107	107	107	106	105	105	105	105	105	106	106	106	106	105	104	103	99	94	93	93	93	93	93	93	93	93	92	90	89	88	88	87	87	87	87	86	83	80	78	76	74	72	71	70	69	69	69	68	68	68	67	64	60	59	59	59	59	58	57	57	59	60	58	56	55	55	55	55	55	54	54	52	51	49	49	49	50	51	51	51	50	50	49	49	49	49	49	49	49	49	49	49	49	49	49	49	49	49	49	49	48	47	44	42	41	39	37	34	28	24	24	24	24	23	23	22	22	22	22	22	20	17	15	15	14	14	14	14	14	14	13	13	12	12	12	12	12	11	11	11	11	11	10	9	8	8	8	8	7	7	7	7	7	7	7	7	7	7	7	7	7	7	6	6	6	6	5	5	5	5	5	5	5	5	5	5	5	5	5	5	5	5	5	5	5	5	5	5	5	5	5	5	5	5	5	5	5	5	5	5	5	5	6	8	9	8	7	7	8	7	6	6	6	6	6	5	5	5	5	5	5	5	5	5	5	5	5	5	5	5	5	5	5	5	5	5	5	5	5	5	5	6	6	5	5	5	6	6	6	6	5	6	6	6	6	6	6	6	6	6	5	5	5	6	6	6	6	6	6	6	6	6	6	6	6	7	7	7	7	6	7	7	7	7	6	6	6	6	6	6	5	5	6	6	6	6	6	6	6	6	6	6	6	6	6	5	5
0	0	0	0	0	0	0	0	0	0	0	0	0	0	0	0	0	0	0	0	0	0	0	0	0	0	0	0	0	0	0	0	0	0	0	0	0	0	0	0	0	0	0	0	0	0	0	0	0	0	0	0	0	0	1	2	3	4	3	3	4	4	3	4	4	7	8	8	8	9	9	11	19	23	23	23	24	26	27	27	20	11	9	6	6	7	8	11	13	19	25	24	19	22	23	23	23	23	23	23	23	23	23	25	28	29	27	26	27	27	28	29	28	28	27	27	28	28	29	29	28	27	27	26	27	27	27	26	26	26	28	28	28	28	28	29	29	30	30	29	28	28	28	27	25	26	26	26	27	27	27	27	27	26	26	26	26	26	26	27	27	29	30	30	31	31	32	32	32	33	32	33	33	33	34	35	35	36	36	37	37	38	38	38	39	38	38	38	38	37	35	35	34	33	32	33	33	33	33	35	36	35	33	31	28	26	24	21	19	17	16	16	16	17	17	17	18	17	17	17	16	16	16	16	16	16	16	16	16	16	16	15	15	14	14	14	14	14	14	14	14	14	14	14	14	14	13	13	13	13	12	12	12	11	12	12	12	12	12	12	12	11	11	11	11	10	10	11	11	12	12	12	12	12	12	12	14	28	41	43	45	47	49	50	48	47	57	62	62	62	62	63	62	62	62	62	62	65	68	72	74	73	72	77	81	82	80	81	81	82	81	81	81	81	82	83	90	94	96	97	96	93	87	81	80	83	92	96	96	99	103	103	102	100	101	104	103	103	104	106	108	111	114	115	115	116	116	116	116	118	119	120	121	124	129	131	133	135	139	143	145	147	152	157	159	160	161	164	166	168	170	172	175	179	182	186	188	190	192	193	194	196	198	200	201	202	203	204	204	205	205	206	206	207	207	208	207	205	204	204	205	206	206	204	201	198	196	194	192	189	186	182	180	178	176	173	171	169	168	168	167	165	163	162	157	149	147	144	142	143	140	134	129	126	124	121	119	117	116	116	115	116	116	116	117	118	120	122	124	126	129	132	133	134	135	135	135	135	136	136	136	137	137	137	137	138	138	139	140	140	141	141	142	142	143	143	143	144	144	144	144	144	144	144	143	143	143	143	144	144	145	145	145	145	145	144	144	144	144	143	142	141	140	138	137	135	133	132	131	131	131	132	133	133	134	134	135	135	136	136	136	136	136	137	138	140	142	143	143	143	143	143	143	143	144	145	145	145	145	146	146	146	146	146	147	150	153	154	154	154	154	155	155	154	152	150	148	147	146	146	146	146	146	146	146	147	150	154	155	155	155	154	154	154	155	154	153	153	154	154	154	155	155	155	154	156	160	166	170	173	176	177	178	178	179	180	180	181	182	182	182	184	185	186	187	187	188	189	190	190	191	191	191	191	191	191	192	192	191	190	188	186	184	183	179	172	164	157	151	149	147	146	145	144	144	143	143	143	143	143	143	142	140	139	139	139	139	139	139	139	139	138	137	135	131	125	121	119	119	120	120	120	120	120	120	121	121	121	122	122	122	123	123	123	123	124	124	124	124	124	124	124	124	124	124	123	121	119	115	111	109	108	107	107	106	106	105	105	105	105	105	105	105	106	106	105	104	103	99	95	93	93	93	93	93	93	93	93	92	90	89	88	88	87	88	88	87	87	87	84	80	78	76	73	71	70	70	69	69	69	68	68	68	64	60	59	59	59	59	59	58	57	56	57	57	56	55	55	55	55	55	55	55	54	51	49	49	49	49	49	50	50	50	49	49	49	49	49	49	49	49	49	49	49	49	49	49	49	49	49	48	47	46	45	44	43	42	41	39	38	35	29	25	24	24	24	23	23	22	22	22	22	21	18	16	15	15	15	14	14	14	13	13	13	12	12	11	11	11	11	11	10	10	10	10	10	9	8	8	8	8	7	7	7	7	7	7	7	7	7	7	7	7	7	6	6	6	6	5	5	5	5	5	5	5	5	5	5	5	5	5	5	5	5	5	5	5	5	5	5	5	5	5	5	5	5	5	5	5	5	5	5	5	5	5	5	7	8	8	7	6	7	6	5	5	6	6	5	5	5	5	5	5	5	5	5	5	5	5	5	5	5	5	5	5	5	5	5	5	5	5	5	5	5	5	5	5	5	5	5	5	5	5	5	5	5	6	6	6	6	5	5	5	5	5	5	6	6	6	6	6	6	6	6	6	6	6	6	6	7	7	6	6	7	7	7	7	7	7	6	6	6	6	6	6	6	6	6	6	6	6	6	6	6	6	6	6	6	6	5
0	0	0	0	0	0	0	0	0	0	0	0	0	0	0	0	0	0	0	0	0	0	0	0	0	0	0	0	0	0	0	0	0	0	0	0	0	0	0	0	0	0	0	0	0	0	0	0	0	0	0	0	0	0	0	1	3	3	3	4	4	4	4	3	4	5	6	6	6	7	9	11	20	23	24	24	25	26	26	25	13	7	5	5	5	6	5	5	6	11	19	22	22	22	23	23	23	23	23	23	23	23	23	23	23	23	23	20	21	22	23	23	24	23	22	23	23	24	24	25	25	24	24	23	24	23	23	23	23	23	24	25	25	25	25	26	26	27	27	26	25	25	26	24	24	25	25	25	26	27	27	27	26	26	26	26	26	26	26	26	27	28	29	29	29	30	30	31	31	30	30	31	31	32	32	33	33	34	35	35	36	36	36	37	37	37	37	37	37	35	33	32	32	31	31	31	31	31	31	33	33	33	31	30	27	26	23	20	17	15	13	13	14	14	14	14	15	15	15	15	16	15	15	15	15	15	15	15	15	15	15	15	15	14	14	14	14	14	14	14	14	14	14	14	14	13	13	13	13	12	12	12	11	11	11	12	12	12	11	11	11	11	11	11	11	11	11	11	11	11	12	12	12	12	12	12	12	18	36	42	45	48	49	50	50	49	52	61	62	62	63	63	63	62	62	62	62	64	66	68	69	68	66	69	75	76	77	80	80	80	79	79	80	81	82	87	95	98	100	100	100	97	90	82	80	81	86	92	93	94	96	99	100	100	101	101	100	101	102	104	106	109	112	114	115	116	116	115	115	116	118	119	121	123	128	131	134	135	138	142	144	149	154	158	161	162	163	165	168	171	174	176	178	181	184	187	189	191	192	193	194	195	197	198	199	199	199	199	200	202	202	202	203	203	204	205	204	202	201	202	202	202	202	200	199	197	195	193	191	188	185	182	179	177	174	172	169	168	168	170	169	167	164	161	155	148	146	141	137	138	136	131	127	124	122	120	118	116	115	115	114	115	115	116	116	117	119	120	122	125	127	130	131	132	133	133	133	133	134	134	134	135	135	135	135	136	136	137	137	138	138	139	139	140	141	141	142	142	143	144	144	144	144	143	143	143	143	143	144	144	145	145	145	145	145	145	144	144	144	143	142	140	139	137	135	132	130	128	127	126	126	126	127	129	130	130	131	132	133	134	134	134	134	134	135	136	138	140	141	143	143	143	143	143	143	144	145	145	145	146	146	146	146	146	147	151	153	154	154	154	154	154	154	151	147	146	146	146	146	146	146	146	146	146	146	146	148	151	153	153	153	153	153	153	154	153	151	151	151	152	153	154	154	155	155	155	158	163	168	172	175	177	177	177	177	178	178	179	180	180	180	181	182	183	183	183	183	184	185	185	186	186	186	186	187	187	188	188	187	186	184	182	180	180	177	170	162	154	149	147	146	145	144	144	143	143	143	143	143	143	143	141	139	139	139	139	139	139	139	139	138	136	132	126	121	119	119	118	119	119	119	120	120	120	121	121	121	122	122	122	122	123	123	123	124	124	124	124	124	125	125	124	124	124	123	121	117	113	110	108	108	107	107	106	105	105	105	105	105	105	105	105	105	105	105	104	103	100	96	93	93	93	93	93	93	93	93	92	90	89	88	88	88	88	88	87	87	87	86	84	80	78	75	72	71	70	70	69	69	69	69	68	65	61	59	59	59	59	59	58	57	56	56	56	56	56	55	55	55	55	55	55	54	52	49	48	48	49	49	49	49	50	49	49	48	48	48	48	49	49	49	49	49	49	49	49	48	48	47	46	46	45	44	44	43	43	42	41	39	38	36	30	25	24	24	24	23	23	22	22	22	21	19	17	15	15	15	14	14	14	13	13	13	12	12	11	11	11	11	11	10	10	10	9	9	9	9	9	8	8	8	7	7	7	7	7	7	7	7	7	7	7	7	6	6	6	6	5	5	5	5	5	5	5	5	5	5	5	5	5	5	5	5	5	5	5	5	5	5	5	5	5	5	5	5	5	5	5	5	5	5	5	5	5	5	5	6	8	8	7	6	6	6	5	5	6	6	5	5	5	5	5	5	5	5	5	5	5	5	5	5	5	5	5	5	5	5	5	5	5	5	5	5	5	5	5	5	5	5	5	5	5	5	5	5	5	6	6	6	6	5	5	5	5	5	5	6	6	6	6	6	6	6	6	6	6	6	7	7	6	6	6	6	7	7	7	6	6	6	6	6	6	6	6	6	6	6	6	6	6	6	6	6	6	6	6	6	6	5	5
0	0	0	0	0	0	0	0	0	0	0	0	0	0	0	0	0	0	0	0	0	0	0	0	0	0	0	0	0	0	0	0	0	0	0	0	0	0	0	0	0	0	0	0	0	0	0	0	0	0	0	0	0	0	0	0	1	2	3	4	5	5	4	4	3	4	4	4	4	5	6	8	19	24	24	25	26	26	26	22	8	5	4	4	5	6	5	4	5	7	15	18	19	21	23	23	23	23	23	23	23	23	23	23	23	23	23	21	21	21	23	24	24	24	22	22	23	24	24	24	24	24	23	23	22	22	22	21	21	21	22	22	22	23	23	23	24	24	23	23	24	25	25	23	23	24	24	24	25	26	27	27	26	26	26	26	25	25	26	26	26	27	28	28	28	29	29	29	29	29	29	29	30	30	31	32	32	33	33	34	34	35	35	35	35	35	35	35	34	32	31	30	30	30	29	29	29	29	30	30	31	30	29	28	27	25	22	19	15	11	10	11	12	12	12	13	13	13	14	14	15	14	14	14	14	14	14	15	15	15	15	15	15	14	14	14	14	14	14	14	14	14	14	14	13	12	12	12	12	12	12	11	11	11	11	12	12	12	11	10	11	11	11	11	12	11	11	11	11	11	12	12	12	12	12	12	12	13	20	34	43	47	48	50	53	51	50	60	62	62	64	65	64	62	62	62	62	63	64	65	65	65	64	64	68	71	72	74	77	74	69	70	75	79	80	86	95	99	101	102	102	100	94	86	82	80	81	86	88	91	95	97	99	100	101	101	99	100	101	102	103	107	110	111	113	114	114	113	113	116	118	120	122	124	128	132	134	136	139	142	146	150	154	159	162	163	164	167	171	173	176	178	180	182	185	187	189	191	192	193	194	195	195	196	196	195	195	195	196	197	198	197	197	197	198	199	199	199	199	199	199	199	199	198	197	196	194	192	190	187	184	181	179	175	173	170	168	166	168	169	168	167	165	160	153	148	147	142	137	136	133	129	126	123	121	119	117	116	115	114	114	114	115	115	116	116	117	119	121	123	126	127	129	129	130	130	130	130	131	132	132	133	133	133	133	134	134	135	135	135	136	136	137	137	138	139	139	140	141	142	142	143	143	142	142	142	142	143	144	144	145	145	145	145	145	145	145	144	144	142	141	140	138	136	133	131	129	126	125	123	123	123	124	126	128	129	130	130	131	132	133	134	134	133	133	134	135	136	138	140	142	143	143	143	143	143	144	145	145	146	146	146	146	146	147	150	152	153	153	153	153	153	153	148	144	144	146	146	146	146	146	146	146	146	146	146	146	146	147	147	148	149	150	150	151	151	149	149	150	150	152	153	154	154	154	155	157	161	166	170	173	175	175	176	176	177	177	177	178	178	178	179	181	181	181	180	180	181	181	182	182	182	182	182	183	184	184	184	183	182	180	178	177	176	174	168	160	152	147	146	145	144	143	143	143	143	143	143	143	143	143	142	140	139	139	139	139	139	139	137	133	128	125	122	120	119	118	118	118	119	119	120	120	120	121	121	121	122	122	122	123	123	123	123	124	124	124	124	125	125	125	124	123	122	119	116	112	110	108	108	107	106	106	105	105	105	105	105	105	105	105	105	105	105	104	103	101	98	94	93	93	93	93	93	93	93	91	90	89	88	88	88	87	87	87	87	87	86	85	82	79	77	74	72	70	70	70	69	69	69	68	65	61	59	59	59	59	59	59	58	56	56	55	55	55	56	56	55	55	55	55	54	52	49	48	48	48	48	49	49	49	49	48	48	48	48	48	48	48	49	49	49	48	48	48	47	46	46	45	44	44	44	43	43	43	43	42	41	39	38	36	31	26	24	24	23	23	23	22	22	21	20	18	16	15	15	15	14	14	14	13	13	12	12	11	11	11	11	11	10	10	10	9	9	9	8	8	8	8	8	7	7	7	7	7	7	7	7	7	7	7	7	6	6	6	6	6	5	5	5	5	5	5	5	5	5	5	5	5	5	5	5	5	5	5	5	5	5	5	5	5	5	5	5	5	5	5	5	5	5	5	5	5	5	5	5	5	6	7	6	6	5	6	6	5	5	5	5	5	5	5	5	5	5	5	5	5	5	5	5	5	5	5	5	5	5	5	5	5	5	5	5	5	5	5	5	5	5	5	5	5	5	5	5	5	5	5	5	5	5	5	5	5	5	5	5	6	6	6	6	6	6	6	6	6	6	6	6	7	7	6	6	6	6	7	7	6	6	6	6	6	6	6	6	6	6	6	6	6	6	6	6	6	6	6	6	6	6	5	5
0	0	0	0	0	0	0	0	0	0	0	0	0	0	0	0	0	0	0	0	0	0	0	0	0	0	0	0	0	0	0	0	0	0	0	0	0	0	0	0	0	0	0	0	0	0	0	0	0	0	0	0	0	0	0	0	0	1	1	2	3	4	4	4	4	4	5	4	4	4	4	5	14	24	24	25	26	26	25	16	6	4	4	4	5	6	5	4	6	6	6	7	8	15	17	21	23	23	23	23	23	23	23	23	23	23	23	22	20	19	21	23	24	23	22	22	22	23	23	23	23	23	22	22	21	20	20	19	19	18	19	20	20	20	21	21	21	21	20	21	23	23	24	24	24	23	22	22	23	24	25	25	26	26	26	25	25	25	25	26	26	26	27	27	27	27	28	28	28	28	28	28	29	29	30	30	31	31	32	32	32	33	33	33	33	32	32	31	30	29	28	28	28	28	28	28	28	28	28	28	28	28	27	27	26	25	21	17	12	8	8	9	9	10	11	11	11	12	12	13	13	13	13	13	13	13	13	14	14	14	14	14	14	14	14	14	14	14	14	14	14	14	14	14	13	12	11	12	12	12	11	11	11	11	11	11	12	12	11	10	10	10	11	11	11	11	11	11	11	12	12	12	12	12	12	12	12	12	13	21	38	44	46	52	56	52	49	56	62	62	64	65	64	62	62	62	62	62	63	65	65	66	65	63	63	64	64	65	67	65	63	63	66	72	77	84	94	98	101	102	102	100	95	91	88	84	80	80	81	86	92	93	92	96	100	100	99	98	98	99	101	105	107	108	109	111	112	111	112	115	119	121	122	125	129	132	134	137	140	144	147	151	154	157	161	163	165	168	172	174	176	179	181	184	187	188	189	191	192	192	192	193	193	193	193	192	191	191	192	192	193	193	192	191	192	193	195	196	196	196	197	197	197	196	195	194	193	191	189	186	183	180	177	174	171	169	166	165	166	168	167	166	163	158	152	149	147	143	138	136	132	128	125	122	120	118	116	115	114	113	113	113	114	114	115	116	116	118	120	122	123	125	126	127	127	127	127	127	128	129	129	130	131	131	131	132	132	133	133	133	134	134	134	135	136	136	137	138	138	139	140	140	141	141	140	140	141	142	144	145	145	145	145	145	145	145	145	144	144	142	141	139	137	134	132	130	127	125	123	122	121	121	121	122	124	127	129	130	130	130	132	133	133	133	133	132	133	133	135	136	138	140	142	143	143	143	143	143	144	145	146	146	146	146	147	149	150	151	151	151	151	151	150	145	142	143	145	146	146	146	146	146	146	146	145	144	143	143	143	143	143	144	145	147	148	149	149	149	149	149	150	151	153	154	154	154	156	160	163	167	169	171	172	173	174	174	175	176	177	177	177	178	179	180	180	179	179	180	180	180	180	180	180	180	181	181	181	181	180	178	177	175	173	172	170	165	158	151	145	144	144	143	143	143	143	143	143	143	143	143	143	143	141	139	139	139	139	139	138	133	127	125	124	123	121	119	118	118	118	119	119	120	120	120	121	121	121	122	122	122	123	123	123	124	124	124	124	125	125	125	124	123	121	118	114	111	109	108	107	107	106	106	105	105	105	105	105	105	105	105	105	105	105	105	103	102	100	96	93	93	93	93	93	93	93	91	90	89	88	88	88	88	87	87	87	87	87	85	82	79	76	75	73	71	70	70	70	70	69	68	65	61	59	59	59	59	59	59	58	57	56	55	55	55	54	54	55	55	55	55	54	52	49	47	47	48	48	48	49	49	49	48	47	47	47	47	48	48	48	48	48	47	47	46	45	45	44	44	44	43	43	42	42	41	41	42	42	41	40	39	37	32	26	24	24	23	23	22	22	22	21	19	17	16	16	15	15	14	14	14	13	12	12	11	11	11	11	10	10	10	10	9	9	9	8	8	8	8	8	8	7	7	7	7	7	7	7	7	7	7	7	7	6	6	6	6	5	5	5	5	5	5	5	5	5	5	5	5	5	5	5	5	5	5	5	5	5	5	5	5	5	5	5	5	5	5	5	5	5	5	5	5	5	5	5	5	5	5	5	5	5	5	6	5	5	5	5	5	5	5	5	5	5	5	5	5	5	5	5	5	5	5	5	5	5	5	5	5	5	5	5	5	5	5	5	5	5	5	5	5	5	5	5	5	5	5	5	5	5	5	5	5	5	5	5	5	5	6	6	5	6	6	6	6	6	6	7	6	7	7	6	6	6	6	6	6	6	6	5	5	6	6	6	6	6	6	6	6	6	6	6	6	6	6	6	6	6	6	5	5
0	0	0	0	0	0	0	0	0	0	0	0	0	0	0	0	0	0	0	0	0	0	0	0	0	0	0	0	0	0	0	0	0	0	0	0	0	0	0	0	0	0	0	0	0	0	0	0	0	0	0	0	0	0	0	0	0	0	0	0	1	2	3	3	3	6	9	8	5	3	4	4	8	21	25	25	25	25	20	8	5	5	5	4	5	5	4	4	5	5	4	5	5	7	7	11	18	21	22	23	24	23	23	23	23	23	20	14	14	14	15	17	19	18	17	18	18	19	19	19	19	19	19	19	18	18	17	16	16	16	16	17	17	17	18	18	18	18	18	19	20	21	21	22	22	21	20	21	21	22	23	23	24	25	25	25	25	25	25	25	25	26	26	26	26	26	27	27	27	27	27	27	28	28	29	29	29	30	30	30	30	30	30	30	30	30	29	28	27	27	26	26	26	26	26	26	26	26	26	26	26	26	26	26	25	24	20	15	10	7	7	8	9	9	10	10	11	11	12	12	13	13	13	13	12	12	12	13	13	13	14	14	14	14	14	14	14	14	14	14	15	14	14	14	14	12	12	12	12	12	11	11	11	11	11	11	12	11	11	11	11	11	11	11	11	11	11	11	11	12	12	12	12	12	12	12	12	12	12	15	31	43	46	52	55	52	48	51	61	63	63	63	63	62	62	62	62	62	62	67	70	70	65	62	62	62	62	62	62	62	62	62	62	64	68	77	89	96	99	101	101	100	96	92	89	86	80	79	79	81	85	83	81	84	91	97	96	93	95	99	101	102	103	103	104	108	110	110	112	116	120	122	124	126	130	133	136	138	141	145	149	152	155	156	159	163	166	169	172	174	177	180	182	185	188	189	190	191	190	190	190	190	190	190	190	189	188	187	188	188	189	190	189	188	187	187	188	190	193	194	194	195	195	195	194	193	191	190	188	186	183	180	177	174	171	168	166	164	164	166	166	163	158	155	152	149	146	142	138	135	131	127	124	121	119	118	116	113	113	112	112	112	113	113	114	114	115	117	118	120	121	122	123	123	124	124	124	124	125	125	126	127	127	128	128	129	130	130	131	131	131	132	132	132	133	134	134	135	135	136	137	138	138	139	139	140	140	142	144	145	145	145	145	145	145	145	145	144	143	142	141	138	135	133	131	128	126	124	122	121	121	120	120	120	121	123	126	130	131	131	132	133	132	132	132	132	132	132	132	133	135	136	139	141	142	143	143	143	143	144	145	146	146	146	147	149	150	150	150	149	150	150	148	144	142	142	144	146	146	146	146	146	145	144	143	143	142	142	142	142	142	142	142	143	145	146	147	147	147	147	148	149	151	153	154	155	155	157	160	162	164	165	166	167	168	169	171	173	174	175	176	177	179	180	180	180	180	180	180	179	180	180	180	180	180	180	179	178	177	175	173	170	168	166	164	160	156	151	145	143	143	143	143	143	143	143	143	143	143	143	143	143	141	139	139	139	139	138	135	130	126	125	124	123	121	118	118	118	118	119	119	120	120	121	121	121	122	122	122	122	123	123	124	124	124	124	124	125	125	125	123	120	116	113	110	109	108	107	106	106	105	105	105	105	105	105	105	105	105	105	105	105	105	104	102	101	98	95	93	93	93	93	93	93	91	90	89	88	88	88	88	88	87	87	87	87	86	83	79	76	75	75	73	71	70	70	70	70	69	65	61	59	59	59	59	59	59	59	57	56	55	55	55	54	52	52	53	54	54	54	52	49	47	47	47	48	48	48	48	48	47	46	46	46	47	47	47	47	47	47	46	45	45	44	43	43	43	42	42	41	40	40	39	38	39	41	42	40	40	39	38	33	27	24	23	23	23	22	22	21	20	18	16	16	16	15	15	15	14	13	12	11	11	11	11	10	10	10	10	10	9	9	9	8	8	8	8	8	8	7	7	7	7	7	7	7	7	7	7	7	7	6	6	6	6	5	5	5	5	5	5	5	5	5	5	5	5	5	5	5	5	5	5	5	5	5	5	5	5	5	5	5	5	5	5	5	5	5	5	5	5	5	5	5	5	5	5	5	5	4	5	5	5	5	5	5	5	5	5	6	6	6	5	5	5	5	5	5	5	5	5	5	5	5	5	5	5	5	5	5	5	5	5	5	5	5	5	5	5	5	5	5	5	5	5	5	5	5	5	5	5	5	5	5	5	5	5	6	6	6	6	6	6	6	6	6	7	7	7	7	7	6	6	6	6	6	5	5	5	5	6	6	6	6	6	6	6	6	6	6	6	6	6	6	6	6	6	6	5	5
0	0	0	0	0	0	0	0	0	0	0	0	0	0	0	0	0	0	0	0	0	0	0	0	0	0	0	0	0	0	0	0	0	0	0	0	0	0	0	0	0	0	0	0	0	0	0	0	0	0	0	0	0	0	0	0	0	0	0	0	0	0	1	1	2	5	9	9	5	4	4	4	5	15	21	21	22	16	8	4	5	5	5	5	5	5	4	4	4	4	4	5	5	6	6	5	8	13	16	20	22	22	23	23	23	20	13	7	8	9	10	10	12	12	13	13	14	16	16	16	15	15	15	16	16	15	15	14	14	13	13	14	14	15	15	15	15	16	17	18	18	19	19	19	20	19	19	19	19	20	20	21	22	22	23	24	24	25	25	25	25	25	25	25	25	25	25	26	26	26	26	26	26	27	27	28	28	28	28	28	28	28	28	28	28	28	27	26	26	25	25	25	24	24	24	24	24	25	25	24	24	24	24	24	24	23	19	13	9	7	7	8	9	9	10	10	11	11	11	12	12	12	12	12	12	11	11	12	12	12	13	14	14	14	14	14	14	14	14	14	14	14	14	14	14	13	13	12	12	12	12	12	11	11	11	11	11	11	11	11	11	11	11	11	11	11	11	11	12	12	12	12	12	12	12	12	12	12	12	14	30	43	47	51	52	52	49	48	56	62	62	62	62	62	62	62	62	62	63	71	77	69	62	61	62	62	62	62	62	62	62	62	62	62	63	65	71	84	93	99	101	100	97	92	89	85	80	79	79	79	79	79	78	79	82	88	91	91	92	97	100	99	99	99	101	106	110	111	112	118	122	124	125	127	130	134	138	141	143	145	150	154	155	156	159	163	167	170	172	175	177	180	183	186	188	189	190	190	188	187	187	187	186	187	187	185	184	184	184	185	187	188	187	185	184	183	182	183	188	191	192	192	192	192	192	191	190	188	188	186	183	180	177	174	171	168	166	164	163	164	165	161	158	155	152	149	145	141	138	135	131	127	123	120	118	117	115	113	112	111	111	111	112	112	113	113	114	116	117	118	118	119	120	120	121	121	121	122	122	122	123	123	124	125	125	126	127	127	128	128	129	129	130	131	131	132	133	133	134	134	135	136	137	137	138	139	140	142	144	145	145	145	145	145	145	145	145	144	143	142	140	137	134	132	130	127	125	123	121	121	120	120	120	120	120	120	122	126	130	132	132	132	131	130	131	131	131	131	131	131	132	133	135	137	139	141	142	143	143	143	144	145	146	146	147	149	150	150	150	150	150	150	148	143	142	142	143	145	146	146	145	145	144	143	142	142	141	140	139	139	138	138	139	140	141	142	143	144	145	145	146	146	148	150	153	155	155	156	157	158	159	160	160	161	162	164	166	168	171	173	174	177	179	179	180	179	179	180	179	180	179	180	180	179	179	178	176	175	173	170	167	163	160	158	156	154	151	147	144	143	143	143	143	143	143	143	143	143	143	143	143	143	141	139	139	139	138	136	132	128	126	125	123	121	119	118	118	118	119	119	120	120	120	121	121	121	122	122	122	122	123	123	124	124	124	124	124	124	125	123	120	115	112	110	108	107	106	106	105	105	105	105	105	105	105	104	104	104	104	104	104	104	104	103	101	100	97	94	93	93	93	93	93	92	90	89	88	88	88	87	87	87	87	87	87	86	83	79	76	75	74	74	73	71	71	71	70	69	65	61	59	59	59	59	59	59	59	58	56	55	55	55	55	53	51	50	51	52	53	53	51	48	46	47	47	47	48	48	48	47	45	43	44	45	46	46	46	46	45	44	44	43	43	42	41	41	40	39	39	38	38	38	38	38	39	41	41	40	40	39	38	34	27	24	23	23	22	22	22	20	18	17	16	16	15	15	15	15	14	13	12	11	11	11	10	10	10	10	10	9	9	9	9	8	8	8	8	8	7	7	7	7	7	7	7	7	7	7	7	7	6	6	6	6	6	5	5	5	5	5	5	5	5	5	5	5	5	5	5	5	5	5	5	5	5	5	5	5	5	5	5	5	5	5	5	5	5	5	5	5	5	5	5	5	5	5	5	5	4	4	4	5	5	5	5	5	5	5	5	6	6	5	5	5	5	5	5	5	5	5	5	5	5	5	5	5	5	5	5	5	5	5	5	5	5	5	5	5	5	5	5	5	5	5	5	5	5	5	5	5	5	5	5	5	5	6	5	5	5	6	6	6	6	6	6	6	7	7	8	8	7	6	6	6	6	6	5	5	5	6	6	6	6	6	6	6	6	6	6	6	6	6	6	6	6	6	6	6	5	5
0	0	0	0	0	0	0	0	0	0	0	0	0	0	0	0	0	0	0	0	0	0	0	0	0	0	0	0	0	0	0	0	0	0	0	0	0	0	0	0	0	0	0	0	0	0	0	0	0	0	0	0	0	0	0	0	0	0	0	0	0	0	0	0	0	1	4	4	3	3	4	4	5	10	13	11	11	7	5	4	4	5	5	5	5	4	4	4	4	4	4	4	5	5	5	5	5	6	7	8	10	13	20	22	21	11	6	5	6	8	9	9	10	11	11	12	12	13	13	13	13	13	13	13	13	13	13	12	12	12	11	11	12	12	13	13	13	14	14	15	15	15	16	16	17	17	17	17	17	18	18	18	19	20	21	21	22	23	23	24	24	24	24	24	24	24	24	24	24	25	25	25	25	26	26	26	26	26	26	26	27	26	26	26	26	26	25	24	24	23	23	23	23	22	22	23	23	23	23	22	22	22	23	22	21	20	16	12	9	7	7	7	8	9	10	10	11	11	11	11	12	12	12	11	11	10	10	10	11	12	12	13	14	14	14	14	14	14	14	14	14	14	14	14	14	13	13	13	13	13	13	13	12	11	11	11	11	11	11	11	11	11	11	11	11	11	11	11	12	12	12	12	12	12	12	12	12	12	12	13	27	41	46	49	51	52	53	51	51	60	62	62	62	62	62	62	62	62	64	73	73	62	60	61	62	62	62	62	62	62	62	62	62	62	62	62	63	65	72	85	96	96	93	90	87	82	79	78	78	78	78	78	78	79	81	83	89	91	88	89	88	91	96	99	100	103	109	111	112	118	124	126	126	128	132	136	140	142	143	146	151	155	156	157	160	164	168	170	173	175	178	181	183	186	187	188	189	188	186	184	183	183	183	183	183	182	182	182	182	182	183	184	183	182	181	180	178	180	183	188	190	189	189	190	190	189	188	187	187	185	183	180	177	174	171	169	166	164	163	164	163	161	159	156	151	148	145	141	138	134	131	128	124	120	117	116	114	112	111	110	110	110	111	111	112	113	114	115	115	116	116	117	117	118	118	119	120	120	120	121	121	121	121	122	123	123	121	121	122	123	126	127	128	129	129	130	131	131	131	131	131	131	132	133	135	137	140	142	144	144	145	145	145	145	145	145	145	144	143	141	139	136	133	131	129	126	124	122	120	120	120	120	120	120	120	120	120	122	125	128	129	128	128	129	130	130	131	131	131	130	130	131	131	133	135	138	140	141	142	143	143	144	145	146	147	149	150	150	150	150	150	150	148	143	142	142	142	144	145	145	144	143	142	141	140	138	137	135	134	133	133	133	133	134	136	138	140	141	142	143	144	144	145	146	149	154	156	156	157	157	157	158	157	154	155	158	161	164	166	169	171	175	177	177	177	177	177	178	177	178	178	177	177	177	177	175	173	170	167	165	160	155	151	148	147	146	144	144	143	143	143	143	143	143	143	143	143	143	143	143	143	142	140	139	140	139	136	132	128	125	123	123	121	120	119	118	119	119	119	120	120	120	121	121	121	121	122	122	122	122	123	123	124	124	124	124	124	124	123	119	114	111	109	108	107	106	106	105	105	105	105	105	105	104	104	104	104	104	104	104	104	104	104	102	100	99	96	93	93	93	93	92	92	90	89	88	88	87	86	86	85	86	87	87	86	83	80	77	75	74	74	73	72	71	71	71	69	65	61	59	59	59	59	59	59	59	58	57	55	55	55	55	54	52	51	50	50	51	51	51	51	49	47	46	47	47	47	48	46	44	42	41	42	44	45	45	44	43	43	43	42	41	40	39	38	38	37	37	37	37	38	38	38	38	39	40	40	40	39	39	38	33	26	24	23	23	22	22	21	19	18	17	16	16	15	15	15	14	13	12	12	11	11	11	11	10	10	10	9	9	9	9	9	9	8	8	8	8	7	7	7	7	7	7	7	7	7	7	6	6	6	6	6	6	6	5	5	5	5	5	5	5	5	5	5	5	5	5	5	5	5	5	5	5	5	5	5	5	5	5	5	5	5	5	5	5	5	5	5	5	5	5	5	5	5	5	5	5	5	4	5	5	5	5	5	5	5	5	5	5	5	5	5	5	5	5	5	6	6	6	5	5	5	5	5	5	5	5	5	5	5	5	5	5	5	5	5	5	5	5	5	5	5	5	5	5	5	5	5	5	5	5	5	5	5	6	6	6	6	6	6	6	6	6	6	7	7	7	8	8	7	6	6	6	6	6	6	6	6	6	6	6	6	6	6	6	6	6	6	6	6	6	6	6	6	6	6	6	5	5
0	0	0	0	0	0	0	0	0	0	0	0	0	0	0	0	0	0	0	0	0	0	0	0	0	0	0	0	0	0	0	0	0	0	0	0	0	0	0	0	0	0	0	0	0	0	0	0	0	0	0	0	0	0	0	0	0	0	0	0	0	0	0	0	0	0	0	0	1	2	3	4	4	5	5	5	5	5	4	4	4	4	5	5	5	4	4	4	4	4	4	4	4	4	4	4	4	5	5	5	6	7	10	12	11	6	5	6	6	6	8	9	10	11	11	11	11	12	12	11	11	11	11	12	12	12	12	11	11	11	10	10	10	10	10	11	11	11	11	12	12	12	13	13	14	15	15	15	15	15	16	16	17	18	18	19	20	20	21	21	22	22	22	23	23	23	23	23	23	23	23	24	24	24	25	25	25	25	25	25	25	25	25	25	25	24	23	22	22	22	22	22	21	21	21	21	21	21	21	20	19	19	20	19	18	17	14	10	8	7	7	7	8	9	9	10	10	11	11	11	11	12	11	10	10	9	9	9	10	10	11	13	14	14	14	14	14	14	14	14	14	14	14	14	14	13	13	13	13	13	14	14	13	11	11	11	11	11	11	11	11	11	11	11	11	11	11	11	12	12	12	12	12	12	12	12	12	12	12	13	22	37	43	47	49	51	53	52	50	57	62	62	62	62	62	62	62	62	66	72	63	60	60	60	61	62	62	62	62	62	62	62	62	62	62	62	62	62	63	66	80	81	79	80	80	78	78	78	78	78	78	78	78	78	79	80	82	82	79	78	77	81	95	100	101	102	106	110	112	117	123	125	126	128	132	137	139	141	143	147	152	155	156	158	162	165	168	171	173	176	179	181	183	185	186	187	187	186	184	181	180	179	179	179	179	179	178	179	180	179	179	179	178	178	178	176	175	177	181	186	186	186	187	188	188	188	187	186	185	184	181	179	178	175	173	171	168	165	165	165	162	160	158	154	150	147	144	140	137	134	131	128	124	120	117	114	112	111	110	109	109	110	111	111	112	113	114	114	114	115	115	116	116	116	116	116	117	117	118	117	117	115	112	111	112	111	108	108	108	110	117	118	118	118	119	119	120	120	120	120	120	120	121	123	127	132	138	141	143	144	144	144	144	145	145	145	144	144	143	141	138	134	132	130	128	125	122	120	119	118	118	119	119	119	119	120	120	120	121	122	124	125	125	127	128	129	129	130	130	130	130	129	129	130	131	133	136	138	140	142	143	143	143	144	146	149	150	150	150	150	150	150	147	143	142	142	142	142	143	143	142	141	139	136	133	130	130	128	127	127	127	127	127	128	129	131	134	136	138	140	142	143	143	143	145	150	155	157	157	157	157	156	151	147	148	152	156	159	162	165	168	170	171	172	172	172	172	172	172	172	172	172	172	171	171	170	168	164	161	157	151	147	144	144	144	143	143	143	143	143	143	143	143	143	143	143	143	143	143	143	142	141	140	139	139	137	132	128	124	122	121	121	120	119	119	119	119	119	119	119	120	121	121	121	121	122	122	122	122	122	123	123	123	124	124	124	124	122	118	113	110	108	108	107	106	106	105	105	105	105	105	105	104	104	104	104	104	104	104	104	104	104	103	101	99	98	95	93	93	93	92	91	90	89	89	88	87	86	85	85	85	85	86	86	84	80	77	75	74	74	73	72	72	71	71	69	65	61	59	59	59	59	59	58	59	59	58	56	55	55	55	54	53	51	50	50	51	50	49	49	49	49	47	46	46	47	47	46	44	41	40	39	40	42	44	43	42	42	42	41	40	39	38	37	37	37	37	37	37	37	38	38	38	38	38	39	39	39	39	39	38	31	25	24	23	23	22	22	20	18	17	17	16	16	16	15	15	14	13	12	12	12	11	11	11	10	10	10	9	9	9	9	9	9	9	8	8	8	7	7	7	7	7	7	7	7	7	6	6	6	6	6	6	6	5	5	5	5	5	5	5	5	5	5	5	5	5	5	5	5	5	5	5	5	5	5	5	5	5	5	5	5	5	5	5	5	5	5	5	5	5	5	5	5	5	5	5	5	5	5	5	5	5	5	5	5	5	5	5	5	5	5	5	5	5	5	6	6	6	6	5	5	5	5	5	5	5	5	5	5	5	5	5	5	5	5	5	5	5	5	5	5	5	5	5	5	5	5	5	5	5	5	5	5	5	5	6	6	6	6	6	6	6	6	6	7	7	7	7	7	7	6	6	6	6	6	6	6	6	6	6	6	6	6	6	6	6	6	6	6	6	6	6	6	6	6	6	6	6	5
0	0	0	0	0	0	0	0	0	0	0	0	0	0	0	0	0	0	0	0	0	0	0	0	0	0	0	0	0	0	0	0	0	0	0	0	0	0	0	0	0	0	0	0	0	0	0	0	0	0	0	0	0	0	0	0	0	0	0	0	0	0	0	0	0	0	0	0	0	0	1	2	3	3	3	3	4	4	4	4	4	4	4	5	4	4	4	4	4	4	4	4	4	4	4	4	4	4	4	5	5	6	6	6	6	5	5	5	6	6	6	8	9	10	10	10	11	11	11	11	11	10	11	11	11	11	11	11	11	10	10	10	10	10	10	10	10	10	10	10	10	11	11	11	12	13	13	13	13	13	14	14	14	15	16	16	17	18	18	19	19	20	20	20	21	21	22	22	22	22	22	22	23	23	23	23	23	23	23	23	23	23	23	23	23	22	22	21	20	20	20	20	19	19	19	19	19	19	18	17	16	17	18	17	16	14	12	9	7	6	7	7	7	8	8	9	10	10	10	10	10	10	9	9	9	8	8	8	8	9	11	13	14	14	14	14	14	14	14	14	14	14	14	14	14	14	13	13	13	14	14	14	13	11	10	10	11	11	11	11	11	11	11	11	11	11	11	11	12	12	12	12	12	13	13	12	12	12	13	17	27	35	39	42	46	49	51	50	49	56	61	62	62	62	62	62	62	63	69	70	62	61	62	60	59	61	62	62	62	62	63	65	64	63	62	62	62	62	62	66	75	76	76	76	77	78	78	78	78	78	78	78	78	78	79	79	78	77	76	76	76	80	96	100	100	101	104	108	112	116	121	123	125	127	131	134	137	139	143	148	153	155	157	159	163	166	169	171	174	177	180	182	183	184	185	186	185	184	182	179	177	176	176	175	175	174	173	175	177	177	175	174	173	173	172	170	170	172	176	181	183	183	184	185	186	186	185	184	183	181	180	180	180	178	176	175	171	168	167	165	162	159	155	151	148	146	142	139	136	134	131	127	123	119	116	113	111	109	108	108	108	109	109	110	111	112	113	113	113	112	111	110	108	106	104	104	104	105	106	107	108	107	106	106	106	106	105	105	105	106	107	107	107	108	108	108	108	108	109	109	109	109	110	114	120	127	135	140	141	143	143	143	144	144	144	144	144	143	142	140	136	133	130	129	126	124	121	119	118	117	116	116	117	117	117	117	118	118	118	118	120	121	123	124	127	128	128	129	129	129	129	129	129	129	129	130	131	133	136	139	141	142	143	143	144	146	148	149	149	149	148	148	145	143	142	142	142	142	142	141	138	133	129	127	125	123	123	123	122	122	122	123	123	123	123	125	127	130	132	135	138	141	142	142	143	146	152	156	157	156	156	153	146	143	143	146	149	153	157	160	163	165	166	166	167	167	167	167	167	167	167	166	166	166	166	164	161	158	153	148	145	144	143	143	143	143	143	143	143	143	143	143	143	143	143	143	143	143	143	142	141	140	140	139	137	132	127	124	122	121	120	120	120	120	119	119	119	118	118	118	119	120	121	122	122	122	122	122	122	122	123	123	124	124	124	123	121	117	112	110	108	107	107	106	105	105	105	105	105	105	104	104	104	104	104	104	104	104	104	103	103	103	102	100	99	97	95	93	93	92	91	90	89	89	89	88	87	85	85	85	85	85	85	83	80	77	75	74	74	73	73	72	72	72	71	67	62	59	59	59	59	59	59	59	59	58	57	55	55	55	55	54	52	51	50	51	50	49	48	47	47	48	47	46	46	46	45	43	41	39	39	39	39	40	42	42	42	41	40	38	38	37	37	37	37	37	37	37	38	38	38	38	38	38	38	39	39	39	39	38	34	27	24	23	23	22	22	21	19	18	17	17	17	16	16	16	15	13	12	12	12	12	12	11	11	11	10	10	9	9	9	9	9	9	9	9	8	8	7	7	7	7	7	7	7	7	6	6	6	6	6	6	6	6	5	5	5	5	5	5	5	5	5	5	5	5	5	5	5	5	5	5	5	5	5	5	5	5	5	5	5	5	5	5	5	5	5	5	5	5	5	5	5	5	5	5	5	5	5	5	5	5	5	5	5	5	5	5	5	5	5	5	5	5	5	5	6	6	6	6	5	5	5	5	5	5	5	5	5	5	5	5	5	5	5	5	5	5	5	5	5	5	5	5	5	5	5	5	5	5	5	5	5	5	5	5	5	5	5	6	6	6	6	6	6	6	6	6	6	7	7	6	6	6	6	6	6	6	6	6	6	6	5	6	6	6	6	6	6	6	6	6	6	6	6	6	6	6	6	5
0	0	0	0	0	0	0	0	0	0	0	0	0	0	0	0	0	0	0	0	0	0	0	0	0	0	0	0	0	0	0	0	0	0	0	0	0	0	0	0	0	0	0	0	0	0	0	0	0	0	0	0	0	0	0	0	0	0	0	0	0	0	0	0	0	0	0	0	0	0	0	0	0	1	1	2	3	3	4	4	4	4	4	4	4	4	4	4	4	4	4	4	4	4	4	4	4	4	4	4	5	5	5	5	5	5	5	5	5	6	6	6	8	8	9	9	10	10	10	10	10	10	10	10	10	10	10	10	10	10	10	9	9	9	9	9	9	9	9	9	9	9	9	10	10	11	11	11	11	11	11	11	12	13	13	14	14	15	16	16	17	17	17	18	18	19	19	20	21	21	21	21	21	22	22	22	22	22	22	22	21	21	21	21	21	21	20	19	18	18	17	17	17	17	17	17	17	16	16	15	16	16	16	15	14	12	10	8	7	6	7	7	7	7	7	8	8	9	9	8	8	8	8	8	8	7	7	6	7	7	9	11	14	14	14	14	14	14	14	14	14	14	14	14	14	14	14	14	14	14	14	14	12	10	10	10	10	11	10	10	10	10	10	10	11	11	11	11	11	12	12	12	13	13	13	13	12	12	14	22	33	35	39	41	45	48	48	49	49	51	58	62	62	62	62	62	62	62	64	64	62	62	62	59	59	60	61	62	63	66	69	73	74	69	64	62	62	62	63	71	77	77	77	77	77	78	79	80	80	78	78	78	78	79	80	80	78	77	76	76	77	83	97	99	100	102	104	107	111	115	119	122	124	126	129	132	135	138	143	148	153	156	158	160	163	166	169	171	174	177	180	182	182	183	183	184	184	183	181	178	175	173	172	171	171	170	170	171	174	174	172	170	168	167	166	165	167	169	171	175	179	180	181	182	183	183	182	181	181	180	178	180	181	179	177	175	172	170	168	165	161	157	153	150	148	145	141	138	135	132	130	126	121	118	116	112	108	107	106	105	104	103	102	101	102	105	105	104	102	101	99	98	97	96	96	96	96	96	97	101	105	105	105	105	105	105	105	105	105	105	105	105	105	105	105	105	105	106	105	105	106	105	106	110	117	125	133	138	140	141	142	142	142	142	142	142	142	142	142	139	135	131	129	128	125	122	120	118	117	115	114	114	114	115	115	114	114	114	113	114	117	119	120	122	124	127	128	128	129	129	129	129	129	128	128	128	128	129	131	134	137	140	142	143	143	144	145	145	145	145	145	144	143	142	142	142	142	140	137	131	126	123	122	121	121	121	121	121	121	121	121	121	121	121	121	121	122	123	125	128	132	138	141	142	142	144	149	155	156	157	155	149	143	142	142	143	144	147	150	154	158	160	161	162	162	162	162	162	162	162	162	161	161	161	160	158	154	150	146	144	143	143	143	143	143	143	143	142	142	142	142	142	142	142	143	143	143	142	141	141	140	140	138	135	130	125	122	121	121	121	120	120	120	120	119	118	116	116	116	117	117	118	121	122	122	122	122	122	122	122	123	123	124	123	122	119	115	111	109	108	107	106	106	105	105	105	105	104	104	104	104	104	104	104	104	103	103	103	103	103	103	103	102	99	98	96	94	93	92	91	90	89	89	89	89	88	87	86	84	85	85	85	83	80	77	75	75	74	74	73	73	72	72	71	71	68	63	60	60	60	59	59	59	59	59	57	56	55	55	55	54	53	51	50	50	50	49	47	46	45	46	46	46	46	46	45	42	40	39	39	39	39	38	39	40	41	41	39	38	37	37	37	37	37	37	37	37	38	37	38	38	38	39	39	39	39	39	39	38	34	28	24	24	23	23	22	22	20	19	18	18	18	17	17	17	16	14	13	12	12	12	12	12	12	11	11	10	10	9	9	9	9	9	9	9	9	8	8	8	7	7	7	7	7	7	7	6	6	6	6	6	6	6	6	6	5	5	5	5	5	5	5	5	5	5	5	5	5	5	5	5	5	5	5	5	5	5	5	5	5	5	5	5	5	5	5	5	5	5	5	5	5	5	5	5	5	5	5	5	5	5	5	5	5	5	5	5	5	5	5	5	5	5	5	5	5	5	6	6	5	5	5	5	5	5	5	5	5	5	5	5	5	5	5	4	5	5	5	5	5	5	5	5	5	5	5	5	5	5	5	5	5	5	5	5	5	5	5	5	6	6	6	6	6	6	5	5	5	6	6	7	6	6	6	6	6	6	6	6	6	6	6	5	6	6	6	6	6	7	7	7	7	6	6	6	6	6	6	6	5
0	0	0	0	0	0	0	0	0	0	0	0	0	0	0	0	0	0	0	0	0	0	0	0	0	0	0	0	0	0	0	0	0	0	0	0	0	0	0	0	0	0	0	0	0	0	0	0	0	0	0	0	0	0	0	0	0	0	0	0	0	0	0	0	0	0	0	0	0	0	0	0	0	0	0	0	1	1	2	3	3	4	4	4	4	4	4	4	4	4	4	4	4	4	4	4	4	4	4	4	4	4	4	4	4	4	5	5	5	5	5	6	7	8	8	8	8	9	10	10	10	10	9	10	10	10	9	9	9	9	9	9	9	9	9	9	9	9	8	8	8	8	8	8	9	9	9	10	9	9	9	9	9	10	11	11	12	12	13	13	14	14	15	15	16	16	17	18	19	19	20	20	20	20	20	21	21	21	21	20	20	20	20	20	19	19	18	17	16	16	15	15	16	16	16	16	16	16	16	15	15	15	14	14	13	11	9	8	6	6	7	7	7	7	7	7	7	8	8	7	7	7	7	7	7	7	6	6	6	6	6	8	10	11	12	12	13	13	14	14	14	14	14	14	14	14	14	14	14	14	14	14	12	10	10	10	10	10	10	10	10	10	10	10	10	10	11	11	11	12	12	12	13	13	13	13	13	12	14	23	33	36	39	42	46	47	47	48	50	50	53	59	61	62	62	60	59	58	59	61	62	61	61	60	61	59	52	59	63	69	71	74	76	74	67	63	63	64	69	75	76	78	78	77	78	80	83	84	85	82	78	77	77	78	79	79	78	77	77	78	84	92	99	100	101	103	105	107	110	113	118	121	123	124	128	131	134	139	144	148	153	157	158	160	162	165	168	172	174	176	178	180	181	181	182	182	182	181	179	176	172	170	169	168	168	168	167	168	169	169	167	165	163	162	163	163	165	167	168	171	176	178	179	180	180	180	179	179	179	178	176	177	177	176	175	174	172	171	168	165	161	156	152	150	147	144	140	136	133	131	128	124	120	118	114	110	105	101	98	98	97	97	96	96	96	97	96	96	96	96	95	95	95	95	95	95	95	95	97	101	105	105	105	105	105	105	105	105	105	105	105	105	105	105	105	105	105	105	105	105	105	105	106	109	116	124	132	137	139	140	141	141	141	141	142	142	142	142	141	137	133	130	128	126	124	121	119	117	115	114	112	112	112	113	112	112	112	112	111	111	114	117	118	119	121	124	127	128	128	128	128	128	128	128	128	127	127	127	127	129	132	136	139	141	142	142	143	143	143	143	143	143	143	142	141	138	135	130	125	122	121	121	120	121	120	120	120	120	120	120	120	120	120	120	120	120	121	121	122	123	125	132	138	141	142	143	147	152	155	156	153	146	142	142	143	143	143	144	145	148	151	153	155	156	157	157	157	157	157	156	156	155	155	155	154	151	147	145	144	143	143	143	143	143	143	142	142	142	142	142	142	142	142	142	142	142	142	141	140	140	139	137	132	127	123	121	121	121	121	121	120	120	120	119	117	114	111	110	108	109	113	116	118	120	122	122	122	122	122	122	122	121	120	118	115	112	109	108	107	107	106	106	106	105	105	104	104	104	104	104	104	104	104	103	103	103	103	103	103	103	103	102	101	98	97	95	93	92	91	90	89	89	89	89	89	89	88	86	85	85	85	83	81	77	76	75	74	74	73	73	73	72	72	71	70	69	65	62	61	61	60	60	60	59	58	56	55	54	54	55	54	52	50	50	50	49	47	46	45	45	45	45	45	45	44	42	40	39	39	39	38	38	38	38	39	40	40	39	37	37	37	37	37	37	37	37	37	38	37	38	38	38	39	39	39	39	39	38	34	28	25	24	23	23	22	22	21	20	19	19	18	18	18	18	17	15	13	12	12	12	12	12	12	12	11	11	10	10	9	9	9	9	9	9	9	9	8	8	8	8	7	7	7	7	7	7	6	6	6	6	5	5	6	6	6	6	5	5	5	5	5	5	5	5	5	5	5	5	5	5	5	5	5	5	5	5	5	5	5	5	5	5	5	5	5	5	5	5	5	5	5	5	5	5	5	5	5	5	5	5	5	5	5	5	5	5	5	5	5	5	5	5	5	5	5	5	5	5	5	5	5	5	5	5	5	5	5	5	5	5	5	5	5	4	4	4	5	4	4	4	4	4	4	4	5	5	5	5	5	5	5	5	5	5	5	5	5	5	5	6	6	6	6	6	6	5	5	5	6	7	7	6	6	5	6	6	6	6	6	6	6	6	6	6	6	6	6	7	7	7	7	7	7	6	6	6	6	6	6	5
0	0	0	0	0	0	0	0	0	0	0	0	0	0	0	0	0	0	0	0	0	0	0	0	0	0	0	0	0	0	0	0	0	0	0	0	0	0	0	0	0	0	0	0	0	0	0	0	0	0	0	0	0	0	0	0	0	0	0	0	0	0	0	0	0	0	0	0	0	0	0	0	0	0	0	0	0	0	0	1	1	2	3	3	4	4	4	4	4	4	4	4	4	4	4	4	4	4	4	4	4	4	4	4	4	4	4	5	5	5	5	5	6	7	7	7	7	8	9	9	9	9	9	9	9	9	9	8	8	8	8	8	8	8	8	8	8	8	8	8	8	8	8	7	7	7	8	8	8	7	6	7	7	7	8	9	9	10	10	11	11	12	12	13	13	14	15	15	16	17	18	19	19	19	19	19	20	20	20	19	18	18	18	18	18	17	16	16	15	14	14	14	14	14	14	15	15	15	14	14	14	14	13	12	11	10	8	7	6	6	7	7	7	7	7	7	7	7	7	7	7	7	7	7	7	7	6	6	6	6	6	6	6	7	8	8	9	10	11	11	11	12	13	13	14	14	14	14	14	14	14	13	12	10	10	10	10	10	10	10	10	10	9	10	10	10	10	11	11	12	12	13	13	13	12	13	13	12	14	24	33	36	39	42	46	47	46	47	50	50	50	52	56	58	58	56	55	56	59	61	61	61	60	61	60	48	38	44	57	66	70	71	71	71	65	63	63	68	73	74	74	76	77	77	81	85	86	86	86	88	84	78	77	77	78	79	78	77	77	81	90	95	99	101	102	104	106	108	110	112	115	118	120	122	125	128	132	139	145	148	153	156	157	159	162	165	168	171	173	175	177	178	179	179	179	180	180	178	176	173	170	168	166	165	164	165	165	164	165	165	164	161	159	160	161	161	164	165	164	167	173	177	177	176	176	176	175	175	175	174	173	173	172	171	171	172	172	171	168	165	160	155	152	149	146	143	138	132	130	128	125	122	119	116	112	107	102	97	96	95	95	95	95	95	95	95	95	95	95	95	95	95	95	95	95	95	95	95	97	102	105	105	105	105	105	105	105	105	105	105	105	105	105	105	105	105	105	105	105	105	105	105	106	109	116	124	130	134	136	137	138	139	139	140	140	140	140	140	138	134	130	128	127	125	123	120	117	116	114	113	112	111	111	111	111	111	111	111	111	111	113	116	116	116	118	121	125	127	127	127	127	127	127	128	128	127	127	126	126	126	128	131	134	137	140	141	142	142	143	143	142	142	141	138	133	128	124	122	121	120	120	120	120	120	120	120	120	120	120	120	120	120	120	120	120	120	120	120	121	121	121	125	132	139	142	142	145	148	151	153	149	143	142	142	143	143	143	143	143	144	145	146	148	150	151	151	151	151	150	150	149	149	148	148	147	145	144	143	143	143	143	143	143	143	142	142	142	142	142	142	142	142	142	141	141	141	140	140	139	137	133	129	124	122	121	121	121	121	121	120	120	120	120	119	115	110	107	104	99	95	95	105	114	117	119	121	121	120	119	118	116	114	113	111	109	108	108	107	107	106	106	106	105	105	104	104	104	104	103	103	103	103	103	103	103	103	103	102	102	102	103	102	99	97	96	94	92	91	90	89	89	89	89	89	89	89	88	87	85	84	83	80	77	76	75	74	74	74	74	73	73	72	72	71	70	69	67	64	62	62	61	61	60	59	57	55	54	54	54	54	53	51	50	50	49	47	46	45	45	45	45	45	44	43	42	40	39	39	39	38	38	38	38	38	38	39	39	39	37	37	37	37	37	37	37	37	38	38	38	38	38	38	39	39	39	39	39	36	29	25	24	24	23	23	22	22	21	20	20	19	19	19	18	18	16	14	13	12	13	12	12	12	12	12	11	11	10	10	9	9	9	9	9	9	9	9	9	8	8	8	7	7	7	7	7	6	6	6	6	5	5	5	6	7	7	6	5	5	5	5	5	5	5	5	5	5	5	5	5	5	5	5	5	5	5	5	5	5	5	5	5	5	5	5	5	5	5	5	5	5	5	5	5	5	5	5	5	5	5	5	5	5	5	5	5	6	6	6	6	6	5	5	5	5	5	5	5	5	5	5	5	5	5	4	4	5	5	5	5	5	5	5	5	5	4	4	4	4	4	4	4	4	4	4	4	5	5	5	5	5	5	5	5	5	5	5	5	5	5	5	5	5	5	6	6	6	6	6	6	6	6	6	6	6	6	6	6	5	5	5	6	6	6	6	6	6	7	7	7	7	7	7	7	7	7	7	6	6	6	5
0	0	0	0	0	0	0	0	0	0	0	0	0	0	0	0	0	0	0	0	0	0	0	0	0	0	0	0	0	0	0	0	0	0	0	0	0	0	0	0	0	0	0	0	0	0	0	0	0	0	0	0	0	0	0	0	0	0	0	0	0	0	0	0	0	0	0	0	0	0	0	0	0	0	0	0	0	0	0	0	0	0	1	1	2	3	4	4	5	4	4	4	4	4	4	4	4	4	4	4	4	4	4	4	4	4	4	4	4	5	5	5	5	6	7	7	7	7	8	8	9	9	8	9	9	8	8	8	8	8	7	8	8	8	8	8	8	8	8	8	8	8	8	7	7	7	7	7	7	6	6	6	6	6	7	7	7	7	8	8	9	9	10	10	11	11	12	13	13	14	15	16	17	17	18	18	18	19	18	17	17	16	16	16	16	15	15	14	13	12	12	12	13	13	13	13	13	13	13	13	13	13	12	11	11	9	8	7	6	6	7	7	7	7	7	7	7	7	7	7	7	7	7	7	7	6	6	6	6	6	6	6	6	6	6	6	7	7	7	7	7	8	9	10	11	12	12	13	14	14	14	13	11	10	10	10	10	9	9	9	9	9	9	9	9	9	10	10	11	11	12	13	13	13	12	12	12	13	15	28	36	38	39	41	45	47	47	49	51	50	51	51	52	53	53	54	55	57	60	61	60	60	60	59	52	38	36	37	41	54	65	67	67	67	66	63	62	66	71	73	73	73	73	74	80	86	86	85	86	88	88	82	77	77	77	78	78	77	77	83	91	95	98	101	103	104	107	108	109	110	112	114	117	120	123	126	130	136	144	147	152	154	155	157	161	165	168	170	171	173	174	176	177	177	177	176	176	175	173	171	168	165	162	161	160	161	161	161	161	162	160	158	156	156	156	158	161	162	161	163	169	173	174	173	172	172	172	172	172	171	170	170	169	169	169	170	171	170	167	164	159	154	151	148	145	141	134	125	122	122	122	119	118	114	110	105	101	96	95	95	95	95	95	95	95	95	95	95	95	95	95	95	95	95	95	95	95	95	98	103	105	105	105	105	105	105	105	105	105	105	105	105	105	105	105	105	105	105	105	105	105	105	106	110	116	124	129	131	132	133	133	134	135	135	136	137	137	136	134	131	129	128	127	124	121	118	116	115	113	112	112	112	111	111	111	111	111	111	111	111	112	114	115	115	116	118	122	125	126	126	127	127	127	127	127	127	127	126	126	125	125	127	130	133	135	137	139	139	140	140	139	137	134	129	124	122	121	121	120	120	120	120	120	120	120	120	120	120	120	120	120	120	120	120	120	120	120	120	120	121	121	121	123	129	136	141	142	144	145	146	144	142	142	142	143	143	143	143	143	143	144	144	144	145	146	146	146	146	145	145	145	145	144	144	144	143	143	143	143	143	143	143	142	142	142	142	142	141	141	141	141	141	141	141	140	140	138	136	133	130	126	123	121	121	120	120	120	120	120	120	120	120	121	120	116	110	105	100	95	89	87	90	100	111	115	116	116	115	114	113	111	111	110	109	108	108	107	107	106	106	106	105	105	104	104	104	103	103	103	103	103	103	103	103	103	103	103	102	102	102	102	100	98	96	95	93	91	90	89	89	89	89	89	89	89	88	87	86	85	83	80	77	76	75	75	74	74	74	74	73	73	72	72	71	71	70	67	65	63	62	61	61	60	58	56	54	54	54	55	54	52	50	50	49	47	46	45	45	45	45	45	44	43	41	40	39	38	38	38	38	38	37	37	37	37	38	38	38	38	37	37	37	37	37	37	37	38	37	38	38	38	39	39	39	39	39	38	34	26	24	24	24	23	23	22	22	21	21	20	20	20	19	19	18	15	13	13	13	13	13	13	12	12	12	11	11	10	10	9	9	9	9	9	9	9	9	9	8	8	8	8	7	7	7	7	6	6	6	5	5	5	5	6	7	7	6	5	5	5	5	5	5	5	5	5	5	5	5	5	5	5	5	5	5	5	5	5	5	5	5	5	5	5	5	5	5	5	5	5	5	5	5	5	5	5	5	5	5	5	5	5	5	5	5	5	6	6	6	6	6	5	5	5	5	5	5	5	5	5	5	5	5	5	4	4	5	5	5	5	5	5	5	5	5	4	4	4	4	5	4	4	4	4	4	4	4	5	5	5	5	5	5	5	5	5	5	5	5	5	5	5	5	5	6	6	6	6	6	6	6	6	6	6	6	6	6	6	6	6	6	6	6	6	6	6	6	7	7	7	7	7	7	7	7	6	6	6	6	6	6
0	0	0	0	0	0	0	0	0	0	0	0	0	0	0	0	0	0	0	0	0	0	0	0	0	0	0	0	0	0	0	0	0	0	0	0	0	0	0	0	0	0	0	0	0	0	0	0	0	0	0	0	0	0	0	0	0	0	0	0	0	0	0	0	0	0	0	0	0	0	0	0	0	0	0	0	0	0	0	0	0	0	0	0	1	1	2	3	4	4	4	4	4	4	4	4	4	4	4	4	4	4	4	4	4	4	4	4	4	4	4	5	5	5	5	6	7	7	8	8	8	8	8	8	8	8	7	7	7	7	7	7	7	7	7	7	7	7	7	7	7	7	7	7	7	7	7	7	6	6	6	6	6	6	6	7	7	7	7	7	7	7	8	8	8	9	9	10	11	11	12	13	14	14	15	15	16	17	16	16	15	15	14	14	14	14	14	13	12	11	12	12	12	12	12	12	12	12	12	12	12	12	11	11	10	9	7	7	6	6	7	7	7	7	7	7	7	7	7	8	8	8	8	7	7	6	6	6	6	6	7	7	7	7	7	7	7	7	7	6	6	6	7	7	8	8	9	10	11	12	12	11	10	10	10	10	9	9	9	9	9	8	8	9	9	9	9	10	10	11	12	12	13	13	12	12	12	13	16	29	37	38	39	41	45	49	52	54	53	52	53	53	53	54	53	54	56	60	61	61	61	60	58	51	38	35	35	36	36	40	49	61	65	65	65	62	62	64	66	70	72	72	71	71	74	82	84	83	85	86	88	87	81	78	76	77	78	77	77	80	88	89	92	100	102	103	105	106	106	107	109	111	115	117	121	125	129	135	142	146	150	152	153	156	161	166	168	169	170	171	172	173	173	174	174	173	172	172	170	167	164	161	158	157	157	158	158	158	158	158	156	153	153	153	153	155	158	158	158	162	167	169	170	170	170	170	170	169	168	168	167	167	167	167	168	168	169	168	165	162	156	152	150	147	142	138	131	123	120	118	117	118	117	112	108	104	100	96	95	95	95	95	95	95	95	95	95	95	95	95	95	95	95	95	95	95	95	95	98	104	105	105	105	105	105	105	105	105	105	105	105	105	105	105	105	105	105	105	105	105	105	105	106	111	117	124	128	128	128	129	129	130	130	131	131	132	132	132	130	129	128	127	126	123	119	117	115	114	113	112	112	112	111	111	111	111	111	111	111	111	112	113	114	114	115	115	117	122	125	126	126	126	126	126	126	127	126	126	126	125	125	125	126	128	131	133	135	134	134	133	132	128	125	122	121	120	120	120	120	120	120	120	120	120	120	120	120	120	120	120	120	120	120	120	120	120	120	120	120	120	120	121	121	122	126	133	139	141	142	142	142	142	142	142	143	143	143	143	143	143	144	144	144	144	144	144	144	143	143	143	143	143	143	143	143	143	143	143	143	143	143	142	142	142	142	142	141	141	141	141	141	141	140	140	139	137	134	130	126	123	121	121	120	120	120	120	120	120	120	120	120	121	121	121	118	112	106	99	90	87	86	86	89	98	108	113	113	113	112	111	110	110	109	109	108	108	107	107	106	106	105	105	104	104	104	103	103	103	103	103	103	103	103	103	103	103	102	102	102	102	101	98	96	94	93	92	90	90	89	89	89	89	89	89	89	88	86	85	83	80	78	77	76	75	75	74	74	74	74	74	73	73	72	72	71	71	69	66	63	62	61	60	59	57	55	53	54	54	55	53	50	49	49	48	46	45	45	45	45	44	44	43	41	39	38	38	38	38	38	37	37	37	37	37	37	37	37	38	37	36	36	36	37	37	37	37	38	38	38	38	38	38	37	38	38	38	37	33	26	24	24	24	23	22	22	22	21	21	21	20	20	20	19	17	14	13	13	13	13	13	13	13	12	12	11	11	10	10	9	9	9	9	9	9	9	9	9	8	8	8	8	7	7	7	7	6	6	6	5	5	5	5	6	6	7	6	5	5	5	5	5	5	5	5	5	5	5	5	5	5	5	5	5	5	5	5	5	5	5	5	5	5	5	5	5	5	5	5	5	5	5	5	5	5	5	5	5	5	5	5	5	5	5	5	5	6	6	6	6	6	5	5	5	5	5	5	5	5	5	5	5	5	5	4	4	4	4	5	5	5	5	5	5	5	4	4	4	4	5	5	5	5	5	4	4	5	5	5	5	5	5	5	5	5	5	5	5	5	5	5	5	5	5	6	6	6	6	6	6	6	6	6	6	6	6	6	6	6	6	6	6	6	6	6	6	6	6	6	7	7	7	7	7	7	6	6	6	6	6	6
0	0	0	0	0	0	0	0	0	0	0	0	0	0	0	0	0	0	0	0	0	0	0	0	0	0	0	0	0	0	0	0	0	0	0	0	0	0	0	0	0	0	0	0	0	0	0	0	0	0	0	0	0	0	0	0	0	0	0	0	0	0	0	0	0	0	0	0	0	0	0	0	0	0	0	0	0	0	0	0	0	0	0	0	0	0	0	1	1	2	3	3	4	4	4	4	4	4	4	4	4	4	4	4	4	4	4	4	4	4	4	4	4	4	4	5	6	6	7	8	8	8	8	8	7	7	7	7	6	6	6	6	6	6	7	7	7	7	7	7	7	7	7	7	7	7	7	7	6	6	6	6	6	6	6	7	7	7	7	7	7	7	7	7	7	8	8	8	8	9	9	10	10	11	12	12	13	13	14	14	13	13	13	13	13	13	12	12	11	11	11	11	11	11	11	11	12	12	12	12	11	11	11	10	9	8	7	7	6	6	7	7	7	7	7	7	7	6	6	7	8	8	8	7	7	6	6	6	6	6	7	7	7	7	7	7	7	7	7	7	7	7	7	7	7	8	8	9	9	9	9	9	9	9	9	9	9	9	9	8	8	8	8	8	8	8	9	9	10	11	11	12	13	12	11	11	12	13	14	25	35	36	39	43	47	52	56	57	56	56	57	55	54	54	53	54	57	60	61	61	61	59	52	41	35	35	35	36	36	36	38	47	60	62	62	61	62	63	63	65	68	68	67	66	68	73	76	79	81	83	86	89	88	83	77	76	77	77	76	77	78	78	83	98	101	102	103	104	105	105	106	109	113	115	119	125	129	134	141	145	148	151	153	156	160	165	167	167	168	169	169	169	170	170	170	170	169	168	167	164	161	158	155	154	155	155	155	155	155	154	152	149	148	148	149	151	152	153	155	160	166	167	167	167	167	167	166	165	165	165	165	165	164	164	164	164	163	162	161	156	152	151	149	145	140	135	132	128	125	122	119	120	115	108	104	101	98	96	95	95	95	95	95	95	95	95	95	95	95	95	95	95	95	95	95	95	95	96	99	104	105	105	105	105	105	105	105	105	105	105	105	105	105	105	105	105	105	105	105	105	105	105	107	112	118	124	127	128	128	128	128	128	128	128	128	129	129	128	128	128	128	127	125	121	118	115	113	112	112	112	111	111	111	111	111	111	111	111	111	111	111	112	114	114	114	114	115	118	121	124	125	126	126	126	126	126	126	126	126	125	125	124	124	125	127	128	129	129	127	126	124	122	121	121	120	120	120	120	120	120	120	120	120	120	120	120	120	120	120	120	120	120	120	120	120	120	120	120	120	120	120	120	120	121	121	123	128	135	140	141	142	142	142	142	143	143	143	143	143	143	143	143	143	143	143	143	143	143	143	143	143	143	143	143	143	143	143	143	143	143	142	142	142	142	142	141	141	141	141	140	140	139	138	137	135	132	128	125	122	121	120	120	120	120	120	120	120	120	120	120	121	121	121	121	120	115	107	95	87	86	85	85	87	90	96	106	111	112	112	111	110	110	109	109	108	108	107	106	106	105	105	104	104	104	103	103	103	103	103	103	103	103	103	103	103	103	102	102	102	101	99	96	94	93	92	91	90	89	89	89	89	89	89	89	88	86	84	82	80	78	77	77	77	76	75	74	74	74	74	73	73	73	73	72	72	71	70	68	64	62	60	59	58	56	54	53	54	54	54	52	50	49	49	48	46	45	45	45	44	43	42	40	39	38	38	38	38	38	37	37	37	37	37	37	37	36	37	37	37	36	36	36	37	37	37	37	37	37	37	36	35	34	33	34	35	36	35	33	28	24	24	23	23	22	22	22	22	21	21	21	21	20	19	16	14	13	13	13	13	13	13	13	12	12	11	10	10	10	9	9	9	9	9	9	9	9	9	8	8	8	8	7	7	7	7	6	6	6	5	5	5	5	6	6	6	6	6	5	5	5	5	5	5	5	5	5	5	5	5	5	5	5	5	5	5	5	5	5	5	5	5	5	5	5	5	5	5	5	5	5	5	5	5	5	5	5	5	5	5	5	5	5	5	5	5	5	6	6	6	5	5	5	5	5	5	5	5	5	5	5	5	5	5	4	4	4	4	5	5	5	4	4	4	5	5	4	4	5	5	5	5	5	5	5	5	5	5	5	5	5	5	5	5	5	5	5	5	5	5	5	5	5	5	6	6	6	6	6	6	6	6	6	6	6	6	6	6	6	6	6	6	6	6	6	6	6	6	6	7	7	7	7	7	7	6	6	6	6	6	6
0	0	0	0	0	0	0	0	0	0	0	0	0	0	0	0	0	0	0	0	0	0	0	0	0	0	0	0	0	0	0	0	0	0	0	0	0	0	0	0	0	0	0	0	0	0	0	0	0	0	0	0	0	0	0	0	0	0	0	0	0	0	0	0	0	0	0	0	0	0	0	0	0	0	0	0	0	0	0	0	0	0	0	0	0	0	0	0	0	0	1	1	2	3	4	4	4	4	4	4	4	4	4	4	4	4	4	4	4	4	4	4	4	4	4	4	5	5	6	7	7	7	7	7	7	7	6	6	6	6	6	6	6	6	6	6	6	6	6	6	6	6	6	6	6	6	6	6	6	6	6	6	6	6	6	6	7	7	7	7	7	7	7	7	7	8	8	8	8	7	7	7	8	8	8	9	10	10	11	11	11	11	11	11	11	11	10	10	10	10	10	10	10	10	11	11	11	11	11	11	11	10	10	10	9	8	7	7	6	6	7	7	7	7	7	7	6	6	6	6	7	7	7	7	7	6	6	6	6	6	6	7	7	7	7	7	7	7	7	7	7	7	7	8	8	8	9	10	9	9	8	8	8	9	9	9	9	9	8	8	7	7	7	7	8	8	8	8	9	10	11	12	12	12	11	11	12	12	13	21	32	35	40	45	48	51	54	55	55	56	56	55	54	54	54	55	57	59	61	60	59	54	41	35	34	35	35	36	36	36	36	39	53	58	59	61	63	63	63	64	64	64	64	65	66	72	76	76	77	80	83	87	89	87	79	76	76	76	76	76	76	76	79	96	101	101	102	104	105	105	105	107	111	114	118	125	130	134	139	144	147	151	154	155	159	163	164	165	166	166	167	166	166	166	167	167	166	165	163	161	158	156	153	152	152	152	152	152	151	150	149	147	146	145	145	146	147	150	153	159	164	164	164	163	163	163	163	162	163	163	163	162	161	160	160	159	158	156	154	150	149	149	147	143	139	135	132	130	129	127	124	121	114	104	101	98	96	95	95	95	95	95	95	95	95	96	96	96	95	95	95	95	95	95	95	95	95	96	100	105	105	105	105	105	105	105	105	105	105	105	105	105	105	105	105	105	105	105	105	105	105	105	107	113	119	124	126	127	127	128	128	128	128	128	128	128	128	128	128	128	128	127	124	120	116	113	111	110	110	109	110	110	111	111	111	111	111	111	111	111	111	112	113	114	114	114	114	115	117	120	123	125	125	126	126	125	125	125	125	125	125	124	124	124	124	124	124	124	123	122	121	121	120	120	120	120	120	120	120	120	120	120	120	120	120	120	120	120	120	120	120	120	120	120	120	120	120	120	120	120	120	120	120	121	121	121	122	125	132	137	140	142	142	142	143	143	143	143	143	143	143	143	143	143	143	143	143	143	143	143	143	143	143	143	143	143	143	143	143	142	142	142	142	142	141	141	141	141	140	140	138	137	134	132	129	126	123	121	120	120	120	120	120	120	120	120	120	120	120	120	121	121	121	122	121	114	100	89	86	85	85	85	86	88	91	95	104	110	111	110	110	109	109	108	108	107	106	106	105	105	105	104	104	104	103	103	103	103	103	103	103	103	103	103	103	103	102	102	101	99	96	94	93	93	92	91	90	90	89	89	89	89	89	88	87	84	82	81	79	78	78	78	77	76	75	74	74	74	74	73	73	73	72	72	72	72	71	70	68	63	60	59	57	54	53	53	53	53	52	50	49	49	49	49	48	46	45	45	43	41	39	38	38	38	38	38	37	37	37	37	37	36	36	36	36	36	36	36	36	36	36	36	36	36	36	36	35	34	33	32	31	30	30	30	32	34	34	33	30	26	24	23	23	22	22	22	22	22	21	21	21	19	18	16	14	13	13	13	13	13	13	13	12	12	11	11	10	10	9	9	9	9	9	9	9	9	8	8	8	8	8	7	7	7	7	6	6	6	5	5	5	5	6	6	6	6	6	5	5	5	5	5	5	5	5	5	5	5	5	5	5	5	5	5	5	5	5	5	5	5	5	5	5	5	5	5	5	5	5	5	5	5	5	5	5	5	5	5	5	5	5	5	5	5	5	5	5	5	5	5	5	5	5	5	5	5	5	5	5	5	5	5	4	4	4	4	4	5	5	5	5	4	4	5	5	5	5	5	5	5	5	5	5	5	5	5	5	5	5	5	5	5	5	5	5	5	5	5	6	6	6	6	6	6	6	6	6	6	6	6	6	6	6	6	6	6	6	6	6	6	6	6	6	6	6	6	6	6	7	7	7	7	7	7	7	6	6	7	6	6
0	0	0	0	0	0	0	0	0	0	0	0	0	0	0	0	0	0	0	0	0	0	0	0	0	0	0	0	0	0	0	0	0	0	0	0	0	0	0	0	0	0	0	0	0	0	0	0	0	0	0	0	0	0	0	0	0	0	0	0	0	0	0	0	0	0	0	0	0	0	0	0	0	0	0	0	0	0	0	0	0	0	0	0	0	0	0	0	0	0	0	0	0	1	2	2	3	4	4	4	4	4	4	4	4	4	4	4	4	4	4	4	4	4	4	4	4	5	6	6	7	7	7	7	7	6	6	6	5	5	5	5	5	5	5	6	6	6	6	6	6	6	6	6	6	6	6	6	6	6	6	6	6	6	6	6	6	7	7	7	7	7	7	7	7	7	7	8	8	7	7	7	7	7	7	7	7	7	8	8	9	9	9	9	10	9	9	9	9	9	9	10	9	9	10	10	10	10	10	10	10	10	10	9	9	8	7	6	6	6	6	7	7	6	6	6	6	6	6	6	6	6	6	6	6	6	6	6	6	6	6	6	7	7	7	7	7	7	7	7	7	7	8	8	8	9	10	10	10	9	9	9	8	8	9	9	9	9	8	8	7	6	7	7	7	7	8	8	8	9	10	12	13	12	11	10	11	12	13	17	29	32	36	42	46	49	52	53	54	54	55	56	55	54	55	55	56	57	57	56	53	46	35	34	34	35	35	35	35	36	36	41	54	59	63	64	64	64	64	64	64	64	64	65	65	67	72	76	77	78	81	86	90	90	82	78	76	76	76	76	76	76	82	97	101	101	103	104	104	105	105	107	110	113	118	124	130	134	138	142	147	152	155	155	157	161	162	162	163	163	163	163	163	163	163	163	163	162	161	159	157	154	151	149	149	149	150	149	148	145	144	145	145	144	144	144	145	147	150	157	161	161	161	160	160	160	160	159	160	160	160	159	157	157	156	157	155	153	151	150	149	148	145	142	138	133	129	129	130	128	125	121	112	101	99	98	96	96	95	95	95	95	95	95	96	96	96	96	96	96	95	95	95	95	95	95	95	97	101	105	105	105	105	105	105	105	105	105	105	105	105	105	105	105	105	105	105	105	105	105	105	105	108	114	119	122	123	124	125	126	127	128	128	128	128	128	128	128	128	128	128	126	123	118	114	112	110	108	107	107	107	108	108	108	108	108	108	109	109	109	109	111	113	114	114	114	114	114	115	116	119	122	124	125	125	125	125	125	125	124	124	124	124	123	123	123	123	122	122	121	121	120	120	120	120	120	120	119	119	119	119	120	120	120	120	120	120	120	120	120	120	120	120	120	120	120	120	120	120	120	120	120	120	120	120	121	121	121	123	127	132	137	140	142	142	143	143	143	143	143	143	143	143	143	143	143	143	143	143	143	143	143	143	143	143	143	143	143	143	142	142	142	142	141	141	141	141	141	140	138	135	132	130	127	124	122	121	120	120	120	119	120	120	120	120	120	120	120	120	120	121	121	121	120	117	105	91	86	85	85	84	84	85	86	88	90	94	100	107	109	110	109	109	108	107	107	106	105	105	105	104	104	104	104	103	103	103	103	103	103	103	103	103	103	103	103	102	101	99	96	94	93	93	92	92	91	90	90	89	89	89	89	89	87	85	83	81	80	79	79	78	78	77	76	75	74	74	74	74	73	73	72	72	72	72	71	71	71	70	67	61	58	56	54	53	53	53	52	51	50	49	49	49	49	49	47	45	43	41	39	38	38	38	38	37	37	37	37	36	36	36	36	36	36	36	36	36	36	36	36	36	35	35	34	33	32	31	31	30	30	30	30	30	30	30	32	33	33	31	27	24	23	23	23	22	22	22	22	21	21	20	19	18	16	14	14	14	14	14	13	13	13	12	12	11	11	10	10	9	9	9	9	9	9	9	8	8	8	8	8	8	7	7	7	7	6	6	6	5	5	6	5	6	6	6	6	6	5	5	5	5	5	5	5	5	5	5	5	5	5	5	5	5	5	5	5	5	5	5	5	5	5	5	5	5	5	5	5	5	5	5	5	5	5	5	5	5	5	5	5	5	5	5	5	5	5	5	5	5	5	5	5	5	5	5	5	5	5	5	5	5	5	4	4	4	4	4	4	4	5	5	5	5	5	5	5	5	5	5	5	5	5	5	5	5	5	5	5	5	5	5	5	5	5	5	5	5	5	6	6	6	6	6	6	6	6	6	6	6	5	6	6	6	6	6	5	5	6	6	6	6	6	6	6	6	5	5	6	6	6	7	7	7	7	7	7	6	6	6	6
0	0	0	0	0	0	0	0	0	0	0	0	0	0	0	0	0	0	0	0	0	0	0	0	0	0	0	0	0	0	0	0	0	0	0	0	0	0	0	0	0	0	0	0	0	0	0	0	0	0	0	0	0	0	0	0	0	0	0	0	0	0	0	0	0	0	0	0	0	0	0	0	0	0	0	0	0	0	0	0	0	0	0	0	0	0	0	0	0	0	0	0	0	0	0	0	1	2	3	3	4	4	4	4	4	4	4	4	4	4	4	4	4	4	4	4	4	5	6	6	6	6	6	6	6	6	6	5	5	5	5	5	5	5	5	5	5	5	5	5	6	6	6	6	6	6	6	6	6	6	6	6	6	6	6	6	6	6	7	7	7	7	7	7	7	7	7	7	7	7	7	7	7	7	6	6	6	6	6	6	6	6	7	8	8	7	7	8	8	8	9	9	9	9	9	9	9	9	9	9	9	9	9	9	8	8	7	6	6	6	6	6	6	6	6	6	6	6	6	6	6	6	6	6	6	6	6	6	6	6	6	6	6	6	7	7	7	7	7	7	7	7	8	8	9	9	9	9	9	9	9	9	8	8	9	9	9	8	8	8	7	6	6	7	7	7	7	7	8	8	9	11	12	12	10	9	10	13	15	20	27	29	30	32	40	46	49	50	52	53	54	56	55	54	55	55	55	54	50	45	40	37	35	34	35	35	35	35	35	35	38	46	53	61	64	65	64	64	65	64	64	64	64	64	64	65	67	73	77	77	78	84	90	91	89	84	76	76	76	76	77	78	89	100	102	102	102	102	102	104	106	107	110	114	119	123	128	133	137	141	146	151	154	154	155	157	159	160	160	160	159	159	159	159	159	160	160	160	159	158	155	151	149	147	146	146	146	146	143	141	140	141	141	141	142	141	143	145	147	152	157	158	158	157	157	157	157	156	156	157	156	155	154	154	154	153	151	150	150	150	149	146	143	141	137	132	128	128	129	127	123	119	112	101	99	99	97	96	96	95	95	95	95	95	96	96	96	96	96	96	96	96	95	95	95	95	95	97	102	105	105	105	105	105	105	105	105	105	105	105	105	105	105	105	105	105	105	105	105	105	105	106	109	115	119	119	119	120	122	124	125	127	127	128	128	128	128	128	128	128	127	126	122	117	113	110	108	106	105	104	104	104	105	105	105	105	105	105	106	106	107	110	113	114	114	114	114	114	114	114	115	117	120	123	124	125	124	124	124	124	124	123	123	123	123	122	122	122	122	122	121	120	120	120	120	120	120	119	119	119	119	119	119	119	119	120	120	120	120	120	120	120	120	120	120	120	120	120	120	120	120	120	120	120	120	120	121	121	121	122	123	126	130	136	140	142	142	143	143	143	143	143	143	143	143	143	143	143	143	143	143	143	143	143	143	143	143	143	142	142	142	142	141	141	141	141	141	140	139	135	132	128	126	123	121	120	120	120	120	119	119	119	119	119	120	120	120	120	120	120	120	121	121	116	106	93	86	84	84	84	84	84	84	85	86	88	90	92	96	101	104	106	107	107	107	106	106	105	105	104	104	104	104	103	103	103	103	103	103	103	103	102	103	103	102	102	101	99	96	94	94	93	92	92	91	91	90	89	89	88	88	87	87	85	83	82	81	80	79	79	79	78	77	76	75	74	74	74	73	73	73	72	72	72	71	71	71	70	70	67	60	57	56	54	53	52	52	51	50	49	49	49	49	49	49	47	45	41	38	37	37	38	37	37	37	37	37	36	36	36	36	35	35	35	36	36	36	35	35	35	34	33	32	31	30	30	30	30	30	30	30	30	30	29	29	31	32	32	32	29	25	24	23	23	23	22	22	22	22	21	21	19	18	16	15	14	14	14	14	14	13	13	12	12	11	11	10	10	10	9	9	9	9	9	9	8	8	8	8	8	8	7	7	7	7	6	6	6	6	6	6	5	6	6	6	6	5	5	5	5	5	5	5	5	5	5	5	5	5	5	5	5	5	5	5	5	5	5	5	5	5	5	5	5	5	5	5	5	5	5	5	5	5	5	5	5	5	5	5	5	5	5	5	5	5	5	5	5	5	5	5	5	5	5	5	5	5	5	5	5	5	5	5	4	4	4	4	4	4	5	5	5	5	5	5	5	5	5	5	5	5	5	5	5	5	5	5	5	5	5	5	5	5	5	5	5	5	5	6	6	6	6	6	6	6	6	5	5	5	5	5	6	6	6	6	5	5	5	6	6	6	6	6	5	5	5	5	5	5	6	6	7	7	7	7	6	6	6	6	6
0	0	0	0	0	0	0	0	0	0	0	0	0	0	0	0	0	0	0	0	0	0	0	0	0	0	0	0	0	0	0	0	0	0	0	0	0	0	0	0	0	0	0	0	0	0	0	0	0	0	0	0	0	0	0	0	0	0	0	0	0	0	0	0	0	0	0	0	0	0	0	0	0	0	0	0	0	0	0	0	0	0	0	0	0	0	0	0	0	0	0	0	0	0	0	0	0	0	1	1	2	3	4	4	4	4	4	4	4	4	4	4	4	4	4	4	4	4	5	6	6	6	6	6	5	5	5	5	5	4	5	5	5	5	5	5	5	5	5	5	5	5	5	5	6	6	6	6	6	6	6	6	6	6	6	6	6	6	6	6	7	7	7	7	7	7	7	7	7	7	7	7	7	7	6	6	6	6	6	5	5	5	5	6	6	6	7	7	7	7	7	8	8	8	8	8	8	9	9	9	9	9	9	9	8	8	7	6	6	6	6	6	6	6	6	6	6	6	6	6	6	6	6	6	6	6	6	6	6	6	6	6	6	6	6	6	7	7	7	7	7	8	8	8	9	9	9	9	9	9	9	9	9	9	9	9	9	8	8	8	7	7	7	7	7	7	7	7	7	7	8	9	10	10	9	9	11	15	20	25	27	29	30	29	31	38	44	47	49	51	52	51	48	51	54	54	54	52	45	36	32	34	35	35	35	35	35	35	36	38	43	47	49	59	64	64	64	64	64	64	64	64	64	64	64	65	65	69	74	76	77	83	90	92	92	87	77	75	75	77	83	86	92	100	101	101	101	100	100	104	107	108	111	115	120	123	127	132	136	141	146	150	153	154	154	155	156	157	157	156	156	156	156	156	156	157	157	157	157	156	151	147	145	143	142	142	141	140	138	136	135	136	135	135	135	137	141	146	149	151	153	155	155	154	154	154	154	154	154	155	154	153	152	152	151	149	147	148	148	147	145	143	141	140	136	132	129	126	123	119	117	115	109	100	100	100	99	97	96	95	95	95	95	95	96	96	96	96	96	96	96	96	96	95	95	95	95	97	102	105	105	105	105	105	105	105	105	105	105	105	105	105	105	105	105	105	105	105	105	105	105	106	109	116	118	118	118	119	119	120	122	124	126	127	128	128	128	128	128	128	127	125	121	116	112	108	107	105	104	102	102	102	102	102	102	102	102	102	103	103	104	110	113	113	114	114	114	114	114	114	114	115	116	118	121	124	124	124	124	124	123	123	123	123	122	122	122	122	122	121	121	121	120	120	120	120	119	119	119	119	119	119	119	119	119	119	119	119	120	120	120	120	120	120	120	120	120	120	120	120	120	120	120	120	120	120	121	121	121	121	121	121	123	125	129	135	139	141	142	142	142	142	142	142	143	143	142	142	142	142	142	143	142	142	143	142	142	142	142	142	142	141	141	141	141	141	140	139	136	132	128	125	122	121	120	119	119	119	119	119	118	118	119	119	119	119	119	119	120	120	120	120	115	105	95	87	84	84	84	84	84	84	84	84	85	86	88	90	92	94	95	96	98	101	103	104	105	105	104	104	104	103	103	103	102	102	102	102	102	102	102	101	101	101	101	100	99	96	95	94	93	92	91	91	90	90	89	88	87	87	86	85	85	84	83	82	82	81	80	79	79	78	76	75	75	74	74	74	73	73	72	72	72	71	71	71	70	70	67	61	58	57	56	54	53	52	52	51	50	49	49	49	49	49	48	46	43	38	37	37	37	37	37	37	36	36	36	36	36	35	35	35	35	35	35	35	35	34	33	32	31	30	30	30	30	30	30	29	29	29	29	29	29	29	29	29	31	32	32	30	26	24	24	23	23	22	22	22	22	21	20	19	18	17	16	15	15	14	14	14	13	13	12	12	11	11	10	10	10	9	9	9	9	9	9	8	8	8	8	8	8	7	7	7	7	6	6	6	6	6	6	5	5	6	6	6	5	5	5	5	5	5	5	5	5	5	5	5	5	5	5	5	5	5	5	5	5	5	5	5	5	5	5	5	5	5	5	5	5	5	5	5	5	5	5	5	5	5	5	5	5	5	5	5	5	5	5	5	5	5	5	5	5	4	4	5	5	5	5	5	5	5	5	5	5	5	4	4	5	5	5	5	5	5	5	5	5	5	5	5	5	5	5	5	5	5	5	5	5	5	5	5	5	5	5	5	5	5	5	6	6	6	6	6	6	5	5	5	5	5	5	6	6	6	6	5	5	5	5	6	6	5	5	5	5	5	5	5	5	5	6	6	6	7	7	6	6	6	6	6
0	0	0	0	0	0	0	0	0	0	0	0	0	0	0	0	0	0	0	0	0	0	0	0	0	0	0	0	0	0	0	0	0	0	0	0	0	0	0	0	0	0	0	0	0	0	0	0	0	0	0	0	0	0	0	0	0	0	0	0	0	0	0	0	0	0	0	0	0	0	0	0	0	0	0	0	0	0	0	0	0	0	0	0	0	0	0	0	0	0	0	0	0	0	0	0	0	0	0	0	0	1	1	2	3	4	4	4	4	4	4	4	4	4	4	4	4	4	4	5	5	6	6	6	6	5	5	5	4	4	4	4	4	5	5	5	5	5	5	5	5	5	5	5	5	5	5	5	6	6	6	6	6	6	6	6	6	6	6	6	6	6	7	7	7	7	7	7	7	7	7	7	7	7	6	6	6	6	6	6	5	5	6	6	6	6	6	6	6	6	6	7	7	7	7	7	7	7	8	8	8	8	8	8	8	7	7	6	6	6	6	6	6	6	6	6	7	6	6	6	6	6	6	6	6	6	6	6	6	6	6	6	6	6	6	6	6	7	7	7	7	7	8	8	9	9	9	9	9	8	8	9	9	10	9	9	9	8	8	8	8	8	8	7	7	7	7	7	7	7	7	7	8	8	8	11	13	16	24	26	25	24	26	26	27	30	36	40	44	49	49	46	44	47	51	52	51	47	39	31	31	33	34	34	34	35	35	35	38	41	39	39	42	53	63	64	64	64	64	64	64	64	64	64	64	64	64	66	71	74	76	81	90	92	93	88	77	75	75	77	84	87	89	96	98	99	100	100	101	105	108	110	113	117	122	125	128	133	137	142	146	149	151	153	153	153	154	154	154	153	153	153	153	154	154	155	155	155	155	154	148	143	141	139	138	138	138	135	132	131	131	131	131	131	132	134	140	145	149	152	152	152	152	152	152	152	152	153	153	153	152	150	149	149	148	146	145	145	145	143	142	141	140	139	135	131	128	124	120	116	113	107	101	98	102	102	99	97	96	95	95	95	95	95	96	96	96	96	96	96	96	96	96	96	96	95	95	96	99	101	103	104	105	105	105	105	104	103	102	102	103	105	105	105	105	105	105	105	105	105	105	106	110	117	118	118	118	118	118	119	119	120	122	124	126	127	127	128	128	128	127	124	119	114	109	106	105	104	103	102	101	101	101	101	101	101	101	101	101	101	103	110	113	113	113	114	114	114	114	114	114	114	114	115	118	123	124	124	124	123	123	123	123	122	122	122	122	122	121	121	121	121	120	120	120	120	119	119	118	118	119	119	119	119	119	118	118	118	119	119	119	120	120	120	120	120	120	120	120	120	120	120	120	120	120	120	120	120	121	121	121	121	121	121	121	124	128	134	139	141	142	142	142	142	142	142	142	142	142	142	142	142	142	142	142	142	142	142	142	142	142	141	141	141	141	141	140	136	132	128	124	122	120	120	119	119	118	118	118	118	118	118	118	118	119	119	119	119	120	120	119	115	104	93	86	84	84	84	84	84	84	84	84	84	84	86	87	89	91	93	93	93	93	94	95	96	99	100	101	101	101	101	101	101	101	101	101	100	100	100	99	99	99	98	98	97	96	95	94	92	88	86	85	85	85	85	85	85	84	84	84	83	83	83	83	82	82	81	80	79	78	76	75	75	75	74	74	74	73	73	72	72	72	71	71	70	69	67	61	58	58	57	56	54	53	52	51	50	49	49	49	49	49	48	46	45	42	38	37	37	37	37	37	36	36	36	36	35	35	35	35	35	35	35	34	34	32	31	31	30	30	30	30	30	29	29	29	29	29	29	29	29	29	29	29	29	29	31	32	31	28	25	24	24	23	23	23	22	21	20	19	18	18	17	16	16	15	15	14	13	13	13	12	12	11	11	10	10	10	9	9	9	9	9	8	8	8	8	8	8	8	7	7	7	7	6	6	6	6	6	6	5	5	6	6	6	5	5	5	5	5	5	5	5	5	5	5	5	5	5	5	5	5	5	5	5	5	5	5	5	5	5	5	5	5	5	5	5	5	5	5	5	5	5	5	5	5	5	5	5	5	5	5	5	5	5	5	5	5	5	5	5	5	4	4	5	5	4	4	5	5	5	5	5	5	5	5	5	5	5	5	5	4	4	4	4	5	5	5	5	5	5	5	5	5	5	5	5	5	5	5	5	5	5	5	5	5	5	5	6	6	6	6	6	6	6	6	6	6	6	6	6	6	6	5	5	5	5	5	5	5	5	5	5	5	5	5	5	5	5	6	6	6	6	7	6	6	6	6	6
0	0	0	0	0	0	0	0	0	0	0	0	0	0	0	0	0	0	0	0	0	0	0	0	0	0	0	0	0	0	0	0	0	0	0	0	0	0	0	0	0	0	0	0	0	0	0	0	0	0	0	0	0	0	0	0	0	0	0	0	0	0	0	0	0	0	0	0	0	0	0	0	0	0	0	0	0	0	0	0	0	0	0	0	0	0	0	0	0	0	0	0	0	0	0	0	0	0	0	0	0	0	0	0	1	2	2	3	3	3	3	3	3	3	3	3	3	4	4	4	4	5	5	5	5	5	5	5	4	4	4	4	4	4	4	5	5	5	5	5	5	5	5	5	5	5	5	5	5	5	6	6	6	6	6	6	6	6	6	6	6	6	6	6	7	7	7	7	7	7	7	7	6	6	6	6	6	6	6	6	6	5	6	6	6	6	6	6	6	6	6	6	6	6	6	6	6	6	7	7	7	7	7	7	7	7	7	6	6	6	6	6	6	7	7	7	6	6	6	6	6	6	6	6	6	6	6	6	6	6	6	6	6	6	6	6	6	6	7	7	7	7	8	8	8	9	9	9	9	8	8	8	9	10	9	9	9	9	9	9	9	9	8	8	7	7	7	7	7	7	7	7	7	7	7	8	9	10	13	17	18	19	20	21	23	26	28	30	33	40	42	41	42	44	47	48	46	38	32	30	31	32	33	33	34	34	35	35	37	36	35	36	40	44	57	64	64	64	64	64	64	64	64	64	64	65	64	65	66	68	72	77	87	92	92	89	79	75	75	76	81	86	88	94	98	99	102	105	106	108	110	112	116	121	125	128	131	135	139	142	146	149	150	151	151	151	152	151	151	151	150	149	150	151	151	152	153	153	153	151	144	139	137	134	134	134	135	133	130	129	128	128	129	130	131	134	138	142	147	150	150	148	149	149	149	148	149	151	150	149	148	147	146	146	145	144	143	142	141	140	140	140	139	137	133	129	126	123	119	114	110	104	99	98	103	102	100	97	96	95	95	95	96	96	96	96	96	96	96	96	96	96	96	96	96	96	95	96	96	97	98	100	102	103	104	104	102	100	100	100	101	103	105	105	105	105	105	105	105	105	105	106	112	117	118	118	118	118	118	118	118	118	119	120	121	123	125	126	127	127	125	121	116	110	105	103	103	103	102	101	101	101	101	101	101	101	101	101	101	101	103	110	113	113	113	114	114	114	114	114	114	114	114	114	116	121	124	124	124	123	123	123	123	122	122	122	122	122	121	121	121	120	120	120	120	120	119	118	118	118	118	118	118	118	118	117	117	117	118	119	119	119	119	120	120	120	120	120	120	120	120	120	120	120	120	120	120	120	120	120	121	121	121	120	120	120	121	123	126	131	137	140	142	142	142	142	142	142	142	142	142	142	142	142	142	142	142	142	142	142	142	141	141	141	140	140	136	131	127	123	121	120	119	119	118	118	117	117	118	118	118	117	117	118	118	118	119	119	119	117	112	102	91	85	84	84	84	84	84	84	84	84	84	84	84	85	87	90	92	93	93	93	93	93	93	94	94	94	95	95	95	96	97	97	98	98	99	99	98	98	98	97	96	96	95	95	95	94	91	86	82	80	79	79	79	79	79	79	79	80	80	80	80	80	80	80	80	79	78	77	76	76	75	75	74	74	74	74	73	72	72	72	71	71	71	70	66	61	59	58	58	57	57	55	53	51	51	50	49	49	49	49	48	46	42	43	42	39	37	37	37	37	36	36	36	35	35	35	35	35	35	35	34	34	32	31	30	30	30	30	30	30	30	29	29	29	29	29	29	29	29	29	29	29	29	28	28	29	31	31	29	26	24	24	24	23	23	23	20	19	18	17	17	16	15	15	15	14	14	13	13	12	12	11	11	10	10	10	10	9	9	9	9	9	8	8	8	8	8	8	7	7	7	7	7	6	6	6	6	6	6	5	5	6	6	5	5	5	5	5	5	5	5	5	5	5	5	5	5	5	5	5	5	5	5	5	5	5	5	5	5	5	5	5	5	5	5	5	5	5	5	5	5	5	5	5	5	5	5	5	5	5	5	5	5	5	5	5	5	5	5	5	5	4	4	4	5	4	4	4	5	5	5	5	5	5	5	5	5	5	5	4	4	4	4	4	5	5	5	5	5	5	5	5	5	5	5	5	5	5	5	5	5	5	5	5	5	5	5	5	6	6	6	6	6	6	6	6	6	6	6	6	6	6	5	5	5	5	5	5	5	5	5	5	6	6	5	5	5	5	6	6	6	6	6	6	6	6	6	6
