7	7	7	7	6	6	6	6	6	6	6	6	6	6	6	6	6	6	6	6	6	6	6	6	6	6	6	6	6	6	7	7	7	7	7	7	6	6	6	6	6	7	6	6	6	5	4	2	1	0	0	0	0	0	0	0	0	0	0	0	0	0	0	0	0	0	0	0	0	0	0	0	0	0	0	0	0	0	0	0	0	0	0	0	0	0	0	0	0	0	0	0	0	0	0	0	0	0	0	0	0	0	0	0	0	0	0	0	0	0	0	0	0	0	0	0	0	0	1	2	3	4	5	5	5	4	3	1	0	0	0	0	0	0	0	0	0	0	0	0	0	0	0	0	0	0	0	0	0	0	0	0	0	0	0	0	0	0	0	0	0	0	0	0	0	0	0	0	3	12	16	16	16	16	16	16	16	16	12	7	5	5	5	5	5	5	5	5	5	5	5	5	5	5	5	5	5	5	5	5	5	5	5	5	5	5	5	5	5	5	5	5	5	5	5	5	5	5	5	5	5	5	5	4	5	5	5	5	5	5	5	4	3	2	-1	-2	1	3	2	2	3	4	6	8	13	16	17	18	20	20	18	16	16	13	7	5	5	6	7	7	6	6	6	6	6	6	6	6	6	7	7	7	7	6	6	6	6	6	6	6	6	6	6	6	6	6	6	6	6	6	6	6	6	6	6	6	6	7	7	7	7	7	7	7	7	7	7	7	7	7	7	7	7	7	7	7	7	7	7	7	8	8	8	11	15	18	16	15	15	15	15	15	15	15	15	15	15	20	30	33	34	35	35	36	36	36	37	39	43	47	48	47	47	47	45	41	39	39	38	38	39	40	41	41	41	42	44	43	42	41	41	41	41	41	41	41	41	41	44	47	46	46	46	45	44	44	44	45	46	48	46	41	41	41	41	41	41	41	41	41	41	41	41	41	41	41	41	41	42	42	42	42	41	41	41	42	42	43	43	43	43	43	43	43	44	44	45	45	46	47	48	48	48	48	48	48	48	48	48	48	48	48	48	48	47	48	51	53	55	63	72	75	74	73	72	69	66	66	69	72	74	74	74	74	74	74	74	75	75	75	75	77	79	80	82	83	83	84	84	83	83	82	81	82	87	92	93	93	93	93	92	92	93	92	92	92	93	93	93	93	93	93	93	92	92	92	93	97	105	110	112	112	111	112	112	111	111	111	111	112	112	111	112	113	115	116	116	116	116	116	117	117	117	116	116	116	116	116	116	116	116	116	116	117	118	119	125	133	138	142	147	151	154	159	167	170	171	175	184	188	190	192	194	198	203	206	202	200	201	203	205	206	209	211	214	217	219	222	224	225	226	226	227	228	229	229	228	227	227	228	230	231	233	234	235	236	238	240	244	248	251	250	251	253	254	254	252	250	250	250	250	250	249	248	247	246	245	243	242	241	240	240	238	237	236	237	238	240	240	241	241	241	241	240	239	237	234	232	230	229	229	230	229	228	227	226	225	223	221	220	218	217	215	213	212	210	208	205	203	200	196	194	194	193	193	193	193	193	193	192	191	190	188	187	185	184	183	182	180	179	177	175	173	171	169	167	166	166	165	164	163	161	159	158	157	156	154	152	150	148	147	146	146	145	145	144	143	142	140	138	136	133	130	127	125	124	122	119	118	117	116	115	115	115	115	117	118	116	115	114	112	109	104	93	85	79	72	64	56	48	41	37	34	31	31	31	31	31	31	31	31	31	31	31	31	31	31	31	31	31	31	31	31	31	31	31	31	31	31	31	31	31	31	31	31	31	31	27	20	19	19	18	17	17	17	17	17	17	17	17	17	17	17	17	17	17	17	15	12	11	11	11	10	9	9	9	9	9	9	9	9	9	9	9	9	9	9	9	9	9	9	9	9	9	9	9	9	9	9	9	9	9	9	9	9	9	9	9	9	9	9	9	9	9	9	9	9	9	9	9	9	8	8	8	8	8	8	9	9	9	9	9	9	9	9	9	8	8	8	8	8	7	6	7	9	10	11	11	11	11	11	10	9	7	7	7	7	7	7	7	7	7	7	7	7	7	7	7	7	7	7	7	7	7	7	7	7	7	7	7	7	7	7	7	7	7	7	7	7	7	7	7	7	7	7	7	7	7	7	7	7	7	7	7	7	7	7	7	7	7	7	7	7	7	7	7	7	7	7	7	7	7	7	6	6	6	6	6	6	6	6	7	7	7	7	6	6	6	6	6	6	6	6	6	7	7	7	7	7	7	7	7	7	7	7	7	7	7	7	7	7	7	7	6	6	6	6	6	7	7
7	7	7	7	6	6	6	6	6	6	6	6	6	6	6	6	6	6	6	6	6	6	6	6	6	5	6	6	6	6	6	7	7	7	7	7	6	6	6	6	6	6	6	6	6	6	4	3	1	0	0	0	0	0	0	0	0	0	0	0	0	0	0	0	0	0	0	0	0	0	0	0	0	0	0	0	0	0	0	0	0	0	0	0	0	0	0	0	0	0	0	0	0	0	0	0	0	0	0	0	0	0	0	0	0	0	0	0	0	0	0	0	0	0	0	0	0	0	0	1	1	2	4	5	5	5	4	3	2	1	0	0	0	0	0	0	0	0	0	0	0	0	0	0	0	0	0	0	0	0	0	0	0	0	0	0	0	0	0	0	0	0	0	0	0	0	0	1	7	15	16	16	16	16	16	16	16	14	8	5	5	5	5	5	5	5	5	5	5	5	5	5	5	5	5	5	5	5	5	5	5	5	5	5	5	5	5	5	5	5	5	5	5	5	5	5	5	5	5	5	5	5	5	6	7	5	5	5	5	5	5	5	4	3	1	-1	0	1	1	1	2	3	4	5	8	13	16	16	17	19	20	18	16	15	13	9	6	6	6	7	7	6	6	6	6	6	6	6	6	6	6	6	7	6	6	6	6	6	6	6	6	6	6	6	6	6	6	6	6	6	6	6	6	6	6	6	6	6	6	7	7	7	7	7	7	7	7	7	7	7	7	7	7	7	7	7	8	8	7	7	7	8	8	9	10	15	17	17	15	15	15	15	15	15	15	15	16	21	31	35	35	35	36	37	36	35	36	39	44	49	49	48	48	49	49	44	41	39	39	39	39	39	40	40	41	43	46	46	44	43	42	41	41	41	41	41	41	41	42	43	43	43	43	43	44	45	47	49	48	47	45	41	41	41	41	41	41	41	41	41	41	41	41	41	41	41	41	41	41	42	42	41	41	41	41	42	42	43	43	43	43	43	43	44	44	45	45	45	47	48	48	48	48	48	48	48	48	48	48	48	48	48	48	47	47	49	52	54	57	62	66	70	72	71	70	69	70	72	74	74	74	74	74	74	74	74	74	75	75	75	77	79	81	83	83	84	84	84	84	84	84	83	82	83	88	92	93	93	93	93	92	92	93	92	92	92	92	93	93	93	93	93	93	92	92	92	93	97	105	110	112	112	112	111	111	111	111	111	111	111	112	112	111	112	114	116	117	116	116	116	117	117	117	117	116	116	116	116	116	116	116	116	116	116	117	119	122	128	136	140	145	151	154	158	162	167	170	174	183	190	193	195	198	202	205	206	203	199	200	202	203	204	206	210	213	216	218	220	221	222	222	222	223	224	226	226	225	224	224	226	227	229	230	231	232	233	236	238	241	245	248	248	248	251	255	256	256	255	255	254	253	253	252	251	250	249	248	246	245	244	244	243	242	240	240	240	241	243	244	244	244	243	243	242	240	238	235	233	232	232	232	231	230	229	228	227	225	223	221	219	218	217	215	213	212	210	208	206	203	200	198	197	197	197	196	196	196	196	195	195	194	192	190	189	187	186	185	183	181	179	178	176	174	172	170	168	167	167	166	165	163	161	160	159	159	158	156	154	152	150	149	149	148	148	147	146	145	143	141	139	137	135	131	128	126	125	124	122	120	119	118	116	115	114	114	116	118	117	115	114	113	110	104	95	86	81	74	66	58	50	42	37	35	32	31	31	31	31	31	31	31	31	31	31	31	31	31	31	32	32	31	31	31	31	31	31	31	31	31	31	31	31	31	31	31	31	31	30	24	20	19	18	17	17	17	17	17	17	17	17	17	17	17	17	17	17	17	16	13	11	11	11	11	10	9	9	9	9	9	9	9	9	9	9	9	9	9	9	9	9	9	9	9	9	9	9	9	9	9	9	9	9	9	9	9	9	9	9	9	9	9	9	9	9	9	9	9	9	9	9	9	9	9	9	8	8	8	8	8	9	9	9	9	9	9	9	9	8	8	8	8	7	6	7	9	10	11	11	12	11	11	10	9	7	7	7	7	7	7	7	7	7	7	7	7	7	7	7	7	7	7	7	7	7	7	7	7	7	7	7	7	7	7	7	7	7	7	7	7	7	7	7	7	7	7	7	7	7	7	7	7	7	7	7	7	7	7	7	7	7	7	7	7	7	7	7	7	7	7	7	7	7	7	7	7	7	6	6	6	6	6	6	6	7	7	7	7	6	6	6	6	6	6	6	6	7	7	7	7	7	7	7	7	7	7	7	7	7	7	7	7	7	7	6	6	6	6	6	7	7
7	7	7	7	6	6	6	6	6	6	6	6	6	6	6	6	6	6	6	6	6	6	6	6	6	6	6	6	6	6	6	6	7	7	6	6	6	6	6	6	6	6	6	6	6	6	5	3	1	0	0	0	0	0	0	0	0	0	0	0	0	0	0	0	0	0	0	0	0	0	0	0	0	0	0	0	0	0	0	0	0	0	0	0	0	0	0	0	0	0	0	0	0	0	0	0	0	0	0	0	0	0	0	0	0	0	0	0	0	0	0	0	0	0	0	0	0	0	0	0	0	1	2	3	4	5	5	4	3	2	1	0	0	0	0	0	0	0	0	0	0	0	0	0	0	0	0	0	0	0	0	0	0	0	0	0	0	0	0	0	0	0	0	0	0	0	0	3	11	16	16	16	16	16	16	16	16	10	6	5	5	5	5	5	5	5	5	5	5	5	5	5	5	5	5	5	5	5	5	5	5	5	5	5	5	5	5	5	5	5	5	5	5	5	5	5	5	5	5	5	5	5	5	10	12	5	5	5	5	5	5	5	5	4	3	2	1	1	1	1	1	2	2	4	6	11	14	16	16	17	19	20	18	16	16	14	10	7	5	7	8	7	6	6	6	6	6	6	6	6	6	6	6	6	6	6	6	6	6	6	6	6	6	6	6	6	6	6	6	6	6	6	6	6	6	6	6	6	6	6	7	7	7	7	7	7	7	7	7	7	7	7	7	7	7	7	7	7	7	7	8	8	9	8	8	10	11	14	15	15	15	15	15	16	16	15	19	24	31	35	34	35	37	38	37	36	37	40	44	47	47	47	48	50	50	46	43	41	41	41	41	40	40	40	40	41	43	45	46	46	42	41	41	41	41	41	41	41	41	41	42	43	43	44	45	47	50	54	51	46	43	41	41	41	41	41	41	41	41	41	41	41	41	41	41	41	41	41	41	41	41	41	41	41	42	42	43	43	43	43	43	43	44	44	45	45	45	46	48	48	48	48	48	48	48	48	48	48	48	48	48	48	47	46	47	51	55	58	61	62	62	63	65	66	65	69	73	74	74	74	74	74	74	74	74	74	74	74	75	76	78	80	83	84	84	84	84	84	84	84	84	83	82	84	90	92	93	93	93	93	93	93	93	93	93	93	93	93	93	92	92	93	93	93	93	92	93	97	104	109	111	112	112	111	113	113	113	113	112	111	112	112	111	112	113	115	116	116	116	117	117	117	117	116	116	116	116	116	116	116	116	116	116	116	117	118	119	123	131	138	144	150	153	158	161	166	169	173	182	188	192	194	198	202	204	205	204	201	199	200	201	202	205	208	212	215	217	218	218	218	219	219	220	222	222	223	222	222	222	223	225	226	228	228	229	231	233	236	238	241	243	245	247	251	256	258	260	261	260	259	257	256	255	254	253	252	251	249	247	247	247	246	245	244	243	243	244	245	246	246	246	245	245	243	241	239	237	235	234	234	233	232	231	230	228	226	224	222	220	219	217	216	214	213	211	209	207	205	203	201	200	200	200	200	199	198	198	198	198	197	196	195	193	191	189	188	186	184	182	180	178	176	174	173	171	170	168	167	166	165	164	162	161	161	161	159	158	156	154	153	152	152	151	150	149	147	146	144	142	140	138	136	133	130	128	127	125	123	122	120	119	118	116	114	113	115	117	116	114	113	113	110	105	97	89	82	75	68	60	52	44	38	36	33	31	31	31	31	31	31	31	31	31	31	31	31	31	31	31	32	31	31	31	31	31	31	31	31	31	31	31	31	31	31	31	31	31	31	28	21	18	18	17	17	17	17	17	17	17	17	17	17	17	17	17	17	17	16	13	12	12	11	11	10	9	9	9	9	9	9	9	9	9	9	9	9	9	9	9	9	9	9	9	9	9	9	9	9	9	9	9	9	9	9	9	9	9	9	9	9	9	9	9	9	9	9	9	9	9	9	9	9	9	9	9	9	9	9	9	9	8	8	8	9	9	9	8	8	8	8	8	7	6	7	8	10	11	11	12	11	11	11	9	7	7	7	7	7	7	7	7	7	7	7	7	7	7	7	7	7	7	7	7	7	7	7	7	7	7	7	7	7	7	7	7	7	7	7	7	7	7	7	7	7	7	7	7	7	7	7	7	7	7	7	7	7	7	7	7	7	8	8	8	7	7	7	7	7	7	7	7	7	7	7	7	7	7	7	6	6	6	6	6	6	6	6	7	7	7	7	6	6	6	6	6	6	6	6	7	7	7	7	7	7	7	7	7	7	7	7	7	7	7	6	6	6	6	7	7	7
7	7	7	7	6	6	6	6	6	6	6	6	6	6	6	6	6	6	6	6	6	6	6	6	6	6	6	6	6	6	6	6	6	6	6	6	6	6	6	6	6	6	6	6	6	6	5	3	1	0	0	0	0	0	0	0	0	0	0	0	0	0	0	0	0	0	0	0	0	0	0	0	0	0	0	0	0	0	0	0	0	0	0	0	0	0	0	0	0	0	0	0	0	0	0	0	0	0	0	0	0	0	0	0	0	0	0	0	0	0	0	0	0	0	0	0	0	0	0	0	0	0	1	2	3	4	4	5	4	4	3	2	1	0	0	0	0	0	0	0	0	0	0	0	0	0	0	0	0	0	0	0	0	0	0	0	0	0	0	0	0	0	0	0	0	0	2	7	15	16	16	16	16	16	16	16	12	7	5	5	5	5	5	5	5	5	5	5	5	5	5	5	5	5	5	5	5	5	5	5	5	5	5	5	5	5	5	5	5	5	5	5	5	5	5	5	5	5	5	5	5	5	5	6	7	5	5	5	5	5	5	5	5	5	5	4	3	2	2	2	1	1	2	2	4	7	9	12	15	16	16	18	20	19	17	16	15	12	7	7	11	11	9	7	6	6	6	6	6	6	6	6	6	6	6	6	6	6	6	7	6	6	6	6	6	6	6	6	6	6	6	6	6	6	6	6	6	6	6	6	6	7	7	7	7	7	7	7	7	7	7	7	7	7	7	7	7	7	7	7	8	8	8	8	8	8	9	9	10	12	14	16	16	18	18	18	24	27	29	31	33	35	37	38	38	38	40	41	43	45	45	46	47	48	47	46	45	43	43	44	43	41	41	40	40	40	41	42	44	44	41	40	41	41	41	41	41	41	41	42	43	44	44	45	45	46	48	53	52	44	41	41	41	41	41	41	41	41	41	41	41	41	41	41	41	41	41	41	41	41	41	41	41	42	42	43	43	43	43	43	43	44	44	45	45	45	46	47	48	48	48	48	48	48	48	48	48	48	48	48	48	48	47	46	47	52	57	61	62	62	63	62	62	63	64	70	74	74	74	74	74	74	74	74	74	74	74	74	75	77	79	82	84	84	84	84	84	84	84	84	84	83	83	84	90	93	93	93	93	93	93	93	93	93	93	93	93	93	93	92	92	92	92	93	93	93	93	97	104	108	111	112	113	113	116	117	117	114	112	111	112	112	111	112	114	116	116	116	117	117	118	117	117	116	116	116	116	117	117	116	116	117	117	116	117	118	119	119	124	134	140	148	153	157	160	164	168	172	180	187	189	192	198	202	203	204	204	202	199	200	201	203	205	208	211	213	215	216	216	215	215	216	218	219	219	220	220	220	220	221	222	224	226	226	227	229	231	233	235	237	239	243	249	252	257	259	260	262	262	261	261	259	258	257	256	255	254	252	250	250	250	248	247	246	246	246	247	248	249	249	248	247	246	245	242	241	239	237	236	235	234	233	231	230	228	226	224	222	220	219	217	215	214	212	210	208	207	204	203	202	202	202	202	202	202	201	201	201	201	200	199	197	195	193	192	189	188	186	183	181	179	177	176	174	172	171	170	168	167	165	164	164	163	162	162	161	159	158	157	156	155	154	153	151	150	148	147	145	143	141	139	137	134	132	129	128	126	125	123	121	119	118	116	114	113	114	116	116	113	112	112	111	106	100	91	84	77	69	62	54	46	39	36	34	31	31	31	31	31	31	31	31	31	31	31	31	31	31	31	31	32	31	31	31	31	31	31	31	31	31	31	31	31	31	31	31	31	31	30	23	18	18	18	17	17	17	17	17	17	17	17	17	17	17	17	17	17	16	14	12	12	11	11	10	9	9	9	9	9	9	9	9	9	9	9	9	9	9	9	9	9	9	9	9	9	9	9	9	9	9	9	9	9	9	9	9	9	9	9	9	9	9	9	9	9	9	9	9	9	9	9	9	9	9	9	9	9	9	9	9	8	8	8	8	8	8	8	8	8	8	8	7	7	7	8	10	11	12	12	12	11	11	9	8	7	7	7	7	7	7	7	7	7	7	7	7	7	7	7	7	7	7	7	7	7	7	7	7	7	7	7	7	7	7	7	7	7	7	7	7	7	7	7	7	7	7	7	7	7	7	7	7	7	7	7	7	7	7	7	8	8	8	8	8	8	7	7	7	7	7	7	7	7	7	7	7	7	7	7	7	6	6	6	6	6	6	6	6	6	6	7	7	6	6	6	6	6	6	6	6	7	7	7	7	7	7	7	7	7	7	7	7	7	6	6	6	6	7	7	7
7	6	6	6	6	6	6	6	6	6	6	6	6	6	6	6	6	6	6	6	6	7	7	6	6	6	6	6	6	6	6	6	6	6	6	6	6	6	6	6	6	6	6	6	6	5	5	4	2	0	0	0	0	0	0	0	0	0	0	0	0	0	0	0	0	0	0	0	0	0	0	0	0	0	0	0	0	0	0	0	0	0	0	0	0	0	0	0	0	0	0	0	0	0	0	0	0	0	0	0	0	0	0	0	0	0	0	0	0	0	0	0	0	0	0	0	0	0	0	0	0	0	0	0	1	2	3	4	5	5	4	3	2	1	0	0	0	0	0	0	0	0	0	0	0	0	0	0	0	0	0	0	0	0	0	0	0	0	0	0	0	0	0	0	0	0	4	12	17	16	16	16	16	16	17	14	8	5	5	5	5	5	5	5	5	5	5	5	5	5	5	5	5	5	5	5	5	5	5	5	5	5	5	5	5	5	5	5	5	5	5	5	5	5	5	5	5	5	5	5	5	5	5	5	5	5	5	5	5	5	5	5	5	5	5	5	4	4	3	2	1	1	1	1	2	3	5	7	11	14	16	16	18	20	19	17	16	15	11	8	10	12	12	9	6	6	6	6	6	6	6	6	6	6	6	6	6	6	7	7	7	7	6	6	6	6	6	6	6	6	6	6	6	6	6	6	6	6	6	6	6	7	7	7	7	7	7	7	7	7	7	7	7	7	7	7	7	7	7	7	8	8	8	8	8	8	8	8	8	9	10	12	14	17	19	31	39	39	34	34	36	38	39	40	41	41	42	42	43	44	44	45	45	45	45	44	44	44	44	44	43	42	42	41	41	41	41	41	41	41	41	40	40	41	41	41	42	42	43	44	45	45	44	43	42	41	42	47	48	42	41	41	41	41	41	41	41	41	41	41	41	41	41	41	41	41	41	41	41	41	41	41	41	42	42	43	43	43	43	43	43	44	44	45	45	46	47	48	48	48	48	48	48	48	48	48	48	48	48	48	48	48	47	48	49	53	59	62	62	62	62	63	63	63	65	71	74	74	74	74	74	74	74	74	74	74	74	74	75	78	81	84	85	84	84	84	84	84	84	84	84	83	83	85	90	93	93	93	93	93	93	93	93	93	93	93	93	93	93	92	92	92	92	93	93	93	93	96	103	109	111	113	116	116	117	118	116	113	112	112	112	111	111	113	114	116	116	116	117	117	118	117	116	116	116	116	117	117	117	116	116	117	117	117	116	117	118	119	121	129	136	144	152	155	159	163	168	170	177	185	188	192	198	202	203	203	201	199	198	200	201	203	205	208	210	212	213	214	214	213	213	214	215	216	217	217	217	217	217	218	219	222	223	224	226	227	229	231	233	235	237	244	250	253	257	259	261	262	263	263	263	261	260	260	259	258	256	254	253	253	253	251	250	249	250	249	250	250	251	250	250	248	247	246	244	242	240	238	237	236	235	233	232	230	229	227	225	223	221	219	217	215	213	211	210	208	206	205	204	204	205	205	205	205	204	204	204	204	203	203	201	200	198	196	194	191	189	187	185	182	180	178	177	175	174	172	171	169	168	166	165	165	164	163	163	162	161	159	158	158	156	155	154	152	150	148	147	145	143	141	139	136	134	132	130	129	127	126	124	122	120	118	116	114	113	114	115	114	112	112	113	111	108	103	93	85	79	71	63	56	48	41	37	35	32	31	31	31	31	31	31	31	31	31	31	31	31	31	31	31	32	32	31	31	31	31	31	31	31	31	31	31	31	31	31	31	31	31	31	27	19	18	18	17	17	17	17	17	17	17	17	17	17	17	17	17	17	16	14	12	12	12	11	11	9	9	9	9	9	9	9	9	9	9	9	9	9	9	9	9	9	9	9	9	9	9	9	9	9	9	9	9	9	9	9	9	9	9	9	9	9	9	9	9	9	9	9	9	9	9	9	9	9	9	9	9	9	9	9	9	9	9	9	8	8	8	8	7	8	8	8	8	7	6	8	10	12	12	12	12	11	11	9	7	7	7	7	7	7	7	7	7	7	7	7	7	7	7	7	7	7	7	7	7	7	7	7	7	7	7	7	7	7	7	7	7	7	7	7	7	7	7	7	7	7	7	7	7	7	7	7	7	7	7	7	7	8	8	8	8	8	8	8	8	8	8	7	7	7	7	7	7	7	7	7	7	7	7	7	7	7	7	7	6	6	6	6	6	6	6	6	7	7	7	7	6	6	6	6	6	6	7	7	7	7	7	7	7	7	7	7	7	7	7	6	6	6	7	7	7
6	6	6	6	6	6	6	6	6	6	6	6	6	6	6	6	6	6	6	6	6	7	6	6	6	6	6	7	7	6	6	6	6	6	6	6	6	6	6	6	6	6	6	6	6	5	5	4	2	0	0	0	0	0	0	0	0	0	0	0	0	0	0	0	0	0	0	0	0	0	0	0	0	0	0	0	0	0	0	0	0	0	0	0	0	0	0	0	0	0	0	0	0	0	0	0	0	0	0	0	0	0	0	0	0	0	0	0	0	0	0	0	0	0	0	0	0	0	0	0	0	0	0	0	0	1	2	3	4	5	5	4	4	2	1	0	0	0	0	0	0	0	0	0	0	0	0	0	0	0	0	0	0	0	0	0	0	0	0	0	0	0	0	0	0	2	9	16	16	17	17	16	16	16	15	10	6	5	5	5	5	5	5	5	5	5	5	5	5	5	5	5	5	5	5	5	5	5	5	5	5	5	5	5	5	5	5	5	5	5	5	5	5	5	5	5	5	5	5	5	5	5	5	5	5	5	5	5	5	5	5	5	5	5	5	5	5	4	3	2	1	1	2	2	1	2	3	5	7	11	14	15	16	17	19	19	17	15	15	13	10	10	11	12	10	7	6	6	6	6	6	6	6	6	6	6	6	6	7	7	7	7	7	6	6	6	6	6	6	6	6	6	6	6	6	6	6	6	6	6	6	7	7	7	7	7	7	7	7	7	7	7	7	7	7	7	7	7	7	7	8	8	8	8	8	8	8	8	8	8	8	8	9	11	17	37	47	46	42	41	40	41	43	43	42	42	42	42	43	43	44	44	44	43	43	43	43	43	42	42	42	42	42	42	42	42	42	42	41	41	42	42	42	43	43	43	44	44	45	45	45	43	41	40	40	41	41	41	42	41	41	41	41	41	41	41	41	41	41	41	41	41	41	41	41	41	41	41	41	41	41	41	42	42	43	43	43	43	43	44	44	44	45	45	46	47	48	48	48	48	48	48	48	48	48	48	48	48	48	48	48	49	50	51	53	56	60	62	62	62	63	62	62	63	66	72	74	74	74	74	74	74	74	74	74	74	74	74	75	78	81	84	84	84	83	84	84	84	84	84	84	84	83	85	91	93	93	93	93	93	93	93	93	93	93	93	93	93	93	92	92	92	92	93	93	93	93	96	102	109	113	114	116	116	115	113	113	112	112	112	112	111	112	114	116	116	116	116	116	117	117	117	116	116	116	116	117	117	117	117	116	117	117	117	116	116	118	119	119	125	133	140	150	153	157	162	167	170	173	181	187	191	197	201	203	201	197	196	198	200	202	204	206	207	209	210	211	212	211	210	210	212	213	214	214	214	214	214	214	215	216	218	220	222	224	227	228	229	231	233	237	245	250	253	256	259	262	263	264	265	266	264	263	263	262	260	258	257	256	256	255	254	252	252	253	253	253	253	253	252	251	250	248	247	245	243	241	239	238	236	235	234	233	231	230	228	226	224	222	220	218	216	213	211	210	208	207	206	206	207	207	207	208	207	207	207	207	207	206	205	204	202	200	198	196	193	191	188	186	183	181	179	178	176	175	173	172	170	169	167	166	165	165	164	163	162	161	160	160	158	157	156	154	152	150	148	146	144	142	140	138	136	134	132	130	129	127	126	124	122	120	118	116	114	113	113	113	111	110	111	113	111	109	104	95	86	81	73	66	58	50	43	38	35	32	31	31	31	31	31	31	31	31	31	31	31	31	31	31	32	32	32	31	31	31	31	31	31	31	31	31	31	31	31	31	31	31	31	32	29	22	18	18	17	17	17	17	17	17	17	17	17	17	17	17	17	17	17	15	13	12	12	11	11	10	9	9	9	9	9	9	9	9	9	9	9	9	9	9	9	9	9	9	9	9	9	9	9	9	9	9	9	9	9	9	9	9	9	9	9	9	9	9	9	9	9	9	9	9	9	9	9	9	9	9	9	9	9	9	9	9	9	9	9	8	8	8	7	7	7	8	8	7	7	8	10	12	12	12	12	11	11	10	8	7	7	7	7	7	7	7	7	7	7	7	7	7	7	7	7	7	7	7	7	7	7	7	7	7	7	7	7	7	7	7	7	7	7	7	7	7	7	7	7	7	7	7	7	7	7	7	7	7	7	7	7	8	8	8	8	8	8	8	8	8	8	7	7	7	7	7	7	7	7	7	7	7	7	7	7	7	7	7	7	7	7	6	6	6	6	6	6	6	6	7	7	7	7	6	6	7	7	7	7	7	7	7	7	7	7	7	7	7	7	6	6	7	7	7	7
6	6	6	6	6	6	6	6	6	6	6	6	6	6	6	6	6	6	6	6	6	6	6	6	6	6	6	7	7	7	6	6	6	6	6	6	6	6	6	6	6	6	6	6	6	5	5	4	2	1	0	0	0	0	0	0	0	0	0	0	0	0	0	0	0	0	0	0	0	0	0	0	0	0	0	0	0	0	0	0	0	0	0	0	0	0	0	0	0	0	0	0	0	0	0	0	0	0	0	0	0	0	0	0	0	0	0	0	0	0	0	0	0	0	0	0	0	0	0	0	0	0	0	0	0	0	1	2	3	4	4	5	5	4	3	2	0	0	0	0	0	0	0	0	0	0	0	0	0	0	0	0	0	0	0	0	0	0	0	0	0	0	0	0	1	7	15	16	16	17	17	16	16	16	12	6	5	5	5	5	5	5	5	5	5	5	5	5	5	5	5	5	5	5	5	5	5	5	5	5	5	5	5	5	5	5	5	5	5	5	5	5	5	5	5	5	5	5	5	5	5	5	5	5	5	5	5	5	5	5	5	5	5	5	5	5	5	5	4	3	2	2	2	2	1	1	2	3	5	7	10	13	15	16	17	18	19	17	16	15	13	10	9	13	15	11	7	6	6	6	6	6	6	6	6	6	6	6	6	7	7	7	7	7	6	6	6	6	6	6	6	6	6	6	6	6	6	6	6	6	6	6	6	6	7	7	7	7	7	7	7	7	7	7	7	7	7	7	7	7	8	8	8	8	8	8	8	8	8	8	8	8	8	9	10	29	46	46	40	36	31	34	38	39	39	40	40	40	41	42	43	44	43	42	42	42	42	42	42	42	42	42	42	42	42	43	43	42	41	42	44	46	46	46	45	45	45	44	44	44	43	41	40	40	40	40	41	40	40	40	41	41	41	41	41	41	41	41	41	41	41	41	41	41	41	41	41	41	41	41	41	41	42	42	43	43	43	43	44	44	45	45	45	46	47	48	48	48	48	48	48	48	48	48	48	48	48	48	48	48	49	51	52	54	56	58	61	62	62	63	62	62	62	63	67	72	74	74	74	74	74	74	74	74	74	74	74	74	76	78	81	83	84	83	84	84	84	84	84	84	84	84	83	85	91	93	93	93	93	93	93	93	93	93	93	93	93	93	93	92	92	92	92	93	93	93	94	96	102	108	112	111	111	110	110	110	111	111	112	113	113	112	114	116	116	116	116	116	116	116	117	116	116	116	116	116	116	117	117	116	116	117	117	117	116	116	118	119	118	122	130	137	146	151	154	160	165	168	171	176	184	189	195	200	201	197	194	196	199	202	203	204	206	207	208	209	209	210	209	208	209	210	210	211	211	211	211	211	212	213	214	216	217	219	222	225	227	228	230	233	238	246	250	253	256	259	262	265	266	267	268	268	266	266	265	263	261	260	259	259	258	256	254	254	255	256	256	255	254	253	252	250	249	247	245	243	241	240	238	237	235	234	233	232	230	229	227	225	222	220	218	216	213	211	210	209	208	208	208	209	209	210	210	210	209	209	209	209	208	207	206	204	202	200	197	195	192	189	187	184	182	180	179	178	176	174	172	171	169	168	167	166	165	164	164	163	162	161	160	159	158	156	154	152	150	148	145	143	141	139	136	135	133	131	130	128	127	125	123	121	120	117	115	114	113	113	111	108	108	111	112	112	110	106	98	88	82	76	68	60	53	45	39	35	32	31	31	31	31	31	31	31	31	31	31	31	31	31	31	32	32	32	31	31	31	31	31	31	31	31	31	31	31	31	31	31	31	31	32	32	28	20	18	18	17	17	17	17	17	17	17	17	17	17	17	17	17	17	15	14	12	12	12	11	11	9	9	9	9	9	9	9	9	9	9	9	9	9	9	9	9	9	9	9	9	9	9	9	9	9	9	9	9	9	9	9	9	9	9	9	9	9	9	9	9	9	9	9	9	9	9	9	9	9	9	9	9	9	9	9	9	9	9	9	9	8	8	7	7	7	7	7	7	7	8	10	12	12	12	12	12	12	10	8	7	7	7	7	7	7	7	7	7	7	7	7	7	7	7	7	7	7	7	7	7	7	7	7	7	7	7	7	7	7	7	7	7	7	7	7	7	7	7	7	7	7	7	7	7	7	7	7	7	7	7	8	8	8	8	8	8	8	8	8	8	8	7	7	7	7	7	7	7	7	7	7	7	7	7	7	7	7	7	7	7	7	7	7	6	6	6	6	6	6	6	6	7	7	7	7	7	7	7	7	7	7	7	7	7	7	7	7	7	7	7	7	7	7	7	7
6	6	6	6	6	6	6	6	5	5	6	6	6	6	6	6	6	6	6	6	6	6	6	6	6	6	6	6	7	7	6	6	6	6	6	6	6	6	6	6	6	6	6	6	6	6	5	4	3	1	0	0	0	0	0	0	0	0	0	0	0	0	0	0	0	0	0	0	0	0	0	0	0	0	0	0	0	0	0	0	0	0	0	0	0	0	0	0	0	0	0	0	0	0	0	0	0	0	0	0	0	0	0	0	0	0	0	0	0	0	0	0	0	0	0	0	0	0	0	0	0	0	0	0	0	0	0	0	1	2	3	4	5	5	4	3	2	1	0	0	0	0	0	0	0	0	0	0	0	0	0	0	0	0	0	0	0	0	0	0	0	0	0	0	3	13	17	17	17	17	17	16	17	14	7	5	5	5	5	5	5	5	5	5	5	5	5	5	5	5	5	5	5	5	5	5	5	5	5	5	5	5	5	5	5	5	5	5	5	5	5	5	5	5	5	5	5	5	5	5	5	5	5	5	5	5	5	5	5	5	5	5	5	5	5	5	5	5	5	5	4	2	2	1	1	1	1	2	3	5	6	9	12	14	15	16	19	19	18	16	15	13	10	13	17	17	12	7	6	6	6	6	6	6	6	6	6	6	6	6	6	6	7	7	7	6	6	6	6	6	6	6	6	6	6	6	6	6	6	6	6	6	6	6	6	6	7	7	7	7	7	7	7	7	7	7	7	7	7	7	8	8	8	8	8	8	8	8	8	8	8	8	8	8	10	24	39	35	30	28	27	29	32	35	37	38	38	38	38	39	41	42	42	42	42	42	42	42	42	42	42	42	42	42	42	42	42	42	41	42	44	45	45	45	44	45	45	43	42	42	41	41	40	40	40	40	40	40	40	40	41	41	41	41	41	41	41	41	41	41	41	41	41	41	41	41	41	41	41	41	41	41	42	42	43	43	43	44	44	45	45	45	46	47	48	48	48	48	48	48	48	48	48	48	48	48	48	48	48	49	51	53	55	56	58	59	61	62	62	62	62	62	64	65	68	73	74	74	74	74	74	74	74	74	74	74	74	74	75	78	81	83	84	84	84	84	84	84	84	84	84	84	83	85	90	93	93	93	93	93	93	93	93	93	93	93	93	93	93	92	92	92	92	93	93	93	94	97	101	105	106	106	106	105	105	107	110	111	112	114	114	113	116	119	118	116	116	116	116	116	116	116	116	116	116	116	116	116	116	116	116	117	117	117	116	116	117	118	118	119	126	134	142	148	152	158	163	167	170	173	181	188	194	199	199	196	193	196	200	202	203	204	205	206	207	207	207	207	207	206	207	208	208	208	208	209	209	210	211	212	213	215	216	218	221	224	226	227	230	234	239	247	250	253	256	259	262	265	267	269	270	271	270	269	269	267	265	263	262	262	261	259	257	257	257	258	258	257	255	254	252	251	249	247	245	243	241	240	238	237	235	234	233	232	230	228	226	224	222	220	218	215	213	212	210	210	209	210	211	211	211	211	211	211	211	211	211	210	210	209	207	206	204	201	198	196	193	190	188	185	183	182	180	178	177	175	173	171	170	168	167	166	165	164	163	162	161	161	160	159	157	155	153	151	149	146	144	141	139	137	135	133	131	130	128	127	126	124	122	121	119	117	115	114	113	113	111	108	109	112	113	112	111	108	103	92	84	78	71	63	55	48	41	36	32	31	31	31	31	31	31	31	31	31	31	31	31	31	31	32	31	31	31	31	31	31	31	31	31	31	31	31	31	31	31	31	31	31	31	31	31	23	18	18	17	17	17	17	17	17	17	17	17	17	17	17	17	17	16	14	13	12	12	12	11	10	9	9	9	9	9	9	9	9	9	9	9	9	9	9	9	9	9	9	9	9	9	9	9	9	9	9	9	9	9	9	9	9	9	9	9	9	9	9	9	9	9	9	9	9	9	9	9	9	9	9	9	9	9	9	9	9	9	9	9	9	8	7	7	7	7	7	7	7	7	10	12	12	12	12	12	12	11	8	7	7	7	7	7	7	7	7	7	7	7	7	7	7	7	7	7	7	7	7	7	7	7	7	7	7	7	7	7	7	7	7	7	7	7	7	7	7	7	7	7	7	7	7	7	7	7	7	7	7	7	8	8	7	8	8	8	8	8	8	8	7	7	7	7	7	7	7	7	7	7	7	7	7	7	7	7	7	7	7	7	7	7	7	7	7	7	7	6	6	6	6	6	6	7	7	7	7	7	7	7	7	7	7	7	7	7	7	7	7	7	7	7	7	7	7
6	6	6	6	6	6	6	5	5	5	5	5	6	6	6	6	6	6	6	6	6	6	6	6	6	6	6	6	6	6	6	6	6	6	6	6	6	6	6	6	6	6	6	6	6	6	5	4	3	1	0	0	0	0	0	0	0	0	0	0	0	0	0	0	0	0	0	0	0	0	0	0	0	0	0	0	0	0	0	0	0	0	0	0	0	0	0	0	0	0	0	0	0	0	0	0	0	0	0	0	0	0	0	0	0	0	0	0	0	0	0	0	0	0	0	0	0	0	0	0	0	0	0	0	0	0	0	0	0	1	2	3	4	5	5	5	4	3	1	0	0	0	0	0	0	0	0	0	0	0	0	0	0	0	0	0	0	0	0	0	0	0	0	2	7	16	17	17	17	17	17	17	16	10	5	5	5	5	5	5	5	5	5	5	5	5	5	5	5	5	5	5	5	5	5	5	5	5	5	5	5	5	5	5	5	5	5	5	5	5	5	5	5	5	5	5	5	5	5	5	5	5	5	5	5	5	5	5	5	5	5	5	5	5	5	5	5	5	5	5	5	3	2	2	1	1	1	1	2	3	4	5	8	12	14	15	16	18	19	18	16	15	14	15	15	16	16	12	7	6	6	6	6	6	6	6	6	6	6	6	6	6	7	7	7	7	7	6	6	6	6	6	6	6	6	6	6	6	6	6	6	6	6	6	6	6	6	7	7	7	7	7	7	7	7	7	7	7	7	7	8	8	8	8	8	8	8	8	8	8	8	8	8	8	10	18	22	22	23	26	27	28	29	30	33	35	35	35	35	37	39	41	42	42	42	42	42	42	42	42	42	42	42	42	42	42	42	42	42	42	43	43	42	42	43	45	45	43	41	41	41	41	40	40	40	40	40	40	40	40	41	41	41	41	41	41	41	41	41	41	41	41	41	41	41	41	41	41	41	41	41	41	42	42	43	43	44	44	44	45	45	45	47	48	48	48	48	48	48	48	48	48	48	48	48	48	48	48	50	52	54	56	57	58	59	60	61	62	62	62	63	64	67	67	69	74	74	74	74	74	74	74	74	74	74	74	74	74	75	77	81	83	84	84	84	84	84	84	84	84	84	84	83	84	89	92	93	93	93	93	93	93	93	93	93	93	93	93	93	92	92	92	93	93	93	93	95	100	104	105	105	105	104	103	104	105	109	111	112	114	116	115	116	120	119	117	116	116	116	116	116	116	116	116	116	116	116	116	116	116	116	116	116	116	116	116	116	117	118	118	122	130	138	144	150	155	161	165	169	172	179	187	193	198	199	195	193	197	201	202	202	203	205	206	207	206	205	204	204	205	205	206	206	206	206	207	207	209	210	212	214	215	217	219	222	225	227	228	231	237	243	248	250	253	257	260	262	265	268	271	273	273	273	273	273	271	269	267	267	266	264	261	260	259	260	260	259	258	256	254	253	250	249	247	245	243	241	240	238	237	235	234	233	231	230	228	226	224	222	219	217	215	213	212	211	211	211	211	212	213	213	213	213	213	212	212	212	211	210	209	208	207	204	202	199	196	194	191	189	187	185	183	181	179	177	175	173	171	170	168	166	165	165	164	163	162	160	160	159	158	156	155	152	150	148	145	142	139	137	134	133	131	130	128	127	126	125	123	122	121	120	117	115	114	113	113	111	109	110	112	112	112	111	109	105	96	86	80	73	66	58	51	44	37	33	31	31	31	31	31	31	31	31	31	31	31	31	31	31	31	31	31	31	31	31	31	31	31	31	31	31	31	31	31	31	31	31	31	31	31	31	27	19	18	17	17	17	17	17	17	17	17	17	17	17	17	17	18	17	15	13	12	12	12	11	10	9	9	9	9	9	9	9	9	9	9	9	9	9	9	9	9	9	9	9	9	9	9	9	9	9	9	9	9	9	9	9	9	9	9	9	9	9	9	9	9	9	9	9	9	9	9	9	9	9	9	9	9	9	9	9	9	9	9	9	9	8	8	7	7	7	7	7	7	7	10	12	12	12	12	12	12	11	9	7	7	7	7	7	7	7	7	7	7	7	7	7	7	7	7	7	7	7	7	7	7	7	7	7	7	7	7	7	7	7	7	7	7	7	7	7	7	7	7	7	7	7	7	7	7	7	7	7	7	7	8	8	8	8	7	7	7	7	8	8	7	7	7	7	7	7	7	7	7	7	7	7	7	7	7	7	7	7	7	7	7	7	7	7	7	7	7	7	7	7	6	6	6	6	6	7	7	7	7	7	7	7	7	7	7	7	7	7	7	7	7	7	7	7	7
6	6	6	6	6	6	6	5	5	5	5	5	6	6	6	6	6	6	6	6	6	6	6	6	6	6	6	6	6	6	6	6	6	6	6	6	6	6	6	6	6	6	6	6	6	6	5	4	3	1	0	0	0	0	0	0	0	0	0	0	0	0	0	0	0	0	0	0	0	0	0	0	0	0	0	0	0	0	0	0	0	0	0	0	0	0	0	0	0	0	0	0	0	0	0	0	0	0	0	0	0	0	0	0	0	0	0	0	0	0	0	0	0	0	0	0	0	0	0	0	0	0	0	0	0	0	0	0	0	0	0	1	2	3	4	5	5	4	3	2	1	0	0	0	0	0	0	0	0	0	0	0	0	0	0	0	0	0	0	0	0	0	1	4	12	17	17	17	17	17	17	16	12	6	5	5	5	5	5	5	5	5	5	5	5	5	5	5	5	5	5	5	5	5	5	5	5	5	5	5	5	5	5	5	5	5	5	5	5	5	5	5	5	5	5	5	5	5	5	5	5	5	5	5	5	5	5	5	5	5	5	5	5	5	5	5	5	5	5	5	5	4	4	3	2	1	2	2	2	2	2	3	6	9	11	13	15	16	17	19	18	16	15	15	15	15	16	16	12	8	6	6	6	6	6	6	6	6	6	6	6	6	6	6	7	7	7	6	6	6	6	6	6	6	6	6	6	6	6	6	6	6	6	6	6	6	6	6	6	7	7	7	7	7	7	7	7	7	7	7	8	8	8	8	8	8	8	8	8	8	8	8	8	8	11	18	20	21	22	25	26	27	27	28	28	31	33	34	35	37	39	41	42	42	42	42	42	42	42	42	42	42	42	42	42	42	42	42	42	42	43	43	43	43	43	45	45	43	42	41	41	41	40	40	40	40	40	40	40	41	41	41	41	41	41	41	41	41	41	41	41	41	41	41	41	41	41	41	41	41	41	41	42	42	43	44	44	45	45	45	45	46	47	48	48	48	48	48	48	48	48	48	48	48	48	48	49	51	53	56	58	58	59	60	61	61	62	64	65	65	66	67	70	67	69	74	74	74	74	74	74	74	74	74	74	74	74	74	74	76	80	83	84	84	84	84	84	84	84	84	84	84	83	83	87	91	92	93	93	93	93	93	93	93	93	93	93	93	93	92	92	92	93	93	93	93	96	103	106	106	107	107	104	101	103	105	108	111	112	114	117	117	116	119	120	118	117	116	116	116	116	116	116	116	116	116	116	116	116	116	116	116	116	116	116	116	116	117	118	118	119	125	134	141	147	153	158	163	167	170	176	186	192	197	198	195	193	197	200	201	202	204	205	205	205	204	203	203	203	204	205	205	205	205	205	205	206	208	210	213	215	217	219	221	223	226	229	231	234	240	245	249	251	254	258	261	264	267	270	273	275	276	275	275	275	274	272	271	271	269	266	264	263	262	262	261	261	259	257	255	252	250	248	247	245	243	241	240	238	237	235	234	233	231	230	228	227	224	222	220	218	216	214	213	212	212	213	213	214	214	214	214	214	213	213	212	212	211	211	210	208	207	205	202	199	197	194	192	190	188	186	184	181	179	177	175	173	171	169	167	166	165	164	163	161	161	160	159	157	156	155	154	152	150	147	144	141	138	135	133	131	130	129	127	126	125	124	123	121	121	120	118	116	114	113	112	110	109	110	111	112	112	110	109	106	99	88	82	76	69	61	54	47	40	35	32	31	31	31	31	31	31	31	31	31	31	31	31	31	31	31	31	31	31	31	31	31	31	31	31	31	31	31	31	31	31	31	31	31	32	32	29	19	18	18	17	17	17	17	17	17	17	17	18	18	17	17	18	18	16	14	13	12	12	12	11	10	9	9	9	9	9	9	9	9	9	9	9	9	9	9	9	9	9	9	9	9	9	9	9	9	9	9	9	9	9	9	9	9	9	9	9	9	9	9	9	9	9	9	9	9	9	9	9	9	9	9	9	9	9	9	9	9	9	9	9	8	8	7	7	7	7	7	7	8	10	12	12	12	12	12	12	11	9	7	7	7	7	7	7	7	7	7	7	7	7	7	7	7	7	7	7	7	7	7	7	7	7	7	7	7	7	7	7	7	7	7	7	7	7	7	7	7	7	7	7	7	7	7	7	7	7	7	7	7	7	7	7	7	7	7	7	7	7	7	7	7	7	7	7	7	7	7	7	7	7	7	7	7	7	7	7	7	7	7	7	7	7	7	7	7	7	7	7	7	7	7	7	6	6	6	7	7	7	7	7	7	7	7	7	7	7	7	7	7	7	7	7	7	7
6	6	6	6	6	6	6	5	5	6	6	6	6	5	6	6	6	6	6	6	6	6	6	6	6	6	6	6	6	6	6	6	6	6	6	6	6	6	6	6	6	6	6	6	6	6	5	5	3	1	0	0	0	0	0	0	0	0	0	0	0	0	0	0	0	0	0	0	0	0	0	0	0	0	0	0	0	0	0	0	0	0	0	0	0	0	0	0	0	0	0	0	0	0	0	0	0	0	0	0	0	0	0	0	0	0	0	0	0	0	0	0	0	0	0	0	0	0	0	0	0	0	0	0	0	0	0	0	0	0	0	0	1	2	3	4	5	5	4	3	2	1	0	0	0	0	0	0	0	0	0	0	0	0	0	0	0	0	0	0	0	0	2	9	16	17	17	17	17	17	17	14	7	5	5	5	5	5	5	5	5	5	5	5	5	5	5	5	5	5	5	5	5	5	5	5	5	5	5	5	5	5	5	5	5	5	5	5	5	5	5	5	5	5	5	5	5	5	5	5	5	5	5	5	5	5	5	5	5	5	5	5	5	5	5	5	5	5	5	5	5	5	5	4	3	2	1	2	2	2	2	2	4	7	9	11	13	14	15	17	19	19	16	15	14	15	15	15	16	13	8	6	6	6	6	6	6	6	6	6	6	6	6	6	6	6	6	6	7	7	7	6	6	6	6	6	6	6	6	6	6	6	6	6	6	6	6	6	6	6	6	6	6	7	7	7	7	7	7	7	8	8	8	8	8	8	8	8	8	8	8	8	8	8	12	18	20	21	23	24	25	26	27	27	27	29	31	33	34	36	39	41	42	42	42	42	42	42	42	42	42	42	42	42	42	42	42	42	42	42	43	44	46	47	46	46	45	43	42	42	42	41	40	40	40	40	40	40	40	41	41	41	41	41	41	41	41	41	41	41	41	41	41	41	41	41	41	41	41	42	42	42	42	43	43	44	45	45	45	45	46	47	48	48	48	48	48	48	48	48	48	48	48	48	48	49	53	58	60	62	62	60	60	62	63	64	65	66	67	68	68	68	69	66	69	74	74	74	74	74	74	74	74	74	74	74	74	74	74	75	79	82	84	84	84	84	84	84	84	84	84	84	83	83	85	89	92	93	93	93	93	93	93	93	93	93	93	93	93	92	92	92	93	93	93	93	96	103	106	108	108	108	103	99	100	102	106	110	111	113	117	118	117	119	120	119	117	116	116	116	116	116	116	116	116	116	116	116	116	116	116	116	116	116	116	116	116	117	118	118	119	122	130	137	144	151	156	161	166	169	173	181	188	193	195	194	194	196	199	200	201	203	204	202	200	199	200	201	201	202	203	204	204	203	204	205	207	209	212	214	217	219	220	222	224	227	232	234	237	243	247	250	253	256	260	263	266	268	271	274	276	277	276	276	276	275	274	273	273	270	267	266	265	265	264	263	261	259	257	254	252	250	248	246	245	243	241	240	239	237	236	234	233	232	230	229	227	225	222	220	218	216	215	214	213	213	214	215	215	216	215	215	215	214	213	213	212	211	211	209	208	207	204	202	199	196	194	192	190	188	186	184	182	180	177	175	173	171	169	167	165	164	163	161	161	160	159	158	157	156	155	153	151	149	146	143	140	137	135	132	131	130	129	127	125	124	123	122	121	120	118	117	116	114	112	110	109	109	109	110	111	110	110	108	106	101	90	84	79	72	64	57	50	43	37	33	31	31	31	31	31	31	31	31	31	31	31	31	31	31	31	31	31	31	31	31	31	31	31	31	31	31	31	31	31	31	31	31	31	32	33	30	20	18	18	18	17	17	17	17	17	18	18	18	18	17	17	17	18	17	15	13	12	12	12	12	11	9	9	9	9	9	9	9	9	9	9	9	9	9	9	9	9	9	9	9	9	9	9	9	9	9	9	9	9	9	9	9	9	9	9	9	9	9	9	9	9	9	9	9	9	9	9	9	9	9	9	9	9	9	9	9	9	9	9	9	8	8	8	7	7	7	7	7	8	10	12	12	13	12	12	12	11	9	7	7	7	7	7	7	7	7	7	7	7	7	7	7	7	7	7	7	7	7	7	7	7	7	7	7	7	7	7	7	7	7	7	7	7	7	7	7	7	7	7	7	7	7	7	7	7	7	7	7	7	7	7	7	7	7	7	7	7	7	7	7	7	7	7	7	7	7	7	7	7	7	7	7	7	7	7	7	7	7	7	7	7	7	7	7	7	7	7	7	7	7	7	7	7	7	7	7	7	7	7	7	7	7	7	7	7	7	7	7	7	7	7	7	7	7
6	6	6	6	6	6	6	5	5	5	6	6	6	5	6	6	6	6	6	6	6	6	6	6	6	6	6	6	6	6	6	6	6	6	6	6	6	6	6	6	6	6	6	6	6	6	5	5	3	1	0	0	0	0	0	0	0	0	0	0	0	0	0	0	0	0	0	0	0	0	0	0	0	0	0	0	0	0	0	0	0	0	0	0	0	0	0	0	0	0	0	0	0	0	0	0	0	0	0	0	0	0	0	0	0	0	0	0	0	0	0	0	0	0	0	0	0	0	0	0	0	0	0	0	0	0	0	0	0	0	0	0	0	0	1	3	4	5	5	5	4	3	1	0	0	0	0	0	0	0	0	0	0	0	0	0	0	0	0	0	0	1	5	14	17	17	17	17	17	17	15	9	5	5	5	5	5	5	5	5	5	5	5	5	5	5	5	5	5	5	5	5	5	5	5	5	5	5	5	5	5	5	5	5	5	5	5	5	5	5	5	5	5	5	5	5	5	5	5	5	5	5	5	5	5	5	5	5	5	5	5	5	5	5	5	5	5	5	5	5	5	5	5	5	4	3	2	2	2	2	2	2	2	4	7	9	10	12	14	15	16	18	19	17	15	14	14	14	14	13	10	7	6	6	6	6	6	6	6	6	6	6	6	6	6	6	6	6	7	7	7	7	7	6	6	6	6	6	6	6	6	6	6	6	6	6	6	6	6	6	6	6	6	6	7	7	7	7	7	7	8	8	8	8	8	8	8	8	8	8	8	8	8	9	14	18	21	23	23	24	26	27	27	31	31	31	32	34	35	37	40	41	42	42	42	42	42	42	42	42	42	42	42	42	42	42	42	42	42	42	43	45	48	50	48	46	45	44	42	42	42	41	40	40	40	40	40	40	41	41	41	41	41	41	41	41	41	42	42	41	41	41	41	41	42	41	41	41	41	42	42	42	43	43	44	44	45	45	45	46	47	48	48	48	48	48	48	48	48	48	48	48	48	48	48	52	60	64	65	65	63	62	62	63	64	65	66	67	67	68	69	70	71	69	71	74	74	74	74	74	74	74	74	74	74	74	74	74	74	75	78	82	84	84	84	84	84	84	84	84	84	84	84	83	84	88	91	93	93	93	93	93	93	93	93	93	93	93	93	93	92	93	93	93	93	93	94	100	105	109	111	109	102	99	100	102	106	109	109	112	115	117	117	118	120	120	118	116	116	116	116	116	116	116	116	116	116	116	116	116	116	116	117	117	117	117	116	116	116	117	118	119	125	134	141	148	154	159	164	167	170	176	183	190	194	194	194	195	197	198	200	201	200	198	196	196	196	198	199	200	201	201	201	202	204	206	209	212	214	216	218	220	222	224	226	230	235	238	242	247	249	251	254	258	262	263	266	269	272	274	276	277	276	275	275	275	275	274	273	270	268	268	267	266	265	264	262	259	256	254	252	250	248	247	245	243	242	241	239	238	236	235	234	232	231	229	227	225	222	220	218	216	215	214	214	215	216	217	217	217	217	216	215	215	214	213	212	211	210	209	208	206	204	201	198	196	193	190	189	187	185	183	182	179	177	175	173	170	169	167	166	164	163	161	161	160	159	158	157	156	155	153	150	148	146	143	140	137	135	133	132	130	128	127	125	124	122	121	120	118	117	116	115	112	110	109	109	109	109	109	109	108	108	108	106	101	91	85	81	75	67	60	53	46	40	35	32	31	31	31	31	31	31	31	31	31	31	31	31	31	31	31	31	31	31	31	31	31	31	31	31	31	31	31	31	31	31	31	31	31	32	31	23	18	18	18	18	17	18	18	18	18	18	18	18	18	17	17	18	18	15	13	13	12	12	12	11	10	9	9	9	9	9	9	9	9	9	9	9	9	9	9	9	9	9	9	9	9	9	9	9	9	9	9	9	9	9	9	9	9	9	9	9	9	9	9	9	9	9	9	9	9	9	9	9	9	9	9	9	9	9	9	9	9	9	9	8	8	8	8	7	8	8	8	8	10	12	12	13	12	12	12	11	9	7	7	6	6	7	7	7	7	7	7	7	7	7	7	7	7	7	7	7	7	7	7	7	7	7	7	7	7	7	7	7	7	7	7	7	7	7	7	7	7	7	7	7	7	7	7	7	7	7	7	7	7	7	7	7	7	7	7	7	7	7	7	7	7	7	7	7	7	7	7	7	7	7	7	7	7	7	7	7	7	7	7	7	7	7	7	7	7	7	7	7	7	7	7	7	7	7	7	7	7	7	7	7	7	7	7	7	7	7	7	7	7	7	7	7	7
6	6	6	6	6	6	6	6	5	5	6	6	6	6	6	6	6	6	6	6	6	6	6	6	6	6	6	6	6	5	5	6	6	6	6	6	6	6	6	6	6	6	6	6	6	6	5	5	4	2	0	0	0	0	0	0	0	0	0	0	0	0	0	0	0	0	0	0	0	0	0	0	0	0	0	0	0	0	0	0	0	0	0	0	0	0	0	0	0	0	0	0	0	0	0	0	0	0	0	0	0	0	0	0	0	0	0	0	0	0	0	0	0	0	0	0	0	0	0	0	0	0	0	0	0	0	0	0	0	0	0	0	0	0	0	1	2	3	5	5	5	4	3	2	1	0	0	0	0	0	0	0	0	0	0	0	0	0	0	0	1	4	12	17	17	17	17	17	17	16	11	6	5	5	5	5	5	5	5	5	5	5	5	5	5	5	5	5	5	5	5	5	5	5	5	5	5	5	5	5	5	5	5	5	5	5	5	5	5	5	5	5	5	5	5	5	5	5	5	5	5	5	5	5	5	5	5	5	5	5	5	5	5	5	5	5	5	5	5	5	5	5	5	5	5	4	3	3	2	2	2	2	2	2	4	7	9	10	12	13	14	16	18	19	17	15	14	14	11	8	7	7	7	7	6	6	6	6	6	6	6	6	6	6	6	6	6	6	7	7	7	7	7	7	6	6	6	6	6	6	6	6	6	6	6	6	6	6	6	6	6	6	6	6	7	7	7	7	7	7	8	8	8	8	8	8	8	8	8	8	8	8	8	11	15	17	20	23	24	27	32	32	33	37	38	38	38	38	38	40	41	42	43	42	42	42	42	42	42	42	42	42	42	42	42	42	42	42	42	43	44	46	49	49	47	46	44	44	43	42	42	41	40	40	40	40	40	40	41	41	41	41	41	41	41	41	42	43	43	42	41	41	41	41	41	41	41	41	41	42	42	43	44	44	44	45	45	45	46	47	48	48	48	48	48	48	48	48	48	48	48	48	48	48	49	56	64	67	68	66	65	64	64	64	64	65	66	67	67	69	71	73	75	74	74	74	74	74	74	74	74	74	74	74	74	74	74	74	74	75	78	82	83	84	84	84	84	84	84	84	84	84	84	84	86	90	92	93	93	93	93	93	93	93	93	93	93	93	93	93	93	93	93	93	93	93	94	97	104	109	111	109	101	100	100	104	108	108	108	111	113	115	114	116	120	119	117	116	116	116	116	116	116	116	116	116	116	116	116	116	116	116	117	117	117	116	116	116	116	116	118	119	123	131	138	144	151	156	161	166	169	173	178	186	192	192	193	194	195	196	198	198	196	195	194	193	194	195	196	197	198	199	201	202	204	207	210	213	214	216	218	221	223	225	229	234	238	241	247	252	252	253	256	260	262	264	267	270	272	274	276	276	275	273	273	274	274	274	272	270	269	269	268	267	266	264	261	259	257	255	253	252	250	248	247	245	243	242	240	239	238	236	235	233	232	230	227	225	222	220	218	217	216	216	216	217	218	218	218	218	217	217	216	215	214	214	213	212	210	209	208	206	204	201	199	195	192	189	187	185	184	182	180	178	176	174	172	170	169	168	167	165	163	162	161	161	160	159	158	157	155	153	150	148	146	143	140	138	136	134	132	130	128	127	126	124	122	121	119	117	116	114	112	110	108	108	108	108	109	109	107	105	106	106	105	100	91	86	83	78	71	64	57	50	44	37	33	31	31	31	31	31	31	31	31	31	31	31	31	31	31	31	31	31	31	31	31	31	31	32	32	31	31	31	32	31	31	31	31	31	31	31	27	19	17	18	18	18	18	18	18	18	18	18	18	18	17	17	17	16	15	14	13	13	12	12	12	11	10	9	9	9	9	9	9	9	9	9	9	9	9	9	9	9	9	9	9	9	9	9	9	9	9	9	9	9	9	9	9	9	9	9	9	9	9	9	9	9	9	9	9	9	9	9	9	9	9	9	9	9	9	9	9	9	9	9	8	8	8	8	8	8	8	8	9	11	12	12	13	12	12	11	10	9	7	7	6	6	6	6	7	7	7	7	7	7	7	7	7	7	7	7	7	7	7	7	7	7	7	7	7	7	7	7	7	7	7	7	7	7	7	7	7	7	7	7	7	7	7	7	7	7	7	7	7	7	7	7	7	7	7	7	7	7	7	7	7	7	7	7	7	7	7	7	7	7	7	7	7	7	7	7	7	7	7	7	7	7	7	7	7	7	7	7	7	7	7	7	7	7	7	7	7	7	7	7	7	7	7	7	7	7	7	7	7	7	7	7	7	7
6	6	6	6	6	6	6	6	6	6	6	6	6	6	6	6	6	6	6	6	6	6	6	6	6	6	6	6	5	5	5	6	6	6	6	6	6	6	6	6	6	6	6	6	6	6	5	5	4	2	0	0	0	0	0	0	0	0	0	0	0	0	0	0	0	0	0	0	0	0	0	0	0	0	0	0	0	0	0	0	0	0	0	0	0	0	0	0	0	0	0	0	0	0	0	0	0	0	0	0	0	0	0	0	0	0	0	0	0	0	0	0	0	0	0	0	0	0	0	0	0	0	0	0	0	0	0	0	0	0	0	0	0	0	0	0	1	2	3	4	5	5	5	4	2	1	1	1	1	0	0	0	0	0	0	0	0	0	0	0	2	11	17	17	17	17	17	17	17	13	6	5	5	5	5	5	5	5	5	5	5	5	5	5	5	5	5	5	5	5	5	5	5	5	5	5	5	5	5	5	5	5	5	5	5	5	5	5	5	5	5	5	5	5	5	5	5	5	5	5	5	5	5	5	5	5	5	5	5	5	5	5	5	5	5	5	5	5	5	5	5	5	5	5	5	5	5	4	3	2	2	2	2	2	2	4	6	8	10	12	13	14	15	17	18	17	15	14	13	10	8	7	7	7	7	6	6	6	6	6	6	6	6	6	6	6	6	7	7	7	7	7	7	7	7	6	6	6	6	6	6	6	6	6	6	6	6	6	6	6	6	6	6	6	6	7	7	7	7	8	8	8	8	8	8	8	8	8	8	8	8	8	8	11	15	14	17	24	28	33	37	38	40	43	43	42	42	42	42	42	42	43	43	42	42	42	42	42	42	42	42	42	42	42	42	42	42	42	43	43	44	46	47	46	44	43	42	41	43	43	42	41	40	40	40	40	40	40	41	41	41	41	41	41	41	42	43	45	45	44	42	41	41	41	41	41	41	41	42	42	43	44	45	45	46	46	46	46	47	48	48	48	48	48	48	48	48	48	48	48	48	48	48	49	53	60	66	68	68	67	67	66	66	66	66	66	66	66	67	70	73	74	75	75	74	74	74	74	74	74	74	74	74	74	74	74	74	74	74	75	78	82	83	84	84	84	84	84	84	84	84	84	84	84	86	92	93	93	93	93	93	93	93	93	93	93	93	93	93	93	93	93	93	93	93	93	93	97	103	108	110	109	103	102	102	106	109	108	109	111	113	113	112	113	118	118	117	116	116	116	116	116	116	116	116	116	116	116	116	116	116	116	116	117	117	116	116	116	116	116	118	118	120	128	134	141	149	154	159	164	168	171	174	180	188	189	190	192	193	194	195	195	194	192	192	191	191	192	193	195	197	199	201	203	205	207	210	212	214	216	219	222	224	227	231	237	241	244	250	253	254	255	258	262	265	267	270	272	273	275	276	275	273	271	272	273	273	274	273	270	270	270	269	268	267	265	262	260	258	257	255	254	252	250	248	246	244	242	241	240	239	238	236	235	233	230	228	225	222	220	218	217	217	217	218	218	219	219	219	219	218	218	217	216	215	214	213	212	210	209	208	206	204	201	199	196	192	189	186	184	182	180	178	176	175	174	172	171	170	169	168	166	164	162	162	161	161	160	159	158	156	154	151	149	147	144	141	138	136	134	132	130	129	128	126	124	122	121	119	117	116	113	111	108	107	107	107	106	107	108	107	104	103	104	103	98	91	87	84	80	74	67	60	53	47	41	35	32	31	30	31	31	31	31	31	31	31	31	31	31	31	31	31	32	32	31	31	31	32	32	32	32	32	32	32	31	31	31	31	31	31	31	29	20	17	17	18	18	18	18	18	18	18	18	17	18	17	17	16	15	14	14	13	13	13	12	12	12	11	10	9	9	9	9	9	9	9	9	9	9	9	9	9	9	9	9	9	9	9	9	9	9	9	9	9	9	9	9	9	9	9	9	9	9	9	9	9	9	9	9	9	9	9	9	9	9	9	9	9	9	9	9	9	9	9	9	9	8	8	8	8	8	8	8	9	11	12	12	13	12	12	11	10	9	7	7	6	6	6	6	7	7	7	7	7	7	7	7	7	7	7	7	7	7	7	7	7	7	7	7	7	7	7	7	7	7	7	7	7	7	7	7	7	7	7	7	7	7	7	7	7	7	7	7	7	7	7	7	7	7	7	7	7	7	7	7	7	7	7	7	7	7	7	7	7	7	7	7	7	7	7	7	7	7	7	7	7	7	7	7	7	7	7	7	7	7	7	7	7	7	7	7	7	7	7	7	7	7	7	7	7	7	7	7	7	7	7	7	7	7
6	6	6	6	6	6	6	6	6	6	6	6	6	6	6	6	6	6	6	6	6	6	6	6	6	6	6	6	5	5	5	6	6	6	5	6	6	6	6	6	6	6	6	6	6	6	5	5	4	2	0	0	0	0	0	0	0	0	0	0	0	0	0	0	0	0	0	0	0	0	0	0	0	0	0	0	0	0	0	0	0	0	0	0	0	0	0	0	0	0	0	0	0	0	0	0	0	0	0	0	0	0	0	0	0	0	0	0	0	0	0	0	0	0	0	0	0	0	0	0	0	0	0	0	0	0	0	0	0	0	0	0	0	0	0	0	0	0	1	2	4	5	5	5	4	3	3	4	4	2	0	0	0	0	0	0	0	0	0	1	5	15	17	17	18	17	17	17	15	8	5	5	5	5	5	5	5	5	5	5	5	5	5	5	5	5	5	5	5	5	5	5	5	5	5	5	5	5	5	5	5	5	5	5	5	5	5	5	5	5	5	5	5	5	5	5	5	5	5	5	5	5	5	5	5	5	5	5	5	5	5	5	5	5	5	5	5	5	5	5	5	5	5	5	5	5	5	5	4	3	2	2	2	2	2	2	3	5	8	11	12	13	14	15	17	18	17	15	14	13	11	9	8	7	8	8	7	6	6	6	6	6	6	6	6	6	6	7	7	7	7	7	8	8	7	6	6	6	6	6	6	6	6	6	6	6	6	6	6	6	6	6	6	6	6	7	7	7	7	8	8	8	8	8	8	8	8	8	8	8	8	8	8	11	16	15	19	30	37	38	39	41	45	47	48	46	45	46	46	46	45	43	42	42	42	42	42	42	42	42	42	42	42	42	42	42	42	42	44	45	45	45	43	41	41	40	38	37	39	43	44	42	40	40	40	40	42	42	41	41	41	41	41	41	41	42	43	45	46	45	43	41	41	41	41	41	42	42	42	42	43	44	46	47	47	47	47	47	48	48	48	48	48	48	48	48	48	48	48	48	48	48	48	51	58	63	67	67	67	67	67	67	68	68	67	66	66	66	67	69	72	74	73	74	74	74	74	74	74	74	74	74	74	74	74	74	74	74	74	75	78	82	83	84	84	84	84	84	84	84	84	84	84	83	85	91	93	93	93	93	93	93	93	93	93	93	93	93	93	93	93	93	93	93	94	93	94	99	104	104	107	107	104	104	105	108	108	108	110	112	113	113	111	113	116	117	116	116	116	116	116	116	116	116	116	116	116	116	116	116	116	116	116	117	117	116	116	116	116	116	117	118	118	123	131	139	146	151	156	162	166	169	172	177	184	187	188	190	190	191	192	192	191	190	190	190	189	191	193	194	196	200	203	204	205	207	209	211	213	216	219	222	225	228	233	238	242	245	250	253	255	257	260	264	267	269	272	273	274	275	275	273	272	271	271	271	271	275	276	274	272	271	271	270	268	266	264	262	260	259	257	255	254	252	250	247	245	243	242	241	240	239	238	236	233	231	228	225	222	220	219	218	218	219	219	220	220	221	221	220	219	218	217	217	216	215	214	212	210	209	207	205	203	201	198	195	192	188	186	183	180	178	177	176	174	173	173	172	171	170	168	166	164	163	163	163	162	161	160	158	157	155	153	151	148	145	142	139	136	134	132	131	130	128	126	124	123	121	120	118	116	113	111	108	107	106	106	103	104	107	106	103	102	101	101	97	91	88	85	81	76	71	64	57	51	44	38	34	31	31	30	31	31	31	31	31	31	31	31	31	31	31	31	32	32	31	31	31	31	32	32	32	32	32	32	32	32	32	32	31	31	31	31	23	17	17	17	18	18	18	18	18	18	18	17	17	17	16	15	14	14	14	14	13	13	13	13	12	12	11	10	9	9	9	9	9	9	9	9	9	9	9	9	9	9	9	9	9	9	9	9	9	9	9	9	9	9	9	9	9	9	9	9	9	9	9	9	9	9	9	9	9	9	9	9	9	9	9	9	9	9	9	9	9	9	9	9	8	8	8	8	9	9	9	10	11	12	12	13	12	12	11	10	9	7	7	6	6	6	7	7	7	7	7	7	7	7	7	7	7	7	7	7	7	7	7	7	7	7	7	7	7	7	7	7	7	7	7	7	7	7	7	7	7	7	7	7	7	7	7	7	7	7	7	7	7	7	7	7	7	7	7	7	7	7	7	7	7	7	7	7	7	7	7	7	7	7	7	7	7	7	7	7	7	7	7	7	7	7	7	7	7	7	7	7	7	7	7	7	7	7	7	7	7	7	7	7	7	7	7	7	7	7	7	7	7	7	7	7	7
6	6	6	6	6	6	5	5	6	6	6	6	6	6	6	6	6	6	6	6	6	6	6	6	6	6	6	6	5	5	6	6	6	6	5	6	6	6	6	6	6	6	6	6	6	6	6	5	4	2	0	0	0	0	0	0	0	0	0	0	0	0	0	0	0	0	0	0	0	0	0	0	0	0	0	0	0	0	0	0	0	0	0	0	0	0	0	0	0	0	0	0	0	0	0	0	0	0	0	0	0	0	0	0	0	0	0	0	0	0	0	0	0	0	0	0	0	0	0	0	0	0	0	0	0	0	0	0	0	0	0	0	0	0	0	0	0	0	0	1	2	3	4	5	5	5	5	6	6	4	3	1	0	0	0	0	0	0	0	3	10	17	18	18	18	17	17	17	11	6	5	5	5	5	5	5	5	5	5	5	5	5	5	5	5	5	5	5	5	5	5	5	5	5	5	5	5	5	5	5	5	5	5	5	5	5	5	5	5	5	5	5	5	5	5	5	5	5	5	5	5	5	5	5	5	5	5	5	5	5	5	5	5	5	5	5	5	5	5	5	5	5	5	5	5	5	5	5	5	4	3	2	2	2	2	2	2	2	5	8	11	12	13	14	15	16	17	17	16	14	13	12	10	8	9	10	9	7	6	6	6	6	6	6	6	6	6	7	7	7	7	7	8	8	7	6	6	6	6	6	6	6	6	6	6	6	6	6	6	6	6	6	6	6	6	7	7	7	7	8	8	8	8	8	8	8	8	8	8	8	8	8	9	13	18	20	28	37	40	41	42	44	48	50	50	49	48	48	47	45	44	43	42	42	42	42	42	42	42	42	42	42	43	43	42	42	42	44	47	47	45	43	40	38	38	37	36	35	34	37	43	44	42	41	40	44	48	46	42	41	42	41	41	41	41	41	40	41	44	46	45	43	42	41	42	42	42	42	42	43	43	45	47	48	49	49	48	48	48	48	48	48	48	48	48	48	48	48	48	48	48	48	50	55	61	65	66	66	66	66	67	67	68	68	67	66	66	66	66	67	69	71	70	72	74	74	74	74	74	74	74	74	74	74	74	74	74	74	74	75	77	81	83	84	84	84	84	84	84	84	84	84	84	83	85	90	93	93	93	93	93	93	93	93	93	93	93	93	93	93	93	93	93	93	93	93	94	99	103	103	105	105	105	107	110	110	108	109	112	113	113	113	112	113	116	117	116	116	116	116	116	116	116	115	116	116	116	116	116	116	116	116	116	117	117	116	116	116	116	116	116	117	118	121	128	135	142	148	154	160	164	168	171	175	180	183	186	188	188	189	190	190	189	189	189	189	189	191	195	197	199	202	205	206	206	207	208	211	214	217	219	222	225	229	233	238	242	245	249	253	255	258	260	264	268	269	271	273	274	274	272	270	269	270	270	269	270	275	278	278	276	274	273	272	270	268	266	264	263	261	259	257	255	253	251	248	246	245	243	242	241	240	238	236	233	230	227	224	222	220	220	220	220	220	221	221	221	222	222	221	220	219	218	217	216	215	213	212	210	209	206	204	201	199	197	194	191	188	185	183	181	179	177	176	174	173	173	172	171	170	168	167	165	165	165	164	163	162	161	160	158	157	155	153	150	146	142	139	136	135	133	131	130	128	126	124	122	121	120	119	116	113	111	109	106	105	106	104	104	106	105	103	101	100	99	96	91	89	86	82	78	74	68	62	55	49	42	37	33	32	30	31	31	31	31	31	31	31	31	31	30	31	31	31	32	32	31	31	31	32	32	32	32	32	32	32	32	32	32	31	31	31	31	26	18	17	17	18	18	18	18	18	18	18	17	17	16	15	15	14	14	14	14	14	13	13	13	13	13	12	12	11	10	9	9	9	9	9	8	9	9	9	9	9	9	9	9	9	9	9	9	9	9	9	9	9	9	9	9	9	9	9	9	9	9	9	9	9	9	8	8	9	8	8	9	9	9	9	9	9	9	9	9	9	9	9	9	9	9	9	9	9	9	9	10	11	12	12	12	12	12	11	10	8	7	7	6	6	6	7	7	7	7	7	7	7	7	7	7	7	7	7	7	7	7	7	7	7	7	7	7	7	7	7	7	7	7	7	7	7	7	7	7	7	7	7	7	7	7	7	7	7	7	7	7	7	7	7	7	7	7	7	7	7	7	7	7	7	7	7	7	7	7	7	7	7	7	7	7	7	7	7	7	7	7	7	7	7	7	7	7	7	7	7	7	7	7	7	7	7	7	7	7	7	7	7	7	7	7	7	7	7	7	7	7	7	7	7	7	7
6	6	6	6	6	6	6	6	6	6	6	6	6	6	6	6	6	6	6	6	6	6	6	6	6	6	6	6	6	6	6	6	6	6	6	6	6	6	6	6	6	6	6	6	6	6	6	5	4	2	0	0	0	0	0	0	0	0	0	0	0	0	0	0	0	0	0	0	0	0	0	0	0	0	0	0	0	0	0	0	0	0	0	0	0	0	0	0	0	0	0	0	0	0	0	0	0	0	0	0	0	0	0	0	0	0	0	0	0	0	0	0	0	0	0	0	0	0	0	0	0	0	0	0	0	0	0	0	0	0	0	0	0	0	0	0	0	0	0	0	0	1	3	4	5	6	6	6	6	6	5	3	1	0	0	0	0	1	3	8	15	18	18	18	18	17	17	14	7	5	5	5	5	5	5	5	5	5	5	5	5	5	5	5	5	5	5	5	5	5	5	5	5	5	5	5	5	5	5	5	5	5	5	5	5	5	5	5	5	5	5	5	5	5	5	5	5	5	5	5	5	5	5	5	5	5	5	5	5	5	5	5	5	5	5	5	5	5	5	5	5	5	5	5	5	5	5	5	5	5	4	3	2	2	2	2	2	2	2	5	9	12	12	13	14	14	15	17	17	15	14	14	12	10	10	10	10	9	8	6	6	6	6	6	6	6	6	6	6	7	7	7	7	7	7	7	6	6	6	6	6	6	6	6	6	6	6	6	6	6	6	6	6	6	6	7	7	7	7	8	8	8	8	8	8	8	8	8	8	8	8	8	9	13	20	26	35	40	42	43	44	45	49	51	51	51	50	49	45	43	42	42	42	42	42	42	42	42	42	42	42	43	43	43	42	42	42	44	48	47	44	41	38	37	36	35	34	33	31	31	35	43	46	42	41	47	50	48	43	41	41	41	41	41	41	38	32	35	40	44	46	45	44	42	42	42	43	43	43	43	43	45	48	50	51	50	49	48	48	48	48	48	48	48	48	48	48	48	48	48	48	50	54	59	64	66	66	66	66	66	66	67	68	67	66	66	66	66	66	67	68	69	69	72	74	74	74	74	74	74	74	74	74	74	74	74	74	74	75	75	77	81	83	84	84	84	84	84	84	84	84	84	83	83	85	90	93	93	93	93	93	93	93	93	93	93	93	93	93	93	93	93	93	93	93	93	95	100	102	104	108	106	106	111	113	111	109	113	115	113	113	112	111	113	116	117	116	116	116	116	116	116	116	116	116	116	116	116	116	116	116	116	116	117	116	116	116	116	116	116	116	116	116	120	125	131	138	145	151	157	162	167	170	173	177	180	184	186	186	187	189	190	188	187	188	188	189	193	197	199	201	204	207	208	208	207	208	211	214	217	218	221	225	228	233	238	242	245	248	252	254	256	258	262	266	267	269	272	272	270	268	268	268	268	267	266	268	275	280	280	278	276	276	274	272	270	268	266	264	262	260	258	256	254	251	249	247	246	244	243	242	240	238	236	232	229	226	224	222	221	221	222	222	222	222	222	222	222	222	222	221	219	218	217	216	214	213	212	210	208	205	203	200	197	195	192	190	187	185	183	182	180	178	176	175	174	173	172	171	170	168	167	166	166	166	166	164	163	162	161	159	158	156	154	150	147	143	140	137	136	134	132	130	127	125	123	122	121	120	118	115	113	111	108	105	106	108	106	105	105	104	101	99	98	96	94	91	89	86	83	79	76	72	66	59	52	46	40	36	33	31	30	31	31	31	31	31	31	31	30	30	31	31	31	32	32	32	32	32	32	32	32	32	32	32	32	32	32	32	31	31	31	31	29	21	17	17	17	17	17	17	18	18	17	17	16	15	15	15	15	15	15	14	14	14	13	13	13	13	13	13	12	11	11	10	10	9	9	8	8	8	9	9	9	9	9	9	9	9	9	9	9	9	9	9	9	9	9	9	9	9	9	9	9	9	9	9	9	8	8	8	8	8	8	8	8	9	9	9	9	9	9	9	9	9	9	9	9	9	9	9	9	9	9	10	11	12	12	13	12	12	11	10	8	7	6	6	6	7	7	7	7	7	7	7	7	7	7	7	7	7	7	7	7	7	7	7	7	7	7	7	7	7	7	7	7	7	7	7	7	7	7	7	7	7	7	7	7	7	7	7	7	7	7	7	7	7	7	7	7	7	7	7	7	7	7	7	7	7	7	7	7	7	7	7	7	7	7	7	7	7	7	7	7	7	7	7	7	7	7	7	7	7	7	7	7	7	7	7	7	7	7	7	7	7	7	7	7	7	7	7	7	7	7	7	7	7	7	7	7
6	6	6	6	6	6	6	6	6	6	6	6	6	6	6	6	6	6	6	6	6	6	6	6	6	6	6	6	6	6	6	6	6	6	6	6	6	6	6	6	6	6	6	6	6	6	6	5	4	2	0	0	0	0	0	0	0	0	0	0	0	0	0	0	0	0	0	0	0	0	0	0	0	0	0	0	0	0	0	0	0	0	0	0	0	0	0	0	0	0	0	0	0	0	0	0	0	0	0	0	0	0	0	0	0	0	0	0	0	0	0	0	0	0	0	0	0	0	0	0	0	0	0	0	0	0	0	0	0	0	0	0	0	0	0	0	0	0	0	0	0	0	1	2	5	6	6	6	6	6	6	5	4	2	1	0	2	6	10	15	18	18	18	18	18	17	16	9	5	5	5	5	5	5	5	5	5	5	5	5	5	5	5	5	5	5	5	5	5	5	5	5	5	5	5	5	5	5	5	5	5	5	5	5	5	5	5	5	5	5	5	5	5	5	5	5	5	5	5	5	5	5	5	5	5	5	5	5	5	5	5	5	5	5	5	5	5	5	5	5	5	5	5	5	5	5	5	5	5	5	5	4	3	2	2	2	2	2	2	2	5	9	11	12	13	13	14	15	16	16	16	15	14	13	11	10	10	10	9	7	6	6	6	6	6	6	6	6	6	6	7	7	7	7	7	7	6	6	6	6	6	6	6	6	6	6	6	6	6	6	6	6	6	6	7	7	7	7	7	8	8	8	8	8	8	8	8	8	8	8	8	8	9	11	16	26	34	40	42	43	44	45	48	51	52	52	51	49	44	42	42	42	42	42	42	42	42	42	42	42	42	42	43	42	42	42	42	43	46	46	43	40	38	35	34	33	32	30	29	30	32	38	45	45	43	47	50	48	44	42	42	41	41	41	39	31	24	28	36	41	45	46	46	44	43	43	43	43	43	43	43	44	48	51	51	51	50	48	48	48	48	48	48	48	48	48	48	48	48	48	50	54	59	63	66	67	66	66	66	66	66	67	67	67	66	66	66	66	66	67	67	68	70	73	74	74	74	74	74	74	74	74	74	74	74	74	74	75	75	75	77	81	83	84	84	84	84	84	84	84	84	84	84	83	84	90	93	93	93	93	93	93	93	93	93	93	93	93	93	93	93	93	93	93	93	93	96	102	104	105	107	106	106	111	113	112	114	117	116	113	112	112	111	112	114	116	116	116	116	116	117	117	117	117	117	116	115	116	116	117	116	116	116	116	116	116	116	116	116	116	116	116	116	117	121	128	135	143	149	155	160	165	169	172	175	177	181	184	185	187	190	188	185	184	187	189	190	194	197	200	201	204	208	209	209	208	209	213	215	217	218	221	224	228	232	238	242	245	248	251	253	254	256	260	263	265	267	270	270	267	266	266	267	266	264	265	269	275	280	281	280	278	277	276	274	272	270	268	266	264	261	259	257	255	253	251	249	247	245	244	242	240	238	235	232	229	227	225	224	223	223	224	224	224	224	224	223	223	223	222	221	219	218	217	215	214	212	211	209	207	204	202	199	197	195	192	190	188	186	184	182	181	179	177	176	175	174	173	172	171	169	169	168	167	167	166	165	164	163	162	160	158	157	154	150	147	144	141	139	137	135	134	132	129	126	124	122	120	119	117	114	112	111	108	106	108	110	109	107	107	104	101	99	98	96	94	91	89	87	84	81	78	74	70	64	57	51	44	39	35	33	31	30	31	31	31	31	31	30	30	31	31	31	31	32	32	32	32	32	32	32	32	32	32	32	32	32	32	32	31	31	31	31	31	25	18	17	17	17	17	17	18	17	17	16	16	15	16	16	16	17	17	16	16	15	14	14	13	13	13	13	13	12	12	12	12	11	10	10	9	8	8	9	8	8	9	9	9	9	9	9	9	9	9	9	9	9	9	9	9	9	9	9	9	9	9	9	9	8	8	8	8	8	8	8	8	8	9	9	9	9	9	9	9	9	9	9	9	9	9	9	10	9	9	10	11	12	12	13	12	12	11	10	8	7	6	6	7	7	7	7	7	7	7	7	7	7	7	7	7	7	7	7	7	7	7	7	7	7	7	7	7	7	7	7	7	7	7	7	7	7	7	7	7	7	7	7	7	7	7	7	7	7	7	7	7	7	7	7	7	7	7	7	7	7	7	7	7	7	7	7	7	7	7	7	7	7	7	7	7	7	7	7	7	7	7	7	7	7	7	7	7	7	7	7	7	7	7	7	7	7	7	7	7	7	7	7	7	7	7	7	7	7	7	7	7	7	7	7	7
6	6	6	6	6	6	6	6	6	6	6	6	6	6	6	6	6	6	6	6	6	6	6	6	6	6	6	6	6	6	6	6	6	6	6	6	6	6	6	6	6	6	7	7	8	8	6	5	4	2	0	0	0	0	0	0	0	0	0	0	0	0	0	0	0	0	0	0	0	0	0	0	0	0	0	0	0	0	0	0	0	0	0	0	0	0	0	0	0	0	0	0	0	0	0	0	0	0	0	0	0	0	0	0	0	0	0	0	0	0	0	0	0	0	0	0	0	0	0	0	0	0	0	0	0	0	0	0	0	0	0	0	0	0	0	0	0	1	4	2	0	1	4	5	5	6	6	6	6	6	6	6	6	5	3	2	4	11	15	18	18	18	18	18	18	17	12	6	5	5	5	5	5	5	5	5	5	5	5	5	5	5	5	5	5	5	5	5	5	5	5	5	5	5	5	5	5	5	5	5	5	5	5	5	5	5	5	5	5	5	5	5	5	5	5	5	5	5	5	5	5	5	5	5	5	5	5	5	5	5	5	5	5	5	5	5	5	5	5	5	5	5	5	5	5	5	5	5	5	5	5	5	4	3	2	2	2	2	2	2	2	3	6	10	13	13	14	14	14	15	16	15	14	13	13	12	11	10	10	9	8	7	6	6	6	6	6	6	6	6	6	6	6	7	7	7	6	6	6	6	6	6	6	6	6	6	6	6	6	6	6	6	6	6	7	7	7	7	8	8	8	8	8	8	8	8	8	8	8	8	8	9	9	10	13	23	34	39	42	43	43	44	47	49	51	53	53	51	44	42	42	42	42	42	42	42	42	42	42	42	42	42	42	42	43	43	42	43	44	44	43	42	39	32	31	31	31	33	32	33	34	36	38	43	45	47	48	47	47	45	44	43	42	39	31	24	23	24	27	35	44	46	46	45	44	43	43	43	43	43	43	43	47	50	51	51	50	49	48	48	48	48	48	48	48	48	48	48	48	49	53	58	62	65	65	66	66	66	66	66	66	67	67	67	66	66	66	66	66	67	67	68	71	73	74	74	74	74	74	74	74	74	74	74	74	74	74	75	75	75	77	81	83	84	84	84	84	84	84	84	84	84	84	83	84	88	93	93	93	93	93	93	93	93	93	93	93	93	93	93	93	93	93	93	93	93	96	103	105	105	107	107	108	113	114	115	117	117	114	112	111	111	111	111	112	113	114	116	116	116	117	117	117	117	116	115	115	116	116	116	116	116	116	116	116	116	116	116	116	116	116	116	116	116	118	126	134	140	147	154	159	164	167	171	173	175	178	182	184	186	187	184	182	183	186	188	190	193	196	199	201	204	207	209	209	209	211	215	217	218	219	222	224	228	232	236	241	245	248	251	252	253	255	259	261	262	265	266	266	265	264	264	264	264	263	265	268	272	279	282	283	281	279	277	276	274	272	270	268	265	263	261	259	257	255	253	251	248	246	244	242	240	237	235	232	230	229	227	226	225	225	225	225	225	225	225	225	224	224	223	221	220	218	217	215	213	212	210	208	206	204	202	199	197	195	193	191	189	187	185	183	182	180	178	177	177	176	175	174	173	171	170	169	168	168	167	166	165	164	162	160	159	157	154	150	148	145	143	141	140	138	137	135	133	130	127	124	121	119	117	114	112	111	109	109	111	111	111	110	111	109	103	100	99	97	95	91	89	87	84	82	79	76	73	68	62	55	49	43	38	36	34	32	30	30	31	31	30	30	30	31	31	31	32	32	32	32	32	32	32	32	32	32	32	32	32	32	32	32	31	31	31	31	31	28	20	17	17	17	17	17	17	17	16	16	16	16	17	18	19	20	21	20	19	17	16	15	14	14	13	13	13	13	13	13	13	13	13	12	10	9	8	8	8	8	9	9	9	9	9	9	9	9	9	9	9	9	9	9	9	9	9	9	9	9	9	9	8	8	8	8	8	8	8	8	8	8	8	9	9	9	9	9	9	9	9	9	9	9	9	9	10	9	9	10	11	12	12	13	12	12	11	10	8	7	6	6	7	7	7	7	7	7	7	7	7	7	7	7	7	7	6	6	6	6	6	6	6	6	7	7	7	7	7	7	7	7	7	7	7	7	7	7	7	7	7	7	7	7	7	7	6	6	7	7	7	7	7	7	7	7	7	7	7	7	7	7	7	7	7	7	7	7	7	7	7	7	7	7	7	7	7	7	7	7	7	7	7	7	7	7	7	7	7	7	7	7	7	7	7	7	7	7	7	7	7	7	7	7	7	7	7	7	7	7	7	7	7	7	7
6	6	6	6	6	6	6	6	6	6	6	6	6	6	6	6	6	6	6	6	6	6	6	6	6	6	6	6	6	6	6	6	6	6	6	6	6	6	6	6	6	7	7	8	8	9	7	5	3	1	0	0	0	0	0	0	0	0	0	0	0	0	0	0	0	0	0	0	0	0	0	0	0	0	0	0	0	0	0	0	0	0	0	0	0	0	0	0	0	0	0	0	0	0	0	0	0	0	0	0	0	0	0	0	0	0	0	0	0	0	0	0	0	0	0	0	0	0	0	0	0	0	0	0	0	0	0	0	0	0	0	0	0	0	0	0	1	4	10	9	4	6	11	9	6	6	6	6	6	6	6	6	6	6	6	5	8	14	17	18	18	18	18	18	18	14	8	5	5	5	5	5	5	5	5	5	5	5	5	5	5	5	5	5	5	5	5	5	5	5	5	5	5	5	5	5	6	5	5	5	5	5	5	5	5	5	5	5	5	5	5	5	5	5	5	5	5	5	5	5	5	5	5	5	5	5	5	5	5	5	5	5	5	5	5	5	5	5	5	5	5	5	5	5	5	5	5	5	5	5	5	5	5	4	3	3	2	2	2	2	2	2	3	6	11	13	13	14	14	14	15	15	14	14	13	13	12	11	11	10	10	8	7	6	6	6	6	6	6	6	6	6	6	7	7	7	7	6	6	6	6	6	6	6	6	6	6	6	6	6	6	6	6	6	7	7	7	7	8	8	8	8	8	8	8	8	8	8	8	8	8	9	9	11	13	23	34	38	40	41	41	41	44	46	52	55	54	48	43	42	42	42	42	42	42	42	42	42	42	42	42	42	42	42	43	42	43	43	44	45	44	43	38	31	30	31	34	37	36	35	35	35	33	31	35	43	47	48	48	47	46	42	39	31	25	24	24	22	19	22	34	41	45	45	46	44	43	43	43	43	43	43	45	48	49	49	49	49	48	48	48	48	48	48	48	48	48	48	49	53	57	62	65	65	65	66	66	66	66	66	66	67	68	68	67	66	66	66	67	67	67	68	71	74	74	74	74	74	74	74	74	74	74	74	74	74	74	75	75	75	77	81	83	84	84	84	84	84	84	84	84	84	84	84	84	88	92	92	92	92	92	93	93	93	93	93	93	93	93	93	93	93	93	93	94	94	95	100	104	107	111	113	113	115	117	117	119	116	112	111	111	111	111	111	111	111	112	113	115	116	116	117	117	117	115	115	115	116	116	116	116	116	116	116	116	116	116	116	116	116	116	116	116	116	118	124	132	138	145	153	159	163	167	172	177	176	177	180	183	184	184	181	181	183	186	188	191	194	196	199	202	204	207	209	209	211	214	217	219	220	221	223	226	229	232	235	240	245	247	250	253	254	255	258	259	261	263	264	264	263	262	261	262	262	262	264	268	270	276	283	285	283	280	278	277	275	273	271	269	266	264	262	260	259	256	254	251	249	246	244	242	239	237	235	233	232	230	229	227	227	227	227	227	227	227	227	226	225	224	223	222	220	219	217	215	213	212	210	208	207	205	202	200	198	196	194	192	190	188	187	185	183	182	180	180	179	179	177	176	174	173	172	170	169	168	167	166	165	164	162	161	159	157	154	151	149	147	145	144	143	141	140	138	136	134	130	127	124	120	117	115	112	111	110	111	112	112	111	110	111	109	103	101	100	98	96	91	88	87	85	83	81	78	75	72	67	60	54	48	42	38	36	33	31	30	30	30	30	30	30	31	31	32	32	32	32	32	32	32	32	32	32	32	32	32	32	32	32	31	31	31	31	31	31	30	22	17	17	17	17	17	17	16	17	17	18	19	21	22	23	24	25	25	23	21	19	17	15	14	14	13	13	13	13	13	13	13	14	13	12	11	10	9	8	8	8	9	9	9	9	9	9	9	9	9	9	9	9	9	9	9	9	9	9	9	9	8	8	8	8	8	8	8	8	8	8	8	8	9	9	9	9	9	9	9	9	9	9	9	9	9	9	9	9	10	11	12	12	12	12	12	11	10	8	7	7	7	7	7	7	7	7	7	7	7	7	7	7	7	7	7	6	6	6	6	6	6	6	6	6	7	7	7	7	7	7	7	7	7	7	7	7	7	7	7	7	7	7	7	7	6	6	6	7	7	7	7	7	7	7	7	7	7	7	7	7	7	7	7	7	7	7	7	7	7	7	7	7	7	7	7	7	7	7	7	7	7	7	7	7	7	7	7	7	7	7	7	7	7	7	7	7	7	7	7	7	7	7	7	7	7	7	7	7	7	7	7	7	7	7
6	6	6	6	6	6	6	6	6	6	6	6	6	6	6	6	6	6	6	6	6	5	5	5	5	5	6	6	6	6	6	6	6	6	6	6	6	6	6	6	6	6	7	7	8	9	7	5	3	1	0	0	0	0	0	0	0	0	0	0	0	0	0	0	0	0	0	0	0	0	0	0	0	0	0	0	0	0	0	0	0	0	0	0	0	0	0	0	0	0	0	0	0	0	0	0	0	0	0	0	0	0	0	0	0	0	0	0	0	0	0	0	0	0	0	0	0	0	0	0	0	0	0	0	0	0	0	0	0	0	0	0	0	0	0	0	2	8	13	13	11	11	13	13	9	7	7	6	6	6	6	6	6	6	6	6	11	17	18	18	18	18	18	17	15	8	5	5	5	5	5	5	5	5	5	5	5	5	5	5	5	5	5	5	5	5	5	5	5	5	5	5	6	6	5	6	6	6	6	5	5	5	5	5	5	5	5	5	5	5	5	5	5	5	5	5	5	5	5	5	5	5	5	5	5	5	5	5	5	5	5	5	5	5	5	5	5	5	5	5	5	5	5	5	5	5	5	5	5	5	5	5	5	5	5	4	3	2	2	2	2	2	2	3	6	10	13	14	14	14	14	14	14	14	13	13	13	12	12	12	11	11	10	10	8	6	6	6	6	6	6	6	6	7	7	7	7	7	6	6	6	6	6	6	6	6	6	6	6	6	6	6	6	7	7	7	7	7	8	8	8	8	8	8	8	8	8	8	8	8	8	9	9	12	14	23	34	37	39	40	40	40	40	43	53	58	55	45	42	42	42	42	42	42	42	42	42	42	42	42	42	42	42	42	42	42	43	44	45	46	44	43	39	32	31	33	36	38	37	36	35	34	32	28	27	32	43	47	48	46	40	30	27	25	24	24	23	19	16	16	19	22	33	42	46	44	43	43	43	43	43	43	44	46	48	48	48	48	48	48	48	48	48	48	48	48	48	48	51	57	62	65	68	69	69	68	68	67	67	67	66	67	70	71	69	68	68	67	67	68	68	68	71	74	74	74	74	74	74	74	74	74	74	74	74	74	74	74	74	75	78	82	84	84	83	84	84	84	84	84	84	84	83	84	86	88	90	90	90	90	91	92	93	93	93	93	93	93	93	93	93	93	93	93	94	94	93	96	101	106	112	114	116	118	120	120	119	114	112	111	111	111	111	111	111	111	111	111	113	114	116	117	117	116	116	116	116	116	116	116	116	116	116	116	116	116	116	116	116	116	116	116	116	118	119	122	130	137	145	152	158	162	169	177	180	177	176	179	181	182	183	181	181	183	186	189	192	195	197	200	203	205	207	208	210	212	216	218	220	222	225	227	229	231	232	236	241	246	248	251	254	255	255	257	258	260	261	262	261	261	260	261	260	260	262	266	270	271	277	284	285	284	281	279	278	276	274	272	269	267	264	262	260	258	256	253	251	248	246	244	242	239	237	236	235	233	232	230	229	229	229	229	229	229	228	228	227	226	225	224	223	221	220	218	216	214	212	210	209	207	206	203	201	198	197	195	194	192	191	189	187	186	184	183	182	182	181	179	177	175	174	173	171	169	168	167	166	165	164	162	161	160	158	155	152	151	150	148	146	145	144	142	140	138	136	132	129	126	122	119	116	113	112	111	111	112	112	111	108	107	106	105	103	101	99	97	92	89	88	86	84	82	80	77	74	70	65	59	53	47	41	37	35	32	30	30	30	30	30	30	31	31	32	31	31	32	32	32	32	32	32	32	32	32	32	32	32	32	32	31	31	31	31	32	31	25	18	17	17	17	17	17	17	19	23	29	29	30	30	28	29	29	28	27	25	23	19	17	15	14	14	14	14	13	13	13	13	13	14	14	13	13	12	10	9	9	9	9	9	9	9	9	9	9	9	9	9	9	9	9	9	9	9	9	9	9	8	8	8	8	8	8	8	8	8	8	8	8	9	9	9	9	9	9	9	9	9	9	9	9	9	9	9	9	10	11	12	12	12	13	12	12	10	8	7	7	7	7	7	7	7	7	7	7	7	7	7	7	7	7	7	7	6	6	6	6	6	6	6	6	7	7	7	6	7	7	7	7	7	7	7	7	7	7	7	7	7	7	7	6	6	6	6	7	7	7	7	7	7	7	7	7	7	7	7	7	7	7	7	7	7	7	7	7	7	7	7	7	7	7	7	7	7	7	7	7	7	7	7	7	7	7	7	7	7	7	7	7	7	7	7	7	7	7	8	7	7	7	7	7	7	7	7	7	7	7	7	7	7	7
6	6	6	6	6	6	6	6	6	6	6	6	6	6	6	6	6	6	6	6	6	5	5	5	5	5	6	6	6	6	6	6	6	6	6	6	6	6	6	6	6	7	7	7	7	8	7	4	2	0	0	0	0	0	0	0	0	0	0	0	0	0	0	0	0	0	0	0	0	0	0	0	0	0	0	0	0	0	0	0	0	0	0	0	0	0	0	0	0	0	0	0	0	0	0	0	0	0	0	0	0	0	0	0	0	0	0	0	0	0	0	0	0	0	0	0	0	0	0	0	0	0	0	0	0	0	0	0	0	0	0	0	0	0	0	0	3	10	14	14	14	13	12	13	12	10	9	7	6	6	6	6	6	6	6	8	14	18	18	18	18	18	18	16	9	5	5	5	5	5	5	5	5	5	5	5	5	5	5	5	5	5	5	5	5	5	5	5	5	5	5	5	6	6	6	6	6	6	6	6	5	5	5	5	5	5	5	5	5	5	5	5	5	5	5	5	5	5	5	5	5	5	5	5	5	5	5	5	5	5	5	5	5	5	5	5	5	5	5	5	5	5	5	5	5	5	5	5	5	5	5	5	5	5	5	5	4	3	2	2	2	2	2	2	2	4	8	13	14	14	14	14	14	14	14	14	14	13	12	12	12	12	12	15	15	12	8	7	6	6	6	6	7	7	7	7	7	7	7	7	7	7	7	6	6	6	6	6	6	6	6	6	6	7	7	7	7	7	8	8	8	8	8	8	8	8	8	8	8	8	8	9	10	14	15	24	34	36	38	39	39	38	40	43	53	57	49	43	42	42	42	42	42	42	42	42	42	42	42	42	42	42	42	42	42	42	42	43	44	44	43	42	38	34	33	34	35	36	36	35	35	34	34	33	32	27	28	36	42	35	26	22	24	24	24	24	20	17	17	16	15	14	18	27	39	43	43	43	43	43	43	43	43	45	47	47	48	48	48	48	48	48	48	48	48	48	48	49	54	59	64	66	69	72	73	73	72	71	70	70	69	69	71	72	72	71	71	69	68	68	68	68	71	74	74	74	74	74	74	74	74	74	74	74	74	74	74	74	74	75	78	83	85	84	83	84	84	84	84	84	84	84	84	85	87	88	88	88	89	89	89	91	92	93	93	93	93	93	93	93	93	93	93	93	94	93	93	95	99	104	109	112	117	119	120	118	114	112	111	111	111	111	111	111	111	111	111	112	113	114	116	116	116	116	116	116	116	116	116	116	116	116	116	116	116	116	116	116	116	116	116	116	117	118	119	121	129	137	145	152	157	163	172	179	180	178	176	178	181	182	182	182	182	184	186	189	193	195	198	200	202	204	206	208	210	213	216	219	221	224	229	231	232	233	234	238	243	247	251	254	256	257	257	256	257	258	258	258	258	257	257	259	258	260	264	270	273	275	280	285	285	285	283	281	280	277	274	272	269	267	265	263	261	258	256	253	251	248	246	244	242	240	239	237	236	235	233	231	231	231	231	231	230	230	229	229	228	227	226	225	223	222	220	219	216	214	212	210	209	208	206	203	201	199	198	197	196	195	194	192	190	188	187	186	185	183	182	180	178	176	175	173	172	170	169	167	166	165	164	163	161	160	158	156	154	153	153	152	150	148	146	144	142	139	137	133	130	127	123	120	117	115	114	113	113	112	112	111	108	105	105	106	106	103	100	97	94	91	89	88	85	83	81	79	77	73	70	64	58	52	47	41	37	34	31	31	30	30	30	30	30	31	32	32	31	31	32	32	32	32	32	32	32	32	32	32	32	32	32	32	32	31	31	32	31	24	18	17	17	17	19	21	25	32	39	41	37	43	47	44	43	42	40	33	29	25	23	20	17	16	16	17	16	14	13	13	13	13	13	14	14	14	14	13	11	9	9	9	9	9	9	9	9	9	9	9	9	9	9	9	9	9	9	9	9	9	8	8	8	8	8	8	8	8	8	8	8	8	9	9	9	9	9	9	9	9	9	9	9	9	9	9	9	9	10	11	12	12	12	13	12	12	11	8	7	7	7	7	7	7	7	7	7	7	7	7	7	7	7	7	7	7	7	6	6	6	6	6	6	6	7	7	6	6	6	6	6	7	7	7	7	7	7	7	7	7	7	7	6	6	6	6	6	7	7	7	7	7	7	7	7	7	7	7	7	7	7	7	7	7	7	7	7	7	7	7	7	7	7	7	7	7	7	7	7	7	7	7	7	7	7	7	7	7	7	7	7	7	7	7	7	7	7	7	7	7	7	7	7	7	7	7	7	7	7	7	7	7	7	7
6	6	6	6	6	6	6	6	6	6	6	6	6	6	6	6	6	6	6	6	5	5	5	5	5	6	6	6	6	6	6	6	6	6	6	6	6	6	6	6	7	7	7	7	7	7	5	3	1	0	0	0	0	0	0	0	0	0	0	0	0	0	0	0	0	0	0	0	0	0	0	0	0	0	0	0	0	0	0	0	0	0	0	0	0	0	0	0	0	0	0	0	0	0	0	0	0	0	0	0	0	0	0	0	0	0	0	0	0	0	0	0	0	0	0	0	0	0	0	0	0	0	0	0	0	0	0	0	0	0	0	0	0	0	0	0	1	6	12	14	14	14	13	12	12	12	11	9	7	6	6	6	6	6	7	12	17	18	18	18	18	18	17	13	7	5	5	5	5	5	5	5	5	5	5	5	5	5	5	5	5	5	5	5	5	5	5	5	5	5	5	5	6	6	6	6	6	6	6	5	5	5	5	5	5	5	5	5	5	5	5	5	5	5	5	5	5	5	5	5	5	5	5	5	5	5	5	5	5	5	5	5	5	5	5	5	5	5	5	5	5	5	5	5	5	5	5	5	5	5	5	5	5	5	5	5	5	4	3	2	2	2	2	2	2	2	3	8	12	14	15	14	14	14	14	15	16	15	14	13	12	12	12	14	15	16	17	12	8	6	6	6	6	7	7	7	7	7	7	7	7	7	7	7	7	6	6	6	6	6	6	6	6	7	7	7	7	7	8	8	8	8	8	8	8	8	8	8	8	8	9	9	10	13	15	24	34	36	37	37	35	34	41	44	49	48	43	42	42	42	42	42	42	42	42	42	42	42	42	42	42	42	42	42	42	42	42	43	43	43	42	40	37	34	33	33	32	32	33	33	34	34	36	34	31	26	21	21	25	23	23	24	25	25	24	22	18	17	17	17	15	13	14	16	27	38	42	43	43	43	43	43	43	44	47	48	48	48	48	48	48	48	48	48	48	48	49	51	55	60	64	66	69	72	74	74	75	75	74	73	73	72	72	73	74	74	73	71	70	69	68	69	71	73	74	74	74	74	74	74	74	74	74	74	74	74	74	74	74	75	78	83	85	85	84	84	84	84	84	84	84	84	85	86	87	87	86	87	88	88	89	91	92	93	93	93	93	93	93	93	93	93	93	93	93	93	93	94	97	102	107	111	116	117	116	114	111	111	111	111	111	111	111	111	111	111	112	112	113	114	115	116	116	116	116	116	116	116	116	116	116	116	116	116	116	116	116	116	116	116	116	116	117	119	119	121	128	137	145	151	156	166	174	177	178	178	178	180	182	183	183	183	184	185	187	190	193	195	198	199	201	203	206	208	211	214	217	219	222	227	231	233	234	236	238	241	245	249	254	256	258	258	257	255	255	256	256	255	255	253	254	256	258	262	266	272	274	277	281	284	285	285	283	282	281	278	275	273	271	269	267	265	262	260	257	255	252	249	247	245	244	242	241	239	237	236	234	233	233	233	233	233	232	231	231	230	229	228	227	225	224	222	220	218	216	214	213	211	209	208	205	203	202	201	200	199	199	198	196	195	193	191	190	188	187	185	183	181	179	177	175	173	172	171	169	167	166	165	164	163	161	160	159	158	157	156	156	155	153	150	148	145	142	140	137	134	130	127	124	121	118	117	115	115	114	112	111	111	110	106	105	106	106	106	102	98	96	94	91	89	88	85	83	81	79	76	73	69	63	58	52	46	41	37	34	32	30	30	30	29	29	30	31	32	32	32	32	32	31	31	31	32	32	32	32	32	32	32	32	31	31	31	32	32	30	20	18	18	18	23	31	37	44	48	47	49	47	52	55	56	56	55	53	46	35	29	25	23	20	18	18	19	18	15	14	13	13	13	13	14	14	14	14	14	12	10	9	9	9	9	9	9	9	9	9	9	9	9	9	9	9	9	9	9	9	9	9	8	8	8	8	8	8	8	8	8	8	8	9	9	9	9	9	9	9	9	9	9	9	9	9	9	9	9	10	11	12	12	12	13	12	12	11	8	7	6	6	7	7	7	7	7	7	7	7	7	7	7	7	7	7	7	7	7	6	6	6	6	6	6	6	6	6	6	6	6	6	6	6	7	7	7	7	7	7	7	7	7	6	6	6	6	6	7	7	7	7	7	7	7	7	7	7	7	7	7	7	7	7	7	7	7	7	7	7	7	7	7	7	7	7	7	7	7	7	7	7	7	7	7	7	7	7	7	7	7	7	7	7	7	7	7	7	7	7	7	7	7	7	7	7	7	7	7	7	7	7	7	7	7
6	6	6	6	6	6	6	6	6	6	6	6	6	6	6	6	6	6	6	5	5	5	5	5	6	6	6	6	6	6	6	6	6	6	6	6	6	6	6	6	7	7	7	7	6	5	4	2	0	0	0	0	0	0	0	0	0	0	0	0	0	0	0	0	0	0	0	0	0	0	0	0	0	0	0	0	0	0	0	0	0	0	0	0	0	0	0	0	0	0	0	0	0	0	0	0	0	0	0	0	0	0	0	0	0	0	0	0	0	0	0	0	0	0	0	0	0	0	0	0	0	0	0	0	0	0	0	0	0	0	0	0	0	0	0	0	0	1	4	11	14	14	14	13	12	12	12	11	10	8	7	6	6	6	11	17	18	18	18	18	18	18	14	10	9	7	6	5	5	5	5	5	5	5	5	5	5	5	5	5	5	5	5	5	5	5	5	5	5	5	6	6	6	6	6	6	6	6	5	5	5	5	5	5	5	5	5	5	5	5	5	5	5	5	5	5	5	5	5	5	5	5	5	5	5	5	5	5	5	5	5	5	5	5	5	5	5	5	5	5	5	5	5	5	5	5	5	5	5	5	5	5	5	5	5	5	5	5	4	3	2	2	2	2	2	2	2	3	6	12	14	15	14	14	14	14	15	16	15	14	13	13	13	13	13	13	15	16	14	10	7	6	6	7	7	7	7	7	7	7	7	7	7	7	7	7	6	6	6	6	6	6	6	7	7	7	7	8	8	8	8	8	8	8	8	8	8	8	8	9	9	9	11	15	19	25	32	35	36	35	32	33	41	45	46	43	42	42	42	42	42	42	42	42	42	42	42	42	42	42	42	42	42	42	42	42	42	43	43	43	43	42	39	35	33	33	30	29	29	30	32	33	35	34	29	25	20	19	20	23	26	25	25	25	23	20	18	17	17	16	15	13	13	13	16	25	33	40	43	44	43	43	44	46	48	48	48	48	48	48	48	48	48	48	48	49	50	53	56	60	63	66	69	72	73	73	73	73	72	72	73	73	73	74	74	74	74	73	72	71	69	69	71	73	74	74	74	74	74	74	74	74	74	74	74	74	74	74	74	75	77	82	86	86	85	84	84	84	84	84	84	84	86	87	86	86	85	85	87	88	89	92	93	93	93	93	93	93	93	93	93	93	93	93	93	93	93	93	95	100	107	110	112	112	112	111	111	111	111	111	111	111	111	111	111	112	112	113	114	115	115	116	116	116	116	116	116	116	116	116	116	116	116	116	116	116	116	116	116	116	116	116	117	119	119	121	130	138	145	151	155	168	175	176	178	180	181	183	183	183	183	184	185	186	188	190	193	195	197	199	201	203	206	208	211	214	217	220	223	227	231	233	236	239	241	244	247	252	256	258	259	259	256	253	253	254	254	253	252	251	252	255	259	263	266	270	273	276	280	283	285	285	283	282	282	279	276	274	273	272	270	268	265	263	260	257	254	251	249	247	246	245	243	241	239	237	236	236	236	236	236	235	234	233	232	231	230	228	227	225	223	221	220	218	216	215	214	212	211	208	206	205	204	203	202	201	201	200	198	197	195	193	192	190	188	186	184	182	179	177	175	173	172	171	169	168	167	166	164	163	162	161	160	160	159	159	158	156	154	151	148	146	143	141	138	134	131	127	124	122	120	118	116	115	113	112	111	111	112	111	109	107	106	107	105	102	99	97	95	93	93	90	87	83	81	78	76	72	68	63	57	52	47	41	37	34	32	31	30	29	29	29	30	31	31	31	32	31	31	31	31	31	32	32	32	32	31	32	32	31	31	31	31	29	24	19	18	19	21	32	40	45	50	52	51	55	56	57	59	59	58	57	56	54	46	33	28	26	23	21	19	18	18	17	15	14	14	14	14	14	14	14	14	14	13	12	10	10	11	11	11	10	9	9	9	9	9	9	9	9	9	9	9	9	9	8	8	9	9	8	8	8	8	8	8	8	8	8	9	9	9	9	9	9	9	9	9	9	9	9	9	9	9	9	10	11	11	12	12	13	12	12	11	8	7	6	6	6	6	6	7	7	7	7	7	7	7	7	7	7	7	7	7	7	7	7	6	6	6	6	6	6	6	6	6	6	6	6	6	6	6	6	7	7	7	7	7	6	6	6	6	6	7	7	7	7	7	7	7	7	7	7	7	7	7	7	7	7	7	7	7	7	7	7	7	7	7	7	7	7	7	7	7	7	7	7	7	7	7	7	7	7	7	7	7	7	7	7	7	7	7	7	7	7	7	7	7	7	7	7	7	7	7	7	7	7	7	7	7	7
6	6	6	6	6	6	6	6	6	6	6	6	6	6	6	6	6	6	5	5	5	5	5	6	6	6	6	6	6	6	6	6	6	6	6	6	6	6	6	6	6	7	7	7	6	4	3	1	0	0	0	0	0	0	0	0	0	0	0	0	0	0	0	0	0	0	0	0	0	0	0	0	0	0	0	0	0	0	0	0	0	0	0	0	0	0	0	0	0	0	0	0	0	0	0	0	0	0	0	0	0	0	0	0	0	0	0	0	0	0	0	0	0	0	0	0	0	0	0	0	0	0	0	0	0	0	0	0	0	0	0	0	0	0	0	0	0	0	0	4	12	14	15	14	13	12	12	12	12	11	9	7	6	8	15	18	18	18	18	18	18	16	11	9	9	9	8	7	6	5	5	5	5	5	5	5	5	5	5	5	5	5	5	5	5	5	5	5	5	5	6	6	6	5	5	6	5	5	5	5	5	5	5	5	5	5	5	5	5	5	5	5	5	5	5	5	5	5	5	5	5	5	5	5	5	5	5	5	5	5	5	5	5	5	5	5	5	5	5	5	5	5	5	5	5	5	5	5	5	5	5	5	5	5	5	5	5	5	5	5	4	3	2	2	2	2	2	2	2	6	12	14	14	14	14	14	14	14	16	16	16	15	14	13	13	13	13	13	14	13	11	9	8	8	7	7	7	7	7	7	7	7	7	7	7	7	7	6	6	6	6	6	7	7	7	7	8	8	9	8	8	8	8	8	8	8	8	8	8	9	9	10	17	25	31	32	32	33	33	31	29	34	40	44	43	42	42	42	42	42	42	42	42	42	42	42	42	42	42	42	42	42	42	42	42	42	42	44	45	46	46	45	42	39	36	34	32	30	30	29	30	32	33	30	25	22	20	20	22	25	26	26	25	23	20	18	18	17	15	14	13	13	12	13	13	15	21	31	40	44	43	43	45	48	48	48	48	48	48	48	48	48	48	48	50	51	52	54	57	60	63	66	70	72	71	70	69	69	69	70	70	71	73	75	75	74	74	74	74	73	71	71	73	74	74	74	74	74	74	74	74	74	74	74	74	74	74	74	75	75	77	82	85	86	85	84	84	84	84	84	83	84	85	86	85	85	84	84	85	87	89	92	93	93	93	93	93	93	93	93	93	93	93	93	93	93	93	93	95	100	106	109	111	111	111	111	111	111	111	111	111	111	111	111	112	112	113	114	114	115	116	116	116	116	116	116	116	116	116	116	116	116	116	116	116	116	116	116	116	116	116	116	118	120	119	122	131	139	147	152	155	169	175	178	180	182	183	183	182	182	183	186	188	189	190	191	193	195	197	199	201	204	207	209	212	215	217	220	224	228	231	234	238	242	245	247	251	254	257	259	260	259	256	252	251	251	251	250	250	249	251	254	258	261	264	267	270	273	278	282	285	285	284	283	282	280	278	276	275	274	273	271	268	265	263	260	256	253	251	250	249	247	245	243	241	239	238	239	239	239	238	237	236	235	233	232	230	229	227	224	222	221	219	218	217	216	215	214	212	210	208	207	206	205	204	203	202	201	200	198	197	195	193	191	188	186	184	182	180	178	176	174	172	171	169	167	166	165	164	164	163	163	162	162	161	160	159	157	155	152	149	147	144	142	138	135	131	128	125	124	122	119	117	115	113	112	113	113	114	114	113	109	107	107	107	105	102	100	98	96	96	95	94	89	83	80	78	75	72	67	62	58	53	47	42	38	35	33	31	30	29	29	28	28	29	30	31	31	31	31	31	31	31	32	32	31	31	31	32	31	32	30	27	22	19	20	21	23	26	36	42	46	52	54	57	58	58	59	61	61	60	59	58	58	55	40	31	29	27	24	21	18	17	17	17	16	14	14	14	14	14	14	14	14	14	14	13	13	13	13	13	11	10	9	9	9	9	9	9	9	9	9	9	9	9	8	8	9	9	9	8	8	8	8	8	8	8	8	9	9	9	9	9	9	9	9	9	9	9	9	9	9	9	9	10	11	11	12	12	13	12	12	11	8	7	6	6	6	6	6	7	7	7	7	7	7	7	7	7	7	7	7	7	7	7	7	7	6	6	6	7	7	6	6	6	6	6	6	6	6	6	6	6	6	6	6	6	6	6	6	6	6	7	7	7	7	7	7	7	7	7	7	7	7	7	7	7	7	7	7	7	7	7	7	7	7	7	7	7	7	7	7	7	7	7	7	7	7	7	7	7	7	7	7	7	7	7	7	7	7	7	7	7	7	7	7	7	7	7	7	7	7	7	7	7	7	7	7	7	7
6	6	6	6	6	6	6	6	6	6	6	6	6	6	6	6	6	6	6	5	5	5	6	6	6	6	6	6	6	6	6	6	6	6	6	6	6	6	6	6	6	7	7	7	5	3	1	0	0	0	0	0	0	0	0	0	0	0	0	0	0	0	0	0	0	0	0	0	0	0	0	0	0	0	0	0	0	0	0	0	0	0	0	0	0	0	0	0	0	0	0	0	0	0	0	0	0	0	0	0	0	0	0	0	0	0	0	0	0	0	0	0	0	0	0	0	0	0	0	0	0	0	0	0	0	0	0	0	0	0	0	0	0	0	0	0	0	0	0	0	4	9	14	14	14	14	13	12	12	12	11	10	9	14	17	18	18	18	18	18	16	11	9	9	9	9	9	8	8	7	6	5	5	5	5	5	5	5	5	5	5	5	5	5	5	5	5	5	5	5	5	5	5	5	5	5	5	5	5	5	5	5	5	5	5	5	5	5	5	5	5	5	5	5	5	5	5	5	5	5	5	5	5	5	5	5	5	5	5	5	5	5	5	5	5	5	5	5	5	5	5	5	5	5	5	5	5	5	5	5	5	5	5	5	5	5	5	5	5	5	5	4	3	2	2	2	2	2	2	3	5	10	14	15	14	14	14	14	15	16	17	17	17	14	13	13	13	13	13	14	14	13	13	13	11	9	8	7	7	7	7	7	7	7	7	7	7	7	7	6	6	7	7	7	7	7	8	9	9	9	9	9	9	8	8	8	8	8	8	9	10	15	25	32	36	37	36	33	30	29	29	34	39	41	42	42	42	42	42	42	42	42	42	42	42	42	42	42	42	42	42	42	42	42	42	42	42	43	45	47	47	46	45	44	40	36	33	32	31	31	32	33	32	25	21	20	20	21	24	26	26	26	24	21	19	18	18	16	14	13	13	13	13	13	13	12	14	20	30	37	42	43	45	47	48	48	48	48	48	48	48	48	48	51	53	54	54	55	57	60	64	68	70	70	69	69	69	69	69	69	69	70	72	74	74	74	74	74	75	74	73	73	74	74	74	74	74	74	74	74	74	74	74	74	74	74	74	74	75	75	77	82	85	85	85	84	84	84	84	84	84	84	84	84	84	84	84	84	84	85	88	92	93	93	93	93	93	93	93	93	93	93	93	93	93	93	93	93	95	100	106	109	111	111	111	111	111	111	111	111	111	111	111	112	112	113	113	114	115	115	116	116	116	116	116	116	116	116	116	116	116	116	116	116	116	116	116	116	116	116	116	116	118	119	118	123	132	139	148	152	156	168	174	179	182	183	184	184	183	183	185	189	192	192	192	193	194	196	198	201	203	205	207	210	212	215	218	221	224	228	233	236	239	244	247	250	253	256	258	259	260	259	255	250	248	248	248	248	247	248	250	254	257	259	262	265	268	270	275	280	283	284	284	284	283	282	280	278	276	275	274	272	270	267	264	261	257	255	254	253	251	250	247	245	243	241	241	241	241	241	240	239	237	236	235	233	231	229	227	224	222	221	220	219	218	218	217	215	214	212	211	209	208	207	206	204	203	202	200	199	197	195	193	191	189	187	185	183	181	179	177	175	173	171	168	167	165	165	164	164	165	164	164	163	162	161	160	158	156	153	150	148	145	143	139	136	133	130	127	125	123	121	118	116	114	114	115	116	116	116	114	111	109	107	106	106	103	101	99	97	96	96	96	93	86	82	80	77	74	71	68	63	58	53	48	44	39	36	34	32	30	29	28	27	27	28	28	29	30	31	31	31	31	32	32	32	31	32	31	29	30	26	21	21	22	24	26	28	37	44	49	52	54	55	58	59	59	60	61	62	62	61	60	59	56	49	34	31	30	28	25	22	19	18	17	16	15	14	14	14	14	14	14	14	14	14	14	14	14	14	13	13	11	10	9	9	9	9	9	9	9	9	9	9	9	9	9	9	9	9	9	9	9	9	9	9	9	9	9	9	9	9	9	9	9	9	9	9	9	9	9	9	9	9	10	11	11	12	12	13	12	12	11	9	7	7	6	6	6	6	7	7	7	7	7	7	7	7	7	7	7	7	7	7	7	7	7	6	6	7	7	7	7	7	7	6	6	6	6	6	6	6	6	6	6	6	6	6	6	6	6	6	7	7	7	7	7	7	7	7	7	7	7	7	7	7	7	7	7	7	7	7	7	7	7	7	7	7	7	7	7	7	7	7	7	7	7	7	7	7	7	7	7	7	7	7	7	7	7	7	7	7	7	7	7	7	7	7	7	7	7	7	7	7	7	7	7	7	7	7
6	6	6	6	6	6	6	6	6	6	6	6	6	6	6	5	6	6	6	5	5	6	6	6	6	6	6	6	6	6	6	7	7	6	6	6	6	6	6	6	6	7	6	5	3	1	0	0	0	0	0	0	0	0	0	0	0	0	0	0	0	0	0	0	0	0	0	0	0	0	0	0	0	0	0	0	0	0	0	0	0	0	0	0	0	0	0	0	0	0	0	0	0	0	0	0	0	0	0	0	0	0	0	0	0	0	0	0	0	0	0	0	0	0	0	0	0	0	0	0	0	0	0	0	0	0	0	0	0	0	0	0	0	0	0	0	0	0	0	0	0	2	8	12	14	14	13	10	11	12	13	13	15	17	18	18	18	18	18	17	12	6	7	9	9	9	9	9	9	9	7	6	5	5	5	5	5	5	5	5	5	5	5	5	5	5	5	5	5	5	5	5	5	5	5	5	5	5	5	5	5	5	5	5	5	5	5	5	5	5	5	5	5	5	5	5	5	5	5	5	5	5	5	5	5	5	5	5	5	5	5	5	5	5	5	5	5	5	5	5	5	5	5	5	5	5	5	5	5	5	5	5	5	5	5	5	5	5	5	5	5	5	4	3	2	2	2	2	2	2	2	4	10	15	15	15	15	14	14	14	15	16	17	17	15	14	14	14	14	14	14	14	14	16	18	18	16	12	9	7	7	7	7	6	7	7	7	7	7	7	7	7	7	7	7	7	8	9	9	9	9	9	9	9	9	9	9	8	9	9	10	22	30	35	38	39	38	37	33	33	33	36	37	39	48	45	42	42	42	42	42	42	42	42	42	42	42	42	42	42	42	42	42	42	42	42	42	42	44	45	45	45	47	46	43	39	35	33	32	32	33	36	34	23	20	20	20	22	26	27	26	25	22	20	19	18	17	14	13	12	13	13	13	13	13	13	12	13	18	25	33	41	44	46	48	48	48	48	48	48	48	48	50	52	54	55	55	57	59	62	66	69	69	69	69	69	69	69	69	69	69	69	70	71	72	74	74	74	75	75	74	74	74	74	74	74	74	74	74	74	74	74	74	74	74	74	74	74	75	76	78	81	84	84	84	84	84	84	84	84	84	84	84	84	84	84	84	84	84	84	86	91	93	93	93	93	93	93	93	93	93	93	93	93	93	93	93	93	94	100	106	109	111	111	111	111	111	111	111	111	111	111	111	111	112	112	113	114	114	115	116	116	116	116	116	116	116	116	116	116	116	116	116	116	116	116	116	116	116	116	116	116	117	118	118	124	132	139	147	152	156	168	174	179	183	184	185	185	185	185	187	190	193	193	193	194	196	198	200	204	206	207	209	211	213	216	219	222	225	230	235	239	240	243	246	250	254	256	257	259	259	257	252	247	246	245	245	245	246	247	250	254	257	258	259	262	265	268	273	278	281	282	284	284	283	283	281	279	277	276	275	273	271	268	265	261	259	258	257	256	254	252	249	247	245	244	244	244	243	242	241	240	239	237	236	234	231	229	227	225	223	222	221	221	220	220	219	217	216	214	213	211	210	208	207	205	204	202	201	200	198	196	194	192	190	188	186	184	182	180	177	175	173	170	168	166	165	165	165	166	166	165	165	164	163	162	161	160	157	154	152	149	146	144	140	137	134	132	129	126	124	122	119	117	116	115	116	118	119	119	118	114	110	107	106	105	104	102	99	98	97	96	96	94	89	84	82	80	77	74	72	68	64	59	54	50	45	41	37	35	33	31	29	28	27	27	27	27	29	30	31	32	32	31	30	30	31	31	27	23	23	22	23	25	27	29	30	34	45	50	53	57	58	57	58	60	61	62	63	63	62	61	61	59	57	53	39	34	32	30	29	26	23	20	19	17	16	15	15	15	15	14	14	14	14	14	14	14	14	14	14	14	13	12	11	10	9	9	9	9	9	9	9	9	9	9	9	9	9	9	9	9	9	9	9	9	9	9	9	9	9	9	9	9	9	9	9	9	9	9	9	9	9	9	9	11	11	12	12	13	13	12	11	9	7	7	6	6	6	6	6	7	7	7	7	7	7	7	7	7	7	7	7	7	7	7	7	6	6	7	7	7	7	7	7	7	7	7	7	7	6	6	5	5	6	6	6	6	7	6	6	6	7	7	7	7	7	7	7	7	7	7	7	7	7	7	7	7	7	7	7	7	7	7	7	7	7	7	7	7	7	7	7	7	7	7	7	7	7	7	7	7	7	7	7	7	7	7	7	7	7	7	7	7	7	7	7	7	7	7	8	7	7	7	7	7	7	7	7	7
6	6	6	6	6	6	6	6	6	6	6	6	6	6	5	5	5	5	5	5	6	6	6	6	6	6	6	6	6	6	7	8	7	7	6	6	6	7	7	6	6	5	4	3	1	0	0	0	0	0	0	0	0	0	0	0	0	0	0	0	0	0	0	0	0	0	0	0	0	0	0	0	0	0	0	0	0	0	0	0	0	0	0	0	0	0	0	0	0	0	0	0	0	0	0	0	0	0	0	0	0	0	0	0	0	0	0	0	0	0	0	0	0	0	0	0	0	0	0	0	0	0	0	0	0	0	0	0	0	0	0	0	0	0	0	0	0	0	0	0	0	0	1	7	12	14	12	7	7	11	12	15	17	18	18	18	18	18	18	14	7	6	8	9	9	9	9	9	10	9	9	8	6	5	5	5	5	5	5	5	5	5	5	5	5	5	6	6	5	5	5	5	5	5	5	5	5	5	5	5	5	5	5	5	5	5	5	5	5	5	5	5	5	5	5	5	5	5	5	5	5	5	5	5	5	5	5	5	5	5	5	5	5	5	5	5	5	5	5	5	5	5	5	5	5	5	5	5	5	5	5	5	5	5	5	5	5	5	5	5	5	5	5	4	3	3	2	2	2	2	2	3	7	12	13	13	15	15	15	14	14	14	16	17	18	17	16	15	14	14	14	14	14	15	16	18	19	19	17	15	13	10	8	7	7	7	7	7	8	8	8	8	7	7	7	8	8	9	9	9	9	9	9	9	9	9	9	9	9	9	11	24	34	37	38	38	38	39	40	40	40	39	38	41	56	55	45	42	42	42	42	42	42	42	42	42	42	42	42	42	42	42	42	42	42	42	42	42	42	43	43	45	48	47	45	41	36	34	33	33	35	37	33	22	20	21	23	26	27	27	26	24	21	19	19	18	15	13	12	13	13	13	13	13	13	13	13	13	13	17	24	31	40	43	46	48	48	48	48	48	48	49	50	52	54	55	57	60	63	65	67	69	69	69	69	69	69	69	69	69	69	69	69	69	71	74	74	74	74	74	74	74	74	74	74	74	74	74	74	74	74	74	74	74	74	74	74	74	75	76	78	81	83	84	84	84	84	84	84	84	84	84	84	84	84	84	84	84	84	84	86	90	93	93	93	93	93	93	93	93	93	93	93	93	93	93	93	93	94	100	106	109	111	111	111	111	111	111	111	111	111	111	111	111	111	112	112	113	114	115	115	116	116	116	116	116	116	116	116	116	116	116	116	116	116	116	116	116	116	116	116	116	117	118	119	125	133	139	147	152	156	168	175	179	183	185	186	185	185	186	188	190	192	193	194	196	198	200	203	206	208	210	211	212	215	217	220	222	226	231	236	239	239	242	245	250	254	256	256	257	257	254	249	245	244	243	243	243	244	246	249	252	254	255	256	259	263	267	272	277	278	278	279	281	282	283	282	279	277	276	275	273	271	268	265	262	261	260	260	258	257	254	252	249	247	246	246	246	245	243	242	241	240	238	236	234	232	229	227	226	225	224	223	223	222	222	221	219	218	216	214	212	210	209	207	205	204	202	201	200	198	196	194	192	191	189	187	184	182	180	177	175	172	170	168	167	166	166	167	167	167	166	166	165	164	163	162	160	158	155	153	150	147	145	141	138	136	134	131	128	125	123	120	118	117	117	117	119	119	120	120	117	112	108	106	106	105	103	100	98	98	97	95	93	90	86	84	82	79	76	74	72	68	64	60	56	52	47	43	39	36	34	32	31	29	28	27	26	27	28	29	32	32	29	26	27	29	29	25	22	23	24	26	29	34	36	34	39	45	48	51	57	62	61	61	63	64	65	65	64	63	61	60	57	55	55	50	43	36	32	31	29	27	24	22	20	18	16	16	16	17	15	14	14	14	14	14	14	14	14	14	14	14	14	13	12	11	10	9	9	9	9	9	9	9	9	9	9	9	9	9	9	9	9	9	9	9	9	9	9	9	9	9	9	9	9	9	9	9	9	9	9	9	9	9	11	11	12	12	13	12	12	11	9	7	6	6	6	6	6	6	6	7	7	7	7	7	7	7	7	7	7	7	7	7	7	7	7	7	7	7	7	7	7	7	7	7	7	7	7	7	6	6	5	6	6	6	6	7	6	6	6	6	6	7	7	7	7	7	7	7	7	7	7	7	7	7	7	7	7	7	7	7	7	7	7	7	7	7	7	7	7	7	7	7	7	7	7	7	7	7	7	7	7	7	7	7	7	7	7	7	7	7	7	7	7	7	7	7	7	8	7	7	7	7	7	7	7	7	7
6	6	6	6	6	6	6	6	6	6	6	6	5	5	5	5	5	5	5	6	6	6	6	6	6	6	6	6	6	7	7	7	7	7	6	6	6	8	8	7	5	4	3	2	1	0	0	0	0	0	0	0	0	0	0	0	0	0	0	0	0	0	0	0	0	0	0	0	0	0	0	0	0	0	0	0	0	0	0	0	0	0	0	0	0	0	0	0	0	0	0	0	0	0	0	0	0	0	0	0	0	0	0	0	0	0	0	0	0	0	0	0	0	0	0	0	0	0	0	0	0	0	0	0	0	0	0	0	0	0	0	0	0	0	0	0	0	0	0	0	0	0	0	1	5	9	7	2	3	7	12	16	18	18	18	18	18	18	15	8	5	8	9	9	9	9	8	8	9	9	9	9	7	6	5	5	5	5	5	5	5	5	5	5	5	6	6	6	6	6	5	5	5	5	5	5	5	5	5	5	5	5	5	5	5	5	5	5	5	5	5	5	5	5	5	5	5	5	5	5	5	5	5	5	5	5	5	5	5	5	5	5	5	5	5	5	5	5	5	5	5	5	5	5	5	5	5	5	5	5	5	5	5	5	5	5	5	5	5	5	5	5	5	5	5	4	3	2	2	2	2	3	5	8	8	9	12	14	15	15	15	15	15	15	16	18	18	18	17	16	15	15	15	15	15	15	16	17	17	18	19	18	16	12	10	8	8	8	8	8	8	8	7	7	7	7	8	9	9	9	9	9	9	9	9	9	9	9	9	9	13	26	34	36	37	37	37	38	39	40	41	42	40	42	55	61	54	45	42	42	42	42	42	42	42	42	42	42	42	42	42	42	42	42	42	42	42	42	42	42	42	43	46	47	44	41	36	33	33	33	37	35	28	21	20	23	27	27	27	27	25	22	21	20	18	15	13	13	13	13	13	13	13	13	13	13	13	13	12	13	18	24	32	39	42	44	46	48	48	48	49	50	50	51	53	56	59	63	66	67	68	69	69	69	69	69	69	69	69	69	69	69	69	70	72	74	74	74	74	74	74	74	74	74	74	74	74	74	74	74	74	74	74	74	74	74	74	75	76	77	79	81	83	84	84	84	84	84	84	84	84	84	84	84	84	84	84	84	84	84	85	90	93	93	93	93	93	93	93	93	93	93	93	93	93	93	92	92	94	99	105	109	111	111	111	111	111	111	111	111	111	111	111	111	111	111	112	112	113	114	115	116	116	116	116	116	116	116	116	116	116	116	116	116	116	116	116	116	116	116	116	116	116	117	119	127	135	141	147	153	158	170	175	179	183	186	186	185	185	187	189	190	191	193	196	198	200	202	205	207	209	211	212	214	216	218	220	223	226	231	235	237	238	241	245	249	253	255	255	255	254	250	246	244	242	240	241	242	243	245	247	249	251	252	255	258	262	266	271	275	274	273	274	277	280	282	281	279	278	277	275	273	271	269	266	264	264	263	263	261	259	257	254	251	250	249	249	248	246	245	243	242	240	238	237	235	232	230	228	227	226	226	225	224	224	223	222	220	219	217	215	213	210	209	207	205	203	202	200	199	197	196	194	192	191	189	187	185	182	179	177	175	172	169	168	167	168	168	168	168	168	167	166	165	164	163	162	160	158	156	153	151	148	146	143	140	138	135	132	129	127	125	123	121	120	120	120	120	119	120	120	117	112	109	107	106	106	104	101	99	99	98	96	93	90	87	85	83	81	79	76	74	71	69	65	61	58	54	49	45	41	38	35	34	32	31	30	28	27	27	27	28	28	28	27	28	30	30	28	25	27	29	31	35	41	42	43	46	47	49	50	55	61	63	65	67	69	69	67	65	63	61	59	56	52	50	50	51	49	40	34	32	30	28	26	24	22	19	18	17	17	16	15	14	15	15	14	14	15	15	15	14	14	14	14	13	13	12	11	9	9	8	8	8	9	9	9	9	9	9	9	9	9	9	9	9	9	9	9	9	9	9	9	9	9	9	9	9	9	9	9	9	9	9	9	10	11	12	12	13	12	12	11	9	7	6	6	6	6	6	6	6	6	6	7	7	7	7	7	7	7	7	7	7	7	7	7	7	7	7	7	7	7	7	7	7	7	7	7	7	7	6	6	6	6	6	6	6	6	6	6	6	6	6	6	6	7	7	7	7	7	7	7	7	7	7	7	7	7	7	7	7	7	7	7	7	7	7	7	7	7	7	7	7	7	7	7	7	7	7	7	7	7	7	7	7	7	7	7	7	7	7	7	7	7	7	7	7	7	7	7	7	7	7	7	7	7	7	7	7
6	6	6	6	6	6	6	6	6	6	6	5	5	5	5	5	5	5	6	6	6	6	6	6	6	6	6	6	7	7	7	7	7	7	6	6	6	7	8	6	4	3	2	1	0	0	0	0	0	0	0	0	0	0	0	0	0	0	0	0	0	0	0	0	0	0	0	0	0	0	0	0	0	0	0	0	0	0	0	0	0	0	0	0	0	0	0	0	0	0	0	0	0	0	0	0	0	0	0	0	0	0	0	0	0	0	0	0	0	0	0	0	0	0	0	0	0	0	0	0	0	0	0	0	0	0	0	0	0	0	0	0	0	0	0	0	0	0	0	0	0	0	0	0	0	2	1	0	1	6	15	18	18	18	18	18	18	17	10	6	7	9	10	9	9	7	6	6	8	9	9	9	7	5	5	5	5	5	5	5	5	5	5	5	5	5	6	6	6	6	5	5	5	5	5	5	5	5	5	5	5	5	5	5	5	5	5	5	5	5	5	5	5	5	5	5	5	5	5	5	5	5	5	5	5	5	5	5	5	5	5	5	5	5	5	5	5	5	5	5	5	5	5	5	5	5	5	5	5	5	5	5	5	5	5	5	5	5	5	5	5	5	5	5	5	5	4	3	2	2	2	3	4	6	7	6	8	10	12	15	15	15	15	15	15	16	17	18	18	18	18	17	16	16	16	16	16	16	16	17	17	18	18	18	16	15	13	12	9	8	8	8	7	7	7	7	8	9	9	9	9	9	9	9	9	9	9	9	9	10	18	27	32	35	36	37	38	38	38	39	41	43	41	42	50	58	58	52	44	42	42	42	42	42	42	42	42	42	42	42	42	42	42	42	42	42	42	42	42	42	42	42	45	47	45	41	37	34	32	34	34	26	21	20	22	26	28	28	27	25	22	22	22	19	15	13	12	13	13	13	13	13	13	13	13	13	13	13	13	13	13	19	26	33	38	39	43	50	51	50	49	50	52	52	53	55	60	65	68	69	69	69	69	69	69	69	69	69	69	69	69	69	69	71	73	74	74	74	74	74	74	74	74	74	74	74	74	74	74	74	74	74	74	74	74	74	74	75	78	80	81	83	84	84	84	84	84	84	84	84	84	84	84	84	84	84	84	84	84	84	85	89	92	93	93	93	93	93	93	93	93	93	93	93	93	93	92	92	94	99	105	109	110	110	110	110	111	111	111	111	111	111	111	111	111	111	111	111	112	114	115	116	116	116	116	116	116	116	116	116	116	116	116	116	116	116	116	116	116	116	116	116	116	117	120	129	136	141	147	153	160	172	175	178	183	185	186	186	186	187	189	190	191	194	197	200	202	204	206	208	210	211	213	215	217	219	220	223	226	230	233	235	238	241	243	246	250	252	252	253	252	248	244	242	240	239	239	240	242	243	245	247	249	251	254	258	260	263	267	270	269	269	270	273	276	280	282	280	278	277	276	274	272	269	268	267	267	266	265	264	262	259	256	254	252	252	251	250	248	246	245	243	241	239	237	235	233	231	229	228	228	227	226	226	225	224	223	221	220	218	215	213	211	209	207	204	202	201	199	198	196	195	193	192	191	189	187	185	182	179	177	174	172	169	168	169	169	170	169	169	168	167	166	165	164	163	162	160	157	155	153	151	149	147	145	143	140	137	134	132	128	126	125	125	125	124	123	122	120	119	118	116	113	111	109	106	105	105	102	100	99	98	95	92	90	88	87	85	83	82	80	76	74	71	69	66	63	59	55	51	48	44	40	38	36	34	33	31	31	30	30	30	31	31	31	30	29	30	30	30	31	32	36	43	46	47	50	51	51	52	52	57	63	66	68	70	71	72	69	66	64	62	60	57	54	51	48	49	52	50	40	34	32	31	29	27	25	25	26	25	22	18	15	15	15	14	14	14	14	14	15	14	14	14	14	14	13	13	13	11	10	9	9	8	8	8	9	9	9	9	9	9	9	9	9	9	9	9	9	9	9	9	9	9	9	9	9	9	9	9	9	9	9	9	9	11	11	12	12	13	12	12	11	9	7	6	6	6	6	6	6	7	6	6	6	6	7	7	7	7	7	7	7	7	7	7	7	7	7	7	7	7	7	7	7	7	7	7	7	7	7	7	6	6	6	6	6	6	6	6	6	6	6	6	6	6	6	6	6	7	7	7	7	7	7	7	7	7	7	7	7	7	7	7	7	7	7	7	7	7	7	7	7	7	7	7	7	7	7	7	7	7	7	7	7	7	7	7	7	7	7	7	7	7	7	7	7	7	7	7	7	7	7	7	7	7	7	7	7	7
6	6	6	6	6	6	6	5	5	5	5	5	5	5	5	5	5	6	6	6	6	6	6	6	6	6	6	7	7	7	7	6	6	6	6	6	6	6	6	4	3	2	1	0	0	0	0	0	0	0	0	0	0	0	0	0	0	0	0	0	0	0	0	0	0	0	0	0	0	0	0	0	0	0	0	0	0	0	0	0	0	0	0	0	0	0	0	0	0	0	0	0	0	0	0	0	0	0	0	0	0	0	0	0	0	0	0	0	0	0	0	0	0	0	0	0	0	0	0	0	0	0	0	0	0	0	0	0	0	0	0	0	0	0	0	0	0	0	0	0	0	0	0	0	0	0	0	0	4	11	17	18	18	18	18	18	17	13	9	8	9	10	9	9	8	6	5	5	7	9	9	8	6	5	5	5	5	5	5	5	5	5	5	5	5	5	5	5	5	5	5	5	5	5	5	5	5	5	5	5	5	5	5	5	5	5	5	5	5	5	5	5	5	5	5	5	5	5	5	5	5	5	5	5	5	5	5	5	5	5	5	5	5	5	5	5	5	5	5	5	5	5	5	5	5	5	5	5	5	5	5	5	5	5	5	5	5	5	5	5	5	5	5	5	5	5	5	4	3	2	2	2	3	5	6	6	6	7	8	11	14	15	16	16	16	15	15	16	17	18	19	19	18	18	17	17	17	17	17	16	17	17	18	18	18	19	18	18	16	13	12	12	10	8	8	8	9	11	10	10	9	9	9	9	9	9	9	9	9	10	20	27	30	33	36	38	39	39	39	40	42	42	41	41	42	50	53	53	49	44	42	42	42	42	42	42	42	42	42	42	42	42	42	42	42	42	42	42	42	42	42	42	46	48	45	41	37	35	35	37	28	20	20	22	27	28	28	28	26	23	21	21	21	17	13	12	13	13	13	13	13	13	13	13	13	13	13	13	12	13	14	17	21	31	36	38	42	51	54	52	50	51	53	53	53	54	61	67	69	69	69	69	69	69	69	69	69	69	69	69	69	69	70	72	74	74	74	74	74	74	74	74	74	74	74	74	74	74	74	74	74	74	74	74	74	74	74	76	81	83	84	85	85	84	84	84	84	84	84	84	84	84	84	84	84	84	84	84	84	84	84	88	91	92	92	92	92	92	92	92	93	93	93	93	93	93	92	92	93	98	105	108	110	109	108	109	110	111	111	111	111	111	111	111	111	111	111	111	112	113	115	116	116	116	116	116	116	116	116	116	116	116	116	116	116	116	116	116	116	116	116	116	117	118	122	131	137	142	148	153	161	173	176	178	182	185	186	187	187	190	192	193	193	195	198	201	203	205	207	209	210	211	213	215	217	219	221	223	226	229	232	234	237	240	241	243	246	247	248	249	248	245	243	240	238	237	237	239	241	242	244	246	249	251	254	257	259	261	263	264	265	266	267	269	272	278	282	281	280	279	277	275	273	271	270	271	270	269	268	266	264	261	258	256	255	255	254	252	250	248	246	244	242	239	237	235	234	232	230	230	229	228	227	226	225	224	222	221	219	217	215	213	210	208	206	204	201	200	198	197	195	194	193	191	190	189	187	184	182	180	177	174	172	170	170	170	171	170	170	169	168	167	166	165	164	163	161	159	157	154	153	151	149	148	146	144	142	139	136	134	131	129	129	129	130	128	126	124	122	120	119	117	116	114	111	107	105	105	103	100	99	96	93	92	91	90	88	86	86	87	87	82	77	74	72	69	67	64	60	57	54	50	47	44	41	39	36	34	34	33	32	32	32	32	31	30	30	31	32	32	33	36	44	49	50	51	52	54	55	55	56	60	68	70	71	71	71	72	71	68	66	65	63	61	59	56	50	48	49	51	47	43	36	33	31	30	28	30	32	32	31	24	17	15	15	15	15	14	14	14	14	15	15	14	14	14	14	14	13	13	12	11	10	9	8	8	8	8	9	9	9	9	9	9	9	9	9	9	9	9	9	9	9	9	9	9	9	9	9	9	9	9	9	9	10	11	11	11	12	13	12	12	11	8	7	7	6	6	6	6	6	7	6	6	6	6	6	7	7	7	7	7	7	7	7	7	7	7	7	7	7	7	7	7	7	7	7	7	7	7	7	7	7	7	6	6	7	7	7	6	6	6	6	6	6	6	6	6	6	6	7	7	7	7	7	7	7	7	7	7	7	7	7	7	7	7	7	7	7	7	7	7	7	7	7	7	7	7	7	7	7	7	7	7	7	7	7	7	7	7	7	7	7	7	7	7	7	7	7	7	7	7	7	7	7	7	7	7	7	7
6	6	6	6	6	6	6	5	5	5	5	5	5	5	5	5	6	6	6	7	6	6	6	6	6	6	6	7	6	6	6	6	6	6	6	6	6	5	4	3	2	1	0	0	0	0	0	0	0	0	0	0	0	0	0	0	0	0	0	0	0	0	0	0	0	0	0	0	0	0	0	0	0	0	0	0	0	0	0	0	0	0	0	0	0	0	0	0	0	0	0	0	0	0	0	0	0	0	0	0	0	0	0	0	0	0	0	0	0	0	0	0	0	0	0	0	0	0	0	0	0	0	0	0	0	0	0	0	0	0	0	0	0	0	0	0	0	0	0	0	0	0	1	1	0	0	0	2	11	17	18	18	18	18	18	18	15	10	9	10	10	9	9	10	8	5	5	5	8	9	9	7	5	5	5	5	5	5	5	5	5	5	5	5	5	5	5	5	5	5	5	5	5	5	5	5	5	5	5	5	5	5	5	5	5	5	5	5	5	5	5	5	5	5	5	5	5	5	5	5	5	5	5	5	5	5	5	5	5	5	5	5	5	5	5	5	5	5	5	5	5	5	5	5	5	5	5	5	5	5	5	5	5	5	5	5	5	5	5	5	5	5	5	5	5	5	5	5	4	3	2	2	2	3	4	5	6	7	7	8	9	11	13	15	16	16	16	16	16	16	17	18	18	18	19	19	18	18	18	18	18	17	17	18	18	18	19	19	19	19	19	19	18	16	16	15	17	19	19	18	16	13	12	10	10	9	9	9	9	10	19	26	30	33	36	38	39	40	40	41	42	42	41	40	40	42	44	45	49	47	43	42	42	42	42	42	42	42	42	42	42	42	42	42	42	42	42	42	42	42	42	43	46	47	45	40	37	37	39	38	26	20	23	27	29	28	28	27	24	22	21	21	18	14	13	13	13	13	13	13	13	13	13	13	13	13	13	12	13	13	15	15	17	26	34	37	41	46	51	53	53	52	53	53	54	57	66	69	69	69	69	69	69	69	69	69	69	69	69	69	69	70	72	74	74	74	74	74	74	74	74	74	74	74	74	74	74	74	74	74	74	74	74	74	74	74	74	76	81	83	83	83	84	84	84	84	84	84	84	84	84	84	84	84	84	84	84	84	84	84	85	87	90	90	91	90	90	90	91	92	92	92	92	93	93	92	92	92	93	99	106	109	110	108	108	109	110	111	111	111	111	111	111	111	111	111	111	111	111	113	114	115	116	116	116	116	116	116	116	116	116	116	116	116	116	116	116	116	116	116	116	116	117	118	122	132	138	143	149	153	161	173	176	178	182	185	187	188	190	194	196	196	197	198	199	202	204	206	208	209	210	211	212	214	217	219	221	223	226	229	231	234	237	239	240	241	243	244	245	246	246	244	241	239	236	235	235	237	240	242	244	247	249	251	253	255	257	258	258	258	259	261	264	267	270	274	280	281	281	281	279	277	275	274	273	273	273	272	270	268	265	262	260	259	258	257	256	255	252	250	247	244	242	240	237	235	234	233	232	231	230	229	228	227	225	224	222	221	219	217	215	212	210	208	206	203	201	199	197	196	194	193	192	191	189	188	186	184	182	179	177	174	172	171	171	171	171	171	170	169	168	166	165	164	163	163	161	159	157	155	153	152	150	149	147	145	143	141	138	137	135	133	132	131	131	130	127	125	123	122	120	119	117	115	113	108	105	105	103	100	98	95	93	92	92	91	90	90	91	92	91	88	83	78	74	72	70	67	65	62	59	56	54	51	48	46	43	40	39	37	36	35	34	33	33	33	33	34	34	34	36	43	48	51	52	53	57	60	62	63	62	62	70	72	72	71	71	72	73	72	70	69	68	66	63	61	55	50	53	51	50	49	43	37	34	32	30	32	35	36	35	31	22	17	16	15	15	15	15	15	15	14	14	15	14	14	14	14	14	14	14	13	12	11	10	9	8	8	8	8	9	9	9	9	9	9	9	9	9	9	9	9	9	9	9	9	9	9	9	9	9	9	9	9	10	11	11	11	12	13	12	12	10	8	7	7	6	6	6	6	7	7	6	6	6	6	6	7	7	7	7	7	7	7	7	7	7	7	7	7	7	7	7	7	7	7	7	7	7	7	7	7	7	7	7	7	7	7	7	7	6	6	6	6	6	6	6	6	6	6	6	6	6	7	7	7	8	7	7	7	7	7	7	7	7	7	7	7	7	7	7	7	7	7	7	7	7	7	7	7	7	7	7	7	7	7	7	7	7	7	7	7	7	7	7	7	7	7	7	7	7	7	7	7	7	7	7	7	7	7
6	6	6	6	6	6	6	5	5	5	5	5	5	5	5	6	6	7	7	6	6	6	6	6	6	6	6	6	6	6	6	6	6	6	6	6	5	4	3	1	0	0	0	0	0	0	0	0	0	0	0	0	0	0	0	0	0	0	0	0	0	0	0	0	0	0	0	0	0	0	0	0	0	0	0	0	0	0	0	0	0	0	0	0	0	0	0	0	0	0	0	0	0	0	0	0	0	0	0	0	0	0	0	0	0	0	0	0	0	0	0	0	0	0	0	0	0	0	0	0	0	0	0	0	0	0	0	0	0	0	0	0	0	0	0	0	0	0	0	0	0	1	4	6	4	1	1	9	17	18	18	18	18	18	18	16	11	9	9	9	9	9	10	11	9	5	5	7	9	9	7	5	5	5	5	5	5	5	5	5	5	5	5	5	5	5	5	5	5	5	5	5	5	5	5	5	5	5	5	5	5	5	5	5	5	5	5	5	5	5	5	5	5	5	5	5	5	5	5	5	5	5	5	5	5	5	5	5	5	5	5	5	5	5	5	5	5	5	5	5	5	5	5	5	5	5	5	5	5	5	5	5	5	5	5	5	5	5	5	5	5	5	5	5	5	5	5	5	5	5	4	3	2	2	3	4	5	6	7	7	7	7	8	10	12	15	16	17	16	17	17	17	17	17	18	19	19	20	20	20	19	18	18	18	19	19	19	19	19	20	20	20	21	21	22	22	22	23	23	23	23	23	22	20	19	16	14	10	9	10	20	26	29	32	35	37	39	39	40	40	41	41	40	40	40	41	41	42	43	45	44	42	42	42	42	42	42	42	42	42	42	42	42	42	42	42	42	42	42	42	42	43	46	47	43	40	38	39	39	35	25	24	27	29	29	29	28	25	23	22	22	19	14	12	12	13	13	13	13	13	13	13	13	13	13	13	13	13	13	14	15	15	16	24	31	36	43	44	46	51	54	53	52	54	57	61	68	69	69	69	69	69	69	69	69	69	69	69	69	69	69	71	73	74	75	74	74	74	74	74	74	74	74	74	74	74	74	74	74	74	74	74	74	74	74	74	75	76	78	79	79	81	83	84	84	84	84	84	84	84	84	84	84	84	84	84	84	84	84	84	85	87	88	89	89	89	89	89	90	91	91	91	92	92	92	92	92	92	93	103	109	111	111	110	110	110	111	111	111	111	111	111	111	111	111	111	111	111	111	112	113	114	116	116	116	116	116	116	116	116	116	116	116	116	116	116	116	116	116	116	116	116	117	119	123	132	139	144	149	153	161	172	177	179	181	185	187	189	192	195	197	198	199	200	201	202	204	206	207	209	210	210	211	213	215	217	219	222	224	228	231	233	236	238	239	239	240	241	242	243	244	242	240	237	235	233	234	236	240	242	244	247	248	250	251	253	254	255	255	255	255	258	262	267	269	271	277	281	282	282	281	279	277	277	276	275	275	273	272	269	267	265	263	262	262	260	258	256	254	251	248	245	243	240	238	236	235	234	233	232	231	230	228	227	225	223	222	221	219	217	214	212	210	207	205	203	201	199	198	196	195	193	192	190	189	187	185	183	181	178	176	174	173	172	172	172	172	171	169	168	167	166	164	163	163	163	163	160	158	156	155	153	152	150	148	146	145	142	140	139	138	135	134	132	131	129	128	126	124	123	121	119	117	115	113	108	105	105	103	101	99	96	94	93	92	92	93	94	94	94	93	92	88	83	78	74	72	70	68	65	63	61	58	56	55	53	50	48	45	43	41	40	39	38	38	37	38	39	39	39	43	49	52	54	56	59	63	66	68	69	69	69	73	73	74	74	74	74	75	75	74	73	71	69	66	65	62	58	61	59	55	52	49	44	39	36	33	33	37	38	37	35	26	21	18	17	16	15	15	15	15	15	15	14	15	14	14	14	14	14	14	13	13	13	12	11	10	9	8	8	8	8	9	9	9	9	9	9	9	9	9	9	9	9	9	9	9	9	9	9	9	9	9	9	11	11	11	12	12	13	12	12	10	8	7	6	6	6	6	6	6	7	7	6	6	6	6	7	7	7	7	7	7	7	7	7	7	7	7	7	7	7	7	7	7	7	7	7	7	7	7	7	7	7	7	7	7	7	7	7	7	7	7	7	6	6	6	6	6	6	6	6	6	6	7	8	8	7	7	7	7	7	7	7	7	7	7	7	7	7	7	7	7	7	7	7	7	7	7	7	7	7	7	7	7	7	7	7	7	7	7	7	7	7	7	7	7	7	7	7	7	7	7	7	7	7	7	7	7	7
6	6	6	6	6	6	6	5	5	5	5	5	5	6	6	6	6	6	6	6	6	6	6	6	6	6	6	6	6	6	6	6	6	6	6	5	4	3	2	0	0	0	0	0	0	0	0	0	0	0	0	0	0	0	0	0	0	0	0	0	0	0	0	0	0	0	0	0	0	0	0	0	0	0	0	0	0	0	0	0	0	0	0	0	0	0	0	0	0	0	0	0	0	0	0	0	0	0	0	0	0	0	0	0	0	0	0	0	0	0	0	0	0	0	0	0	0	0	0	0	0	0	0	0	0	0	0	0	0	0	0	0	0	0	0	0	0	0	0	0	0	3	7	9	8	6	6	15	18	18	18	18	18	18	16	10	7	9	9	9	9	8	9	11	9	5	6	9	9	8	6	5	5	5	5	5	5	5	6	6	5	5	5	5	5	5	5	5	5	5	6	6	6	6	6	5	5	5	5	5	5	5	5	5	5	5	5	5	5	5	5	5	5	5	5	5	5	5	5	5	5	5	5	5	5	5	5	5	5	5	5	5	5	5	5	5	5	5	5	5	5	5	5	5	5	5	5	5	5	5	5	5	5	5	5	5	5	5	5	5	5	5	5	5	5	5	5	5	5	5	5	4	3	2	2	3	4	5	6	7	7	7	7	7	8	10	12	14	15	15	17	17	17	17	17	17	18	18	19	20	20	19	18	20	21	20	20	19	19	20	20	20	21	21	22	22	23	23	23	24	24	25	25	25	26	25	25	21	19	18	24	27	28	30	33	35	37	37	38	39	39	39	39	39	41	41	40	40	40	42	43	43	42	42	42	42	42	42	42	42	42	42	42	42	42	42	42	42	42	42	43	45	48	46	42	39	39	39	37	31	27	29	29	29	30	28	25	23	22	22	21	15	12	12	13	13	13	13	13	13	13	13	13	13	13	13	12	13	14	15	15	15	18	27	32	38	50	50	47	48	51	54	54	55	59	64	69	69	69	69	69	69	69	69	69	69	69	69	69	69	70	72	74	74	74	74	74	74	74	74	74	74	74	74	74	74	74	74	74	74	74	74	74	74	74	74	75	77	77	77	78	80	82	84	84	84	84	84	84	84	84	84	84	84	84	84	84	84	85	85	86	87	87	88	88	88	89	89	90	90	91	91	91	91	91	92	92	92	96	106	110	112	112	111	109	109	109	109	110	111	111	111	111	111	112	112	111	111	111	111	112	114	116	116	115	116	116	116	116	116	116	116	116	116	116	116	116	116	116	116	116	116	117	119	125	134	140	145	150	154	159	170	177	179	180	183	186	188	191	194	196	197	199	200	201	202	203	205	207	208	209	210	211	212	214	215	218	220	223	226	229	232	234	236	237	237	238	238	239	240	241	240	238	235	233	232	233	236	239	242	244	246	247	248	250	251	251	252	253	255	257	259	262	266	268	270	275	279	282	282	281	279	279	279	278	277	276	275	273	271	269	267	266	265	264	263	260	258	255	252	249	247	244	242	239	237	236	236	234	233	231	230	228	227	225	223	222	220	218	216	214	212	209	207	205	204	202	201	199	198	196	194	192	190	188	186	184	182	180	178	176	175	174	174	173	172	171	170	169	168	166	165	164	162	162	162	163	161	160	158	156	154	153	151	149	147	145	143	142	140	138	136	134	133	131	129	127	126	124	122	120	118	116	114	112	108	105	104	103	102	100	97	96	95	93	92	94	97	97	96	95	94	92	88	83	77	74	73	70	68	66	64	62	60	58	57	56	54	52	50	48	47	46	44	43	43	43	44	44	43	46	54	57	62	64	65	67	69	71	72	73	75	77	77	78	78	78	77	77	77	77	75	74	71	68	65	64	64	65	64	61	55	50	48	45	41	38	35	35	36	36	34	28	24	22	20	18	16	15	16	17	17	15	14	14	14	14	14	14	14	14	13	13	13	13	12	12	11	10	9	8	8	8	9	9	9	9	9	9	9	9	9	9	9	9	9	9	9	9	9	9	9	9	9	10	11	11	11	12	13	12	12	10	8	6	6	6	6	6	6	6	7	7	6	6	6	7	7	7	7	7	7	7	7	7	7	7	7	7	7	7	7	7	7	7	7	7	7	7	7	7	7	7	7	7	7	7	7	7	7	7	7	7	7	7	7	7	6	6	6	6	6	6	6	6	7	7	7	7	7	7	7	7	7	7	7	7	7	7	7	7	7	7	7	7	7	7	7	7	7	7	7	7	7	7	7	7	7	7	7	7	7	7	7	7	7	7	7	7	7	7	7	7	7	7	7	7	7	7	7
