181	178	175	173	170	168	165	163	161	159	158	157	156	156	157	158	159	160	162	163	163	161	158	156	156	158	160	161	162	162	162	162	162	162	162	163	163	163	163	162	162	161	161	160	160	159	159	160	161	162	162	162	161	161	160	159	157	156	154	153	152	151	150	149	148	147	147	147	146	146	146	146	146	145	145	143	141	139	139	140	143	145	148	149	150	151	152	153	153	152	151	149	148	147	145	144	142	140	138	136	135	135	136	137	138	138	138	139	139	138	136	135	134	133	132	130	128	127	125	124	123	122	121	121	121	121	120	120	120	121	121	121	122	126	129	132	134	135	136	137	138	140	142	145	146	148	149	150	151	151	151	152	154	154	154	154	154	154	155	158	161	163	165	167	168	168	169	170	171	172	172	173	174	176	176	176	177	177	177	178	178	179	179	180	180	181	182	182	184	186	187	188	190	191	192	193	194	196	198	200	202	204	205	206	207	208	208	208	209	210	210	210	210	210	209	208	206	205	203	201	199	196	194	191	189	186	183	180	176	173	170	166	161	157	154	151	148	145	143	140	137	134	132	129	127	125	123	122	121	120	118	117	117	118	119	119	119	117	116	115	114	112	110	106	103	100	96	93	91	89	86	83	80	77	74	71	67	64	60	56	54	51	49	46	45	43	41	40	38	37	35	33	31	29	28	28	27	26	25	24	23	25	27	29	30	31	32	33	35	37	38	39	39	42	41	36	34	39	40	40	41	39	37	38	39	38	37	38	37	36	34	32	30	28	25	22	19	17	13	10	7	5	3	1	0	0	0	0	0	0	0	0	0	0	0	0	0	0	0	0	0	0	0	0	0	0	0	0	0	0	0	0	0	0	0	0	0	0	0	0	0	0	0	0	0	0	0	0	0	0	0	0	0	0	0	0	0	0	0	0	0	0	0	0	0	0	0	0	0	0	0	0	0	0	0	0	0	0	0	0	0	0	0	0	0	0	0	0	0	0	0	0	0	0	0	0	0	0	0	0	0	0	0	0	0	0	0	0	0	0	0	0	0	0	0	0	0	0	0	0	0	0	0	0	0	0	0	0	0	0	0	0	0	0	0	0	0	0	0	0	0	0	0	0	0	0	0	0	0	0	0	0	0	0	0	0	0	0	0	0	0	0	0	0	0	0	0	0	0	0	0	0	0	0	0	0	0	0	0	0	0	0	0	0	0	0	0	0	0	0	0	0	0	0	0	0	0	0	0	0	0	0	0	0	0	0	0	0	0	0	0	0	0	0	0	0	0	0	0	0	0	0	0	0	0	0	0	0	0	0	0	0	0	0	0	0	0	0	0	0	0	0	0	0	0	0	0	0	0	0	0	0	0	0	0	1	3	4	5	8	12	14	15	16	18	20	21	22	23	24	26	28	29	31	33	36	38	41	43	45	46	48	51	53	55	55	56	57	59	60	60	61	62	64	65	65	64	64	64	66	68	70	72	74	75	75	75	74	74	75	76	78	80	82	83	83	83	83	84	85	86	88	89	90	90	91	91	90	89	88	87	85	84	83	81	79	78	77	77	76	76	75	75	74	73	72	71	71	73	74	75	76	77	77	76	76	76	78	80	82	83	83	82	82	82	82	82	82	83	84	85	86	88	90	91	93	94	95	95	95	95	95	95	95	96	97	98	100	100	100	100	100	99	97	96	95	93	92	91	91	91	90	88	86	83	80	79	78	77	76	76	75	74	72	70	68	65	63	60	59	57	56	54	53	51	49	47	45	43	41	39	37	36	35	35	35	35	33	31	30	30	31	32	32	31	30	30	30	30	29	28	28	27	26	26	25	25	26	26	26	26	25	24	22	19	14	8	3	0	0	0	0	0	1	1	0	0	0	0	0	0	0	0	0	0	0	0	0	0	0	0	0	0	0	0	0	0	0	0	0	0	0	0	0	0	0	0	0	0	0	0	0	0	0	0	0	0	0	0	0	0	0	0	0	0	0	0	0	1	1	1	2	2	4	10	23	25	22	21	21	22	23	24	26	28	30	32	33	34	35	37	38	40	42	43	44	46	48	50	52	54	57	59	62	64	66	69	71	73	76	78	79	80	82	83	86	88	89	90	90	91	93	94	96	98	100	102	104	106	108	109	111	113	116	119	121	122	122	122	123	125	126	127	128	128	127	127	128	129	130	132	133	134	133	133	132	131	130	129	129	129	130	130	131	132	133	133	133	133	133	134	134	135	134	134	132	131	129	126	124	122	120	116	113	111	108	105	102	100	98	97	94	92	89	86	83	79	76	73	70
182	179	176	174	172	169	167	164	162	159	157	156	155	154	154	155	157	158	159	160	160	158	157	156	156	158	160	162	162	162	162	162	162	161	161	162	162	162	161	160	159	158	158	158	158	158	158	160	161	161	161	161	160	160	159	158	157	155	153	152	151	150	150	149	148	147	147	146	145	145	145	145	145	144	143	142	139	137	137	139	141	144	147	148	149	150	150	151	151	151	150	149	148	146	145	143	141	140	137	134	133	133	134	135	136	136	136	136	136	136	134	133	131	131	129	127	126	125	124	123	122	121	121	120	120	120	120	120	120	120	120	122	125	129	132	134	136	137	138	139	140	141	143	145	147	148	150	151	152	152	153	154	155	156	156	156	156	157	157	159	161	164	166	168	169	170	171	171	172	173	174	175	176	177	178	179	179	180	180	181	181	180	181	182	182	183	183	184	185	187	188	189	190	192	193	194	196	198	199	201	203	204	205	207	208	208	209	209	210	210	210	210	210	209	208	207	206	204	202	199	196	194	191	189	186	183	180	176	173	170	167	162	158	155	151	149	146	143	141	138	135	132	130	127	125	123	121	120	119	117	116	115	115	115	115	116	116	114	113	113	111	109	107	104	101	97	94	91	89	86	83	80	78	75	72	69	66	62	59	56	53	50	47	45	43	42	40	39	38	36	35	32	30	29	28	28	27	26	25	24	25	26	28	30	31	32	33	34	36	38	39	39	38	38	37	36	36	39	36	34	39	37	38	38	36	35	37	37	36	35	33	31	29	27	24	21	19	16	12	9	6	4	2	1	0	0	0	0	0	0	0	0	0	0	0	0	0	0	0	0	0	0	0	0	0	0	0	0	0	0	0	0	0	0	0	0	0	0	0	0	0	0	0	0	0	0	0	0	0	0	0	0	0	0	0	0	0	0	0	0	0	0	0	0	0	0	0	0	0	0	0	0	0	0	0	0	0	0	0	0	0	0	0	0	0	0	0	0	0	0	0	0	0	0	0	0	0	0	0	0	0	0	0	0	0	0	0	0	0	0	0	0	0	0	0	0	0	0	0	0	0	0	0	0	0	0	0	0	0	0	0	0	0	0	0	0	0	0	0	0	0	0	0	0	0	0	0	0	0	0	0	0	0	0	0	0	0	0	0	0	0	0	0	0	0	0	0	0	0	0	0	0	0	0	0	0	0	0	0	0	0	0	0	0	0	0	0	0	0	0	0	0	0	0	0	0	0	0	0	0	0	0	0	0	0	0	0	0	0	0	0	0	0	0	0	0	0	0	0	0	0	0	0	0	0	0	0	0	0	0	0	0	0	0	0	0	0	0	0	0	0	0	0	0	0	0	0	0	0	0	0	0	0	0	0	1	2	3	4	7	10	12	14	15	16	18	20	21	22	23	25	26	28	31	33	35	37	40	42	43	45	47	49	52	53	54	54	55	57	58	58	58	60	61	62	62	62	61	62	64	66	68	70	72	73	74	73	73	73	73	75	77	79	80	81	81	81	80	80	82	84	86	86	86	87	88	89	88	86	85	83	81	80	79	78	76	75	74	73	73	74	73	72	72	71	70	70	71	72	74	75	76	77	77	76	76	76	78	80	82	83	83	83	82	83	83	83	84	85	85	86	88	90	91	92	94	95	96	96	96	96	97	97	97	98	98	100	101	101	101	101	101	100	99	98	97	96	95	95	95	95	93	91	88	85	82	81	80	79	78	78	77	76	74	71	69	66	64	62	61	59	58	56	54	53	51	49	47	45	43	41	40	39	38	37	37	36	35	34	32	31	32	32	33	32	31	31	30	30	30	28	28	27	26	25	26	26	26	26	26	25	24	23	21	18	14	9	4	1	0	0	0	0	1	1	1	-1	0	0	0	0	0	0	0	0	0	0	0	0	0	0	0	0	0	0	0	0	0	0	0	0	0	0	0	0	0	0	0	0	0	0	0	0	0	0	0	0	0	1	0	0	0	0	1	1	0	0	0	1	1	2	2	3	5	12	23	23	21	21	22	23	24	25	27	28	30	32	34	35	37	38	39	41	42	44	45	47	49	51	53	55	57	60	62	65	67	69	71	74	75	77	78	80	81	84	86	89	90	90	90	91	93	94	95	97	99	101	103	105	107	109	111	113	116	119	121	123	123	123	124	126	127	128	129	129	129	129	129	130	131	133	134	135	135	135	135	133	132	131	131	131	131	132	133	134	134	134	134	135	135	135	136	136	136	135	134	132	130	128	125	123	121	118	115	112	110	107	104	103	102	100	98	94	91	88	84	80	78	75	73
182	179	177	174	172	170	167	164	162	159	156	154	154	153	152	152	154	155	156	157	157	155	155	155	157	159	161	162	162	162	162	161	161	159	159	160	160	160	159	158	156	155	156	157	157	157	157	158	159	159	159	159	159	159	158	157	155	153	152	150	149	149	148	148	147	147	146	145	144	144	144	144	144	143	142	140	138	136	136	137	140	143	145	146	147	148	148	149	150	150	149	148	147	146	144	143	141	139	137	134	132	131	132	133	134	134	133	133	134	133	132	130	129	128	127	126	125	124	124	123	122	121	120	120	120	120	120	120	120	120	122	124	127	131	134	136	137	139	140	141	142	143	144	145	147	149	150	152	153	153	154	155	157	157	158	158	158	158	159	160	162	165	167	169	170	171	172	173	173	174	175	176	178	179	180	181	182	182	183	183	183	182	183	184	185	185	186	186	186	187	188	190	191	192	193	195	197	199	200	202	203	205	206	208	209	209	209	210	210	210	210	209	209	208	207	206	205	203	200	197	194	191	188	186	183	179	176	172	169	166	163	159	155	152	149	146	144	141	138	136	133	130	128	125	123	121	119	117	116	115	114	113	113	113	113	113	113	111	110	109	108	105	103	101	98	95	92	90	87	84	81	78	76	73	70	67	64	61	58	55	52	50	47	44	42	41	39	38	37	36	34	32	30	29	28	28	26	25	25	25	27	28	30	31	31	32	34	35	36	38	39	39	38	37	34	33	32	36	35	34	36	34	36	37	36	36	37	36	35	34	32	31	29	26	23	21	18	15	11	7	5	3	2	0	0	0	0	0	0	0	0	0	0	0	0	0	0	0	0	0	0	0	0	0	0	0	0	0	0	0	0	0	0	0	0	0	0	0	0	0	0	0	0	0	0	0	0	0	0	0	0	0	0	0	0	0	0	0	0	0	0	0	0	0	0	0	0	0	0	0	0	0	0	0	0	0	0	0	0	0	0	0	0	0	0	0	0	0	0	0	0	0	0	0	0	0	0	0	0	0	0	0	0	0	0	0	0	0	0	0	0	0	0	0	0	0	0	0	0	0	0	0	0	0	0	0	0	0	0	0	0	0	0	0	0	0	0	0	0	0	0	0	0	0	0	0	0	0	0	0	0	0	0	0	0	0	0	0	0	0	0	0	0	0	0	0	0	0	0	0	0	0	0	0	0	0	0	0	0	0	0	0	0	0	0	0	0	0	0	0	0	0	0	0	0	0	0	0	0	0	0	0	0	0	0	0	0	0	0	0	0	0	0	0	0	0	0	0	0	0	0	0	0	0	0	0	0	0	0	0	0	0	0	0	0	0	0	0	0	0	0	0	0	0	0	0	0	0	0	0	0	0	0	0	0	0	2	3	4	6	8	11	13	14	15	16	18	19	21	22	23	25	27	30	32	34	36	39	41	42	44	46	49	50	52	52	53	54	55	55	55	56	56	58	59	59	59	58	60	62	64	66	68	70	71	72	72	72	71	72	73	75	77	78	79	79	78	77	77	79	82	83	83	82	82	84	85	84	83	82	80	77	76	75	74	72	71	70	70	70	72	72	71	70	69	69	69	71	72	73	74	75	76	77	76	76	76	78	80	81	83	83	83	83	83	83	84	85	86	87	87	89	91	92	93	95	96	98	98	98	98	98	99	99	99	100	101	101	102	102	102	102	101	101	100	99	99	98	98	98	97	95	93	90	87	85	83	82	80	79	79	78	77	75	73	70	68	66	65	63	62	60	58	56	54	53	51	49	47	45	43	43	42	41	40	39	37	37	36	34	33	33	33	34	34	33	32	31	30	30	29	28	26	25	25	25	25	25	25	25	24	23	21	18	15	12	8	4	1	0	0	0	1	2	0	1	-1	0	0	0	0	0	0	0	0	0	0	0	0	0	0	0	0	0	0	0	0	0	0	0	0	0	0	0	0	0	0	0	0	0	0	0	0	0	0	0	0	0	1	1	0	0	1	2	2	0	0	1	1	1	2	2	4	9	17	22	21	21	23	24	25	26	27	28	29	31	33	35	37	38	40	41	42	43	45	46	48	50	52	54	56	58	61	63	66	68	70	72	74	75	77	78	80	82	84	86	88	90	90	90	91	93	94	95	97	99	101	103	105	107	108	111	113	116	119	121	123	124	124	125	127	128	129	129	130	131	131	132	132	133	134	135	136	137	137	137	135	134	133	133	133	133	134	134	135	136	136	136	136	136	136	137	138	138	137	135	134	132	129	127	126	123	120	117	114	111	109	107	106	104	103	100	96	92	89	86	82	80	78	75
182	179	177	174	172	170	167	164	162	159	156	154	152	151	151	150	151	152	152	153	153	153	153	155	157	159	161	162	162	162	161	160	158	157	156	157	158	158	157	155	154	153	154	155	155	155	155	157	158	158	158	158	158	158	157	156	155	152	150	148	147	146	146	145	144	145	144	143	142	142	142	143	143	142	140	139	137	136	135	135	138	140	142	144	145	146	146	147	148	149	148	147	146	145	144	142	140	138	136	133	131	130	131	132	132	132	131	131	130	130	129	127	126	126	125	124	124	123	122	121	121	120	120	120	120	120	120	120	121	122	124	126	130	133	136	138	139	141	142	143	144	145	145	147	148	149	151	153	154	154	155	156	157	159	159	159	159	160	160	161	162	165	168	169	171	172	173	174	175	176	177	178	179	181	182	183	184	185	186	186	185	184	185	186	187	188	188	188	188	189	189	190	191	193	194	196	198	200	201	203	204	206	207	208	209	209	209	210	210	209	208	208	207	207	206	205	203	201	198	194	190	186	184	182	179	176	173	169	165	162	159	156	153	150	147	144	141	138	136	133	131	128	125	123	121	119	116	115	114	113	111	111	111	111	111	111	110	109	107	106	104	102	100	98	96	93	90	88	85	82	79	77	74	70	68	65	62	59	56	54	52	49	46	44	42	40	39	37	36	34	33	32	30	29	28	27	26	25	26	27	29	31	32	32	32	33	34	35	37	38	39	39	38	36	36	35	34	36	38	38	38	36	36	37	37	37	37	36	34	33	31	29	27	25	22	20	17	14	10	6	3	2	1	0	0	0	0	0	0	0	0	0	0	0	0	0	0	0	0	0	0	0	0	0	0	0	0	0	0	0	0	0	0	0	0	0	0	0	0	0	0	0	0	0	0	0	0	0	0	0	0	0	0	0	0	0	0	0	0	0	0	0	0	0	0	0	0	0	0	0	0	0	0	0	0	0	0	0	0	0	0	0	0	0	0	0	0	0	0	0	0	0	0	0	0	0	0	0	0	0	0	0	0	0	0	0	0	0	0	0	0	0	0	0	0	0	0	0	0	0	0	0	0	0	0	0	0	0	0	0	0	0	0	0	0	0	0	0	0	0	0	0	0	0	0	0	0	0	0	0	0	0	0	0	0	0	0	0	0	0	0	0	0	0	0	0	0	0	0	0	0	0	0	0	0	0	0	0	0	0	0	0	0	0	0	0	0	0	0	0	0	0	0	0	0	0	0	0	0	0	0	0	0	0	0	0	0	0	0	0	0	0	0	0	0	0	0	0	0	0	0	0	0	0	0	0	0	0	0	0	0	0	0	0	0	0	0	0	0	0	0	0	0	0	0	0	0	0	0	0	0	0	0	0	0	0	1	2	4	5	7	9	12	13	15	15	17	18	20	21	22	24	26	29	31	32	34	37	39	41	44	46	47	48	50	51	52	53	53	53	53	51	52	55	56	56	56	56	58	60	62	64	66	68	69	70	70	70	70	71	72	74	75	76	77	77	76	75	76	77	79	80	80	79	79	80	81	80	79	79	77	74	73	72	71	69	68	68	67	67	69	69	68	68	68	68	68	70	70	71	72	73	75	76	76	76	76	78	79	81	83	84	84	84	84	84	86	87	88	88	89	90	92	93	95	96	98	99	100	100	99	100	100	100	101	101	102	103	103	103	103	103	103	103	102	102	101	100	100	100	99	97	94	92	89	87	85	84	82	80	80	79	78	76	74	72	70	69	68	66	65	63	60	58	56	54	52	50	48	47	46	45	45	44	43	42	40	38	36	35	34	34	35	36	35	34	33	32	31	30	30	28	25	24	25	25	24	24	24	23	22	21	19	16	12	9	5	3	1	1	1	1	3	4	3	1	0	0	0	0	0	0	0	0	0	0	0	0	0	0	0	0	0	0	0	0	0	0	0	0	0	0	0	0	1	1	1	1	0	0	0	0	0	0	0	-1	0	0	0	0	0	0	1	3	2	0	0	1	1	1	2	3	6	15	21	21	20	22	24	25	26	27	29	30	31	32	34	36	38	40	42	43	43	44	46	47	49	51	53	55	57	59	62	65	68	70	72	74	75	76	77	79	80	82	84	86	87	88	89	90	91	93	95	96	98	100	102	104	105	107	109	111	113	115	118	121	123	123	124	125	127	128	129	131	132	133	134	134	134	135	136	137	138	139	139	138	137	136	135	135	135	136	136	136	137	138	138	138	138	138	138	139	140	140	139	137	136	134	131	129	128	125	122	119	116	113	111	110	108	107	104	101	97	94	90	87	84	83	81	78
181	179	176	174	171	169	167	165	162	160	157	154	152	151	150	149	149	149	150	150	150	151	152	155	158	160	162	162	162	162	160	158	156	154	154	155	157	157	155	153	151	151	152	153	154	154	154	155	156	156	156	156	157	157	156	155	154	152	149	146	144	143	143	142	141	142	142	141	139	139	140	141	141	141	140	139	137	136	134	134	135	138	140	141	142	143	144	145	147	148	147	146	145	144	143	141	140	138	135	132	129	128	129	130	130	130	129	128	127	126	125	125	124	124	124	123	123	122	121	120	120	120	120	120	120	120	121	122	123	125	126	128	131	135	137	139	140	142	143	144	145	146	147	148	149	150	152	153	154	155	156	157	158	159	160	161	161	161	161	162	163	165	168	169	171	172	173	175	176	177	178	179	181	182	184	186	187	188	188	188	187	186	187	188	189	190	190	190	189	190	190	191	192	193	195	197	199	200	202	203	205	207	208	209	209	209	209	209	208	207	206	205	205	204	204	203	201	199	196	190	185	182	180	178	176	173	170	165	162	159	156	153	150	147	144	142	139	136	134	131	129	126	123	122	120	117	115	113	112	110	110	109	109	109	109	109	108	106	104	103	101	100	98	96	93	91	88	86	83	80	77	74	71	68	66	63	60	58	55	53	50	48	45	43	41	39	38	36	35	34	33	32	30	29	28	27	26	26	27	29	31	33	33	33	34	34	35	36	38	39	39	39	37	35	37	38	38	37	38	38	38	37	37	37	37	37	36	35	33	31	29	27	26	24	22	20	17	14	9	5	3	1	0	0	0	0	0	0	0	0	0	0	0	0	0	0	0	0	0	0	0	0	0	0	0	0	0	0	0	0	0	0	0	0	0	0	0	0	0	0	0	0	0	0	0	0	0	0	0	0	0	0	0	0	0	0	0	0	0	0	0	0	0	0	0	0	0	0	0	0	0	0	0	0	0	0	0	0	0	0	0	0	0	0	0	0	0	0	0	0	0	0	0	0	0	0	0	0	0	0	0	0	0	0	0	0	0	0	0	0	0	0	0	0	0	0	0	0	0	0	0	0	0	0	0	0	0	0	0	0	0	0	0	0	0	0	0	0	0	0	0	0	0	0	0	0	0	0	0	0	0	0	0	0	0	0	0	0	0	0	0	0	0	0	0	0	0	0	0	0	0	0	0	0	0	0	0	0	0	0	0	0	0	0	0	0	0	0	0	0	0	0	0	0	0	0	0	0	0	0	0	0	0	0	0	0	0	0	0	0	0	0	0	0	0	0	0	0	0	0	0	0	0	0	0	0	0	0	0	0	0	0	0	0	0	0	0	0	0	0	0	0	0	0	0	0	0	0	0	0	0	0	0	0	0	0	0	2	3	4	5	7	10	12	13	15	16	17	19	20	22	23	25	28	29	31	33	36	38	41	43	44	45	46	47	48	50	51	51	51	51	48	50	56	54	53	53	54	56	58	60	62	63	65	67	68	68	69	69	70	71	73	73	74	75	75	74	74	74	75	76	76	75	75	75	76	76	76	76	76	74	72	71	70	68	67	66	65	65	65	65	66	66	66	66	66	67	68	68	69	70	71	73	74	75	75	76	77	79	81	83	84	85	85	84	85	86	88	89	89	90	91	93	95	96	98	99	100	101	101	101	101	102	102	102	102	103	104	104	105	105	105	104	104	105	107	105	102	102	102	101	98	95	95	92	89	88	86	84	82	81	80	78	77	75	74	72	71	70	69	67	65	62	60	58	56	54	51	50	48	48	48	47	47	46	44	41	39	37	36	36	37	37	37	36	35	35	33	32	30	29	27	25	24	24	24	24	23	22	21	20	18	16	14	11	7	5	3	2	2	2	3	5	5	4	2	0	0	0	0	0	0	0	0	0	0	0	0	0	0	0	0	0	0	0	0	0	0	0	0	0	1	1	2	2	3	2	2	1	0	0	0	0	0	0	-1	0	0	-1	0	0	0	1	2	2	0	1	1	1	2	2	4	8	19	24	21	21	22	24	25	27	28	30	32	33	34	35	37	39	41	43	44	45	46	47	49	51	53	54	56	58	61	63	67	70	72	74	76	77	78	79	80	81	82	84	85	86	87	88	90	91	93	95	97	99	101	103	105	107	108	110	111	113	115	118	120	122	123	124	125	127	129	131	132	133	135	135	135	135	136	137	139	140	141	141	140	139	139	138	137	138	138	138	138	139	140	140	139	140	140	140	141	142	141	140	139	137	136	133	131	129	126	123	121	119	116	114	113	111	109	105	102	99	95	92	90	87	86	84	80
178	177	175	173	170	168	166	165	163	160	157	155	152	150	149	148	148	147	147	148	149	150	153	156	159	161	163	163	163	161	160	157	155	153	153	154	155	155	154	152	150	149	150	151	152	152	153	153	154	153	153	154	155	155	155	154	152	150	148	145	142	140	139	139	139	139	139	138	136	136	137	139	139	139	139	138	137	136	134	133	133	135	137	138	140	141	142	144	145	146	146	145	144	143	142	141	139	137	134	132	129	127	127	127	127	127	126	125	125	124	123	123	123	123	122	122	122	121	120	120	120	120	120	120	120	121	122	124	126	127	129	130	133	135	138	140	141	143	144	145	146	147	148	149	150	151	152	153	155	156	157	158	159	160	161	162	162	162	163	163	165	166	168	169	171	173	174	175	177	178	179	181	183	185	187	188	189	190	190	190	189	189	189	190	191	192	191	191	191	191	191	192	193	194	195	197	199	200	202	204	206	207	207	208	208	208	208	207	206	205	203	202	201	201	200	200	198	197	193	187	181	178	176	175	172	169	165	161	158	156	153	151	148	145	142	139	136	134	131	129	127	124	121	120	118	116	114	112	110	109	108	108	107	107	107	107	106	104	102	100	98	96	94	93	91	89	86	83	81	78	75	72	70	67	64	62	59	57	54	52	49	47	45	42	40	38	37	35	34	33	32	31	30	29	28	26	26	26	29	31	33	34	34	34	35	36	36	37	39	39	39	39	39	37	37	38	38	37	38	36	33	34	37	37	37	36	35	33	31	30	28	26	25	23	22	20	18	14	9	5	2	1	0	0	0	0	0	0	0	0	0	0	0	0	0	0	0	0	0	0	0	0	0	0	0	0	0	0	0	0	0	0	0	0	0	0	0	0	0	0	0	0	0	0	0	0	0	0	0	0	0	0	0	0	0	0	0	0	0	0	0	0	0	0	0	0	0	0	0	0	0	0	0	0	0	0	0	0	0	0	0	0	0	0	0	0	0	0	0	0	0	0	0	0	0	0	0	0	0	0	0	0	0	0	0	0	0	0	0	0	0	0	0	0	0	0	0	0	0	0	0	0	0	0	0	0	0	0	0	0	0	0	0	0	0	0	0	0	0	0	0	0	0	0	0	0	0	0	0	0	0	0	0	0	0	0	0	0	0	0	0	0	0	0	0	0	0	0	0	0	0	0	0	0	0	0	0	0	0	0	0	0	0	0	0	0	0	0	0	0	0	0	0	0	0	0	0	0	0	0	0	0	0	0	0	0	0	0	0	0	0	0	0	0	0	0	0	0	0	0	0	0	0	0	0	0	0	0	0	0	0	0	0	0	0	0	0	0	0	0	0	0	0	0	0	0	0	0	0	0	0	0	0	0	0	0	0	1	2	3	4	5	7	10	12	14	15	17	18	20	22	23	24	27	28	30	32	35	37	39	41	42	43	44	44	46	48	49	49	49	49	48	51	55	51	50	51	53	54	56	58	60	61	63	64	65	66	67	69	69	69	70	71	72	73	73	73	72	72	73	73	72	72	72	72	72	72	72	73	72	70	69	68	67	65	64	62	63	63	62	62	63	63	64	64	65	65	66	66	67	69	70	71	73	74	75	75	76	78	80	83	85	86	85	85	85	87	88	89	90	91	92	94	95	97	98	100	101	102	102	102	102	103	103	103	104	104	105	106	106	106	106	106	106	107	110	108	104	103	103	102	99	97	97	94	93	90	89	87	85	82	81	80	78	77	76	75	74	72	71	68	66	64	62	60	58	56	54	52	51	50	50	49	48	47	45	42	39	37	37	38	38	39	38	37	36	36	34	32	30	28	26	25	24	24	24	23	21	21	20	19	18	16	15	11	7	6	4	3	3	3	4	6	4	3	1	0	0	0	0	0	0	0	0	0	0	0	0	0	0	0	0	0	0	0	0	0	0	1	1	2	2	3	4	4	4	3	2	1	2	2	1	-1	0	0	0	-1	0	0	0	0	0	0	1	1	1	1	1	2	2	2	4	11	22	24	21	21	23	24	26	27	29	31	33	35	36	37	39	40	42	44	46	47	48	49	50	52	54	56	58	60	62	65	68	71	74	76	77	78	79	80	80	81	82	83	84	86	87	89	91	92	94	96	98	100	102	104	106	108	110	112	113	115	117	119	121	122	123	124	126	128	131	132	134	135	136	137	137	136	137	139	140	141	142	143	142	142	141	140	140	140	140	140	140	141	142	142	141	142	142	142	143	143	143	142	140	139	137	135	132	130	127	125	123	121	119	117	116	114	111	107	104	101	98	95	92	90	88	85	82
176	174	173	171	168	166	165	164	163	160	157	155	153	150	149	148	147	147	146	147	148	151	153	156	159	162	163	164	163	162	160	157	154	152	152	152	153	154	153	151	149	147	148	150	151	151	151	151	152	151	151	151	153	153	153	152	150	148	146	143	139	136	134	135	136	137	137	135	134	134	136	137	137	138	138	138	137	135	133	131	131	132	134	136	138	139	141	142	143	144	144	143	143	142	142	141	139	137	134	131	128	125	125	125	125	125	124	123	123	122	121	121	121	121	121	121	121	121	120	121	121	120	120	120	120	122	125	126	128	129	131	133	134	136	139	141	142	144	145	146	147	148	149	150	150	151	153	154	155	157	158	159	160	161	162	163	164	164	164	165	166	167	168	170	171	173	175	176	177	179	180	182	184	187	189	190	191	192	192	192	191	191	191	192	193	193	193	192	192	192	193	193	194	195	196	197	199	200	202	204	205	206	206	206	207	206	206	205	204	202	200	199	198	198	198	197	196	194	189	183	178	175	173	171	167	163	160	157	155	152	150	147	145	143	139	137	134	132	130	127	125	122	119	118	116	114	112	110	108	107	106	106	105	105	105	104	102	101	98	96	94	92	90	89	88	86	84	81	79	77	73	71	68	65	63	60	58	56	53	51	49	46	44	41	39	37	35	34	33	32	31	30	29	28	27	26	26	28	31	33	34	35	35	36	37	37	38	38	39	39	38	37	40	40	38	37	37	38	38	36	34	37	38	37	36	34	33	31	30	28	27	26	24	23	22	20	17	12	7	4	2	0	0	0	0	0	0	0	0	0	0	0	0	0	0	0	0	0	0	0	0	0	0	0	0	0	0	0	0	0	0	0	0	0	0	0	0	0	0	0	0	0	0	0	0	0	0	0	0	0	0	0	0	0	0	0	0	0	0	0	0	0	0	0	0	0	0	0	0	0	0	0	0	0	0	0	0	0	0	0	0	0	0	0	0	0	0	0	0	0	0	0	0	0	0	0	0	0	0	0	0	0	0	0	0	0	0	0	0	0	0	0	0	0	0	0	0	0	0	0	0	0	0	0	0	0	0	0	0	0	0	0	0	0	0	0	0	0	0	0	0	0	0	0	0	0	0	0	0	0	0	0	0	0	0	0	0	0	0	0	0	0	0	0	0	0	0	0	0	0	0	0	0	0	0	0	0	0	0	0	0	0	0	0	0	0	0	0	0	0	0	0	0	0	0	0	0	0	0	0	0	0	0	0	0	0	0	0	0	0	0	0	0	0	0	0	0	0	0	0	0	0	0	0	0	0	0	0	0	0	0	0	0	0	0	0	0	0	0	0	0	0	0	0	0	0	0	0	0	0	0	0	0	0	0	0	0	0	1	2	3	4	6	9	11	13	14	16	17	19	21	22	23	25	27	28	31	33	35	37	39	40	41	42	43	45	47	47	47	47	47	46	46	47	47	48	49	51	51	53	56	58	59	60	62	63	64	66	68	69	68	68	69	70	71	71	71	70	70	70	71	70	70	69	69	68	68	69	69	68	67	66	65	64	62	60	58	60	61	60	60	60	61	62	63	63	64	64	64	66	68	69	71	72	73	74	75	76	77	80	83	85	85	85	85	86	87	88	90	91	92	94	95	96	97	98	100	101	102	103	103	104	104	104	105	106	106	107	107	108	108	108	108	108	109	110	108	106	105	104	102	100	99	98	96	95	93	90	89	87	85	82	81	80	79	79	77	76	74	71	69	67	65	63	61	60	58	57	55	54	53	52	51	50	48	46	43	40	38	38	38	39	38	37	36	36	36	35	32	28	26	25	24	23	22	22	21	20	20	20	19	18	17	15	10	6	4	3	3	2	2	3	2	1	0	0	0	0	0	0	0	0	0	0	0	0	0	0	0	0	0	0	1	1	1	1	1	1	2	2	3	4	4	5	5	5	4	3	2	2	3	1	-1	-1	0	0	0	0	0	0	0	0	1	3	3	1	1	1	2	2	3	6	16	23	23	21	22	24	26	27	28	31	33	35	37	38	40	41	42	43	45	47	49	50	51	52	53	55	57	59	61	63	66	69	72	74	76	78	79	80	81	81	82	82	83	85	87	89	91	93	94	96	98	99	101	103	105	107	110	111	114	116	118	119	121	123	124	124	125	127	130	132	134	136	137	138	139	138	138	139	140	141	142	143	144	144	144	143	142	142	142	142	142	142	143	144	144	143	144	144	144	145	145	144	144	143	141	139	136	134	131	129	127	126	124	122	120	119	116	113	110	107	103	100	97	95	92	89	86	83
173	171	170	168	166	165	164	163	161	159	156	155	152	150	148	148	147	147	146	146	148	151	153	156	159	162	164	164	163	161	160	157	154	151	150	150	151	152	152	150	146	145	147	149	150	149	149	149	149	149	149	149	151	151	150	149	148	146	144	140	136	132	130	131	133	134	134	132	131	132	133	134	135	135	136	136	135	134	132	130	129	130	131	133	135	137	138	139	139	140	141	141	141	141	140	140	138	136	134	131	128	125	124	124	124	124	123	122	121	121	120	120	120	120	120	120	120	120	120	120	121	120	119	119	120	124	127	128	129	131	134	135	137	138	140	141	143	144	146	147	148	149	150	150	151	152	153	155	156	158	160	161	162	163	164	165	165	165	166	166	167	168	169	170	172	174	176	177	178	180	181	183	186	188	190	191	192	193	193	193	192	192	193	194	194	194	194	194	193	193	194	194	195	195	196	197	199	201	203	204	205	205	205	204	204	204	203	202	201	199	197	195	195	195	195	195	193	190	185	179	175	171	168	165	162	159	156	154	151	149	147	145	143	140	137	134	132	130	128	126	123	120	118	116	114	112	110	108	106	104	104	103	102	102	101	100	99	97	95	93	91	88	87	86	85	84	82	80	77	75	72	69	66	63	61	59	56	54	52	50	48	45	43	40	38	36	34	33	32	31	30	29	28	27	26	26	27	29	32	34	35	35	36	37	38	38	39	39	39	38	39	41	48	42	40	38	37	39	41	40	38	38	37	36	34	32	31	30	28	27	26	25	23	23	22	20	16	9	5	3	2	1	0	0	0	0	0	0	0	0	0	0	0	0	0	0	0	0	0	0	0	0	0	0	0	0	0	0	0	0	0	0	0	0	0	0	0	0	0	0	0	0	0	0	0	0	0	0	0	0	0	0	0	0	0	0	0	0	0	0	0	0	0	0	0	0	0	0	0	0	0	0	0	0	0	0	0	0	0	0	0	0	0	0	0	0	0	0	0	0	0	0	0	0	0	0	0	0	0	0	0	0	0	0	0	0	0	0	0	0	0	0	0	0	0	0	0	0	0	0	0	0	0	0	0	0	0	0	0	0	0	0	0	0	0	0	0	0	0	0	0	0	0	0	0	0	0	0	0	0	0	0	0	0	0	0	0	0	0	0	0	0	0	0	0	0	0	0	0	0	0	0	0	0	0	0	0	0	0	0	0	0	0	0	0	0	0	0	0	0	0	0	0	0	0	0	0	0	0	0	0	0	0	0	0	0	0	0	0	0	0	0	0	0	0	0	0	0	0	0	0	0	0	0	0	0	0	0	0	0	0	0	0	0	0	0	0	0	0	0	0	0	0	0	0	0	0	0	0	0	0	0	0	0	0	0	0	0	1	2	3	4	5	8	11	12	14	15	16	17	19	20	22	23	25	27	29	31	32	34	36	37	38	39	41	43	45	45	44	44	44	44	43	44	44	45	46	47	48	47	51	55	56	57	59	61	63	65	67	68	67	67	67	68	69	69	68	68	67	68	69	69	68	67	65	65	64	65	65	64	64	63	62	60	59	58	57	57	58	58	58	58	59	60	61	61	62	62	63	65	67	68	70	72	73	74	75	76	77	79	82	84	84	85	85	86	87	89	90	92	94	95	96	97	98	99	100	101	102	103	104	105	105	106	107	108	108	109	109	109	109	109	109	110	110	110	109	107	106	105	103	100	100	100	99	97	95	92	91	90	88	85	82	81	81	80	79	78	75	72	70	68	66	64	63	62	61	59	58	56	55	53	52	50	49	46	44	41	40	39	39	39	37	36	35	35	35	34	32	28	27	25	23	22	21	19	19	19	19	18	18	17	15	11	7	4	3	2	1	1	0	0	0	1	0	0	0	0	0	0	0	0	0	0	0	0	0	0	0	0	1	2	2	2	3	3	3	3	3	3	4	5	6	6	7	7	6	4	3	2	2	1	0	0	1	0	0	0	0	1	1	0	1	2	3	2	1	1	2	3	4	10	21	22	21	22	23	25	27	28	30	32	35	37	38	40	41	42	43	44	46	48	50	52	53	54	55	57	59	61	63	64	67	70	72	74	76	78	79	81	81	82	83	83	84	86	88	90	93	95	97	98	100	101	103	104	107	109	111	113	115	118	120	122	123	125	126	126	127	129	131	134	136	138	139	140	141	141	140	140	141	142	143	144	145	146	145	145	144	143	144	144	144	145	146	146	146	146	146	146	147	146	146	146	146	145	143	140	138	135	132	130	129	128	126	125	123	121	119	115	111	109	105	102	99	97	94	91	87	84
171	169	167	166	165	164	162	161	159	157	155	153	151	149	148	147	147	147	146	146	148	150	153	155	158	161	163	163	162	161	159	156	153	150	148	147	148	150	149	147	144	144	145	147	148	148	148	147	147	147	147	147	148	148	147	146	145	143	140	137	133	130	128	129	130	131	131	130	129	130	131	132	133	133	134	134	134	133	131	129	127	128	129	131	133	135	136	136	136	136	138	138	139	139	139	138	137	135	133	131	128	125	124	123	123	123	122	122	121	121	120	119	119	119	118	119	120	120	120	120	120	119	119	119	121	125	128	130	131	133	135	137	139	140	141	142	143	144	146	147	148	150	151	152	153	154	155	156	157	159	162	163	164	164	165	166	167	168	168	168	168	169	170	172	173	175	176	178	179	181	182	185	187	189	191	192	193	194	194	193	193	193	194	195	195	195	195	195	195	195	195	195	195	196	197	198	199	201	203	204	204	204	203	203	202	201	200	199	197	196	194	192	192	192	192	191	190	186	182	176	171	167	164	162	159	156	154	151	149	146	144	142	140	137	135	132	130	128	126	124	121	119	116	114	112	110	108	106	104	102	101	100	99	98	97	96	95	93	92	90	87	86	84	83	82	81	80	77	75	73	70	67	64	62	60	57	55	52	50	48	46	44	42	39	37	35	33	32	31	30	29	28	28	27	26	27	29	31	33	34	35	35	36	38	39	39	39	39	39	38	38	40	45	38	40	39	39	39	40	39	38	37	36	35	33	31	30	28	27	26	25	24	22	22	21	19	14	7	4	3	2	2	1	0	0	0	0	0	0	0	0	0	0	0	0	0	0	0	0	0	0	0	0	0	0	0	0	0	0	0	0	0	0	0	0	0	0	0	0	0	0	0	0	0	0	0	0	0	0	0	0	0	0	0	0	0	0	0	0	0	0	0	0	0	0	0	0	0	0	0	0	0	0	0	0	0	0	0	0	0	0	0	0	0	0	0	0	0	0	0	0	0	0	0	0	0	0	0	0	0	0	0	0	0	0	0	0	0	0	0	0	0	0	0	0	0	0	0	0	0	0	0	0	0	0	0	0	0	0	0	0	0	0	0	0	0	0	0	0	0	0	0	0	0	0	0	0	0	0	0	0	0	0	0	0	0	0	0	0	0	0	0	0	0	0	0	0	0	0	0	0	0	0	0	0	0	0	0	0	0	0	0	0	0	0	0	0	0	0	0	0	0	0	0	0	0	0	0	0	0	0	0	0	0	0	0	0	0	0	0	0	0	0	0	0	0	0	0	0	0	0	0	0	0	0	0	0	0	0	0	0	0	0	0	0	0	0	0	0	0	0	0	0	0	0	0	0	0	0	0	0	0	0	0	0	0	0	0	1	2	3	4	5	7	10	11	13	14	15	16	17	19	20	22	23	25	27	29	30	32	34	35	36	37	38	41	42	42	42	42	42	42	41	41	41	42	43	44	46	46	46	51	54	55	57	59	62	64	65	66	65	65	65	65	65	65	66	65	65	65	66	66	66	64	63	62	61	62	62	61	61	60	58	58	58	56	55	56	56	56	56	57	58	58	59	60	60	60	62	64	66	67	69	72	73	74	75	75	76	78	81	82	83	84	85	86	87	89	91	93	95	97	98	98	99	99	100	102	103	103	104	105	106	107	108	109	110	111	111	111	111	111	111	112	112	111	110	108	108	107	104	102	102	102	101	99	97	95	93	92	90	87	84	82	81	81	80	79	76	73	71	69	67	66	65	65	63	61	60	59	57	54	52	51	49	47	45	43	42	40	39	38	37	36	34	34	34	34	32	30	29	28	25	22	20	17	17	18	19	17	15	13	11	8	5	4	3	1	1	0	0	0	0	0	0	0	0	0	0	0	0	0	0	0	0	0	0	0	0	1	2	3	3	4	4	4	4	3	3	4	5	7	9	10	11	11	9	5	3	2	2	1	1	1	1	1	1	0	0	0	0	0	0	1	1	1	1	1	2	4	6	15	24	21	21	22	24	26	28	30	32	34	36	38	39	41	42	43	44	46	47	49	51	53	55	57	58	59	60	62	64	66	68	70	72	74	76	77	80	81	82	83	83	84	85	87	88	91	94	96	99	100	102	103	105	106	108	110	112	115	117	120	122	124	125	127	129	129	129	131	133	135	138	139	141	141	142	143	142	142	142	143	144	146	147	147	147	146	145	145	145	146	146	147	148	150	150	149	149	149	148	148	148	148	148	146	145	142	139	137	134	131	130	129	128	127	125	124	121	117	113	110	107	103	100	98	95	92	89	85
170	167	165	164	164	162	161	160	159	157	154	152	150	148	147	146	146	146	145	145	147	149	152	154	156	159	162	162	162	161	158	155	153	150	147	146	146	147	147	145	143	142	144	146	147	147	147	146	145	145	145	145	146	146	144	143	142	139	136	132	129	127	125	126	128	129	128	127	127	127	128	129	129	130	131	132	132	131	130	128	126	126	127	129	131	133	133	132	132	133	134	136	137	137	137	137	135	134	132	130	128	126	124	123	123	123	123	123	123	122	121	120	120	119	119	119	120	119	119	118	119	119	119	120	123	127	130	131	133	135	136	138	139	141	142	143	144	145	146	147	149	150	152	153	155	156	157	158	159	161	163	165	165	166	166	168	169	170	170	170	169	170	172	174	175	176	177	178	180	182	184	187	189	191	193	194	195	195	195	194	194	194	195	196	196	196	196	196	196	196	196	196	196	197	198	199	200	201	202	202	202	202	201	200	199	197	196	195	194	192	191	189	189	188	188	188	186	184	179	172	167	164	161	159	156	153	151	148	146	143	141	140	137	135	133	130	128	126	124	122	119	117	114	113	110	108	106	104	102	99	98	96	95	94	94	93	92	90	89	87	85	84	82	81	80	79	77	75	73	71	68	65	63	60	58	56	54	51	49	47	45	43	41	39	36	34	33	31	31	30	29	28	28	27	27	29	31	32	33	34	35	36	36	38	39	40	40	40	39	39	40	38	38	39	39	39	39	39	39	38	37	37	35	34	32	31	29	28	26	25	23	22	21	20	19	17	12	6	4	3	3	3	2	0	0	0	0	0	0	0	0	0	0	0	0	0	0	0	0	0	0	0	0	0	0	0	0	0	0	0	0	0	0	0	0	0	0	0	0	0	0	0	0	0	0	0	0	0	0	0	0	0	0	0	0	0	0	0	0	0	0	0	0	0	0	0	0	0	0	0	0	0	0	0	0	0	0	0	0	0	0	0	0	0	0	0	0	0	0	0	0	0	0	0	0	0	0	0	0	0	0	0	0	0	0	0	0	0	0	0	0	0	0	0	0	0	0	0	0	0	0	0	0	0	0	0	0	0	0	0	0	0	0	0	0	0	0	0	0	0	0	0	0	0	0	0	0	0	0	0	0	0	0	0	0	0	0	0	0	0	0	0	0	0	0	0	0	0	0	0	0	0	0	0	0	0	0	0	0	0	0	0	0	0	0	0	0	0	0	0	0	0	0	0	0	0	0	0	0	0	0	0	0	0	0	0	0	0	0	0	0	0	0	0	0	0	0	0	0	0	0	0	0	0	0	0	0	0	0	0	0	0	0	0	0	0	0	0	0	0	0	0	0	0	0	0	0	0	0	0	0	0	0	0	0	0	0	0	0	2	3	3	4	5	7	10	12	13	14	15	16	17	18	20	22	23	24	26	28	30	32	32	33	34	36	38	39	39	39	39	39	39	39	39	39	41	41	41	44	45	46	49	52	53	55	58	60	62	63	64	64	63	63	62	62	62	63	63	62	62	63	63	63	62	61	59	58	58	58	58	57	56	56	56	55	54	53	53	54	54	55	56	56	57	58	58	59	60	61	64	65	67	69	71	73	74	74	75	76	77	79	81	82	83	84	86	88	90	93	95	97	99	100	100	101	101	102	103	104	105	105	106	107	108	109	110	111	112	112	112	112	113	113	113	113	112	111	110	109	108	107	106	105	105	103	101	99	97	96	95	92	89	86	84	82	81	81	79	76	74	72	71	69	68	68	67	65	64	62	60	58	56	53	52	50	49	47	46	44	41	40	39	38	36	35	34	35	35	34	32	31	29	26	22	19	16	14	17	18	16	13	11	8	6	4	3	2	1	0	0	0	0	0	0	0	0	0	0	0	0	0	0	0	0	0	0	0	0	1	2	3	4	4	5	5	5	4	4	4	6	8	11	13	14	13	12	9	5	2	1	1	1	1	1	1	1	1	1	0	1	0	1	1	1	1	1	1	2	3	5	8	19	24	21	22	23	25	27	29	31	34	36	38	39	41	42	43	44	45	47	50	51	52	54	56	58	59	60	62	63	65	67	69	71	73	74	76	78	80	81	82	83	84	85	86	88	90	91	94	97	100	102	103	105	107	108	110	112	114	116	118	121	123	125	127	129	130	131	131	133	135	137	139	141	142	143	144	144	144	144	144	145	147	148	149	149	149	148	147	147	147	148	148	149	151	152	152	152	151	151	150	150	150	150	149	148	146	144	140	137	135	133	132	131	130	129	127	125	122	118	114	111	108	105	101	98	96	93	90	87
168	165	164	163	162	161	160	159	158	156	153	151	149	147	146	145	144	144	144	144	146	148	151	153	155	158	161	162	162	160	158	155	153	150	148	146	146	145	145	143	141	141	143	145	146	146	146	145	144	143	143	143	143	143	141	139	137	135	132	128	124	122	122	123	125	127	126	124	124	124	125	125	125	126	128	128	129	129	128	127	124	124	125	126	128	129	129	129	129	130	132	133	134	135	136	135	134	133	131	129	128	126	125	124	124	124	124	124	124	124	123	122	121	120	120	120	120	119	118	118	119	120	120	121	125	128	130	132	134	135	137	138	140	141	142	143	145	146	147	148	149	151	153	155	157	159	160	160	160	162	165	166	167	167	168	169	170	171	172	171	171	172	174	176	177	178	179	180	181	183	186	188	190	192	194	195	196	196	196	195	195	195	196	197	198	198	198	197	197	197	196	196	197	198	199	200	201	201	201	201	200	199	198	197	196	194	192	191	190	189	187	186	185	184	185	184	183	180	175	169	164	161	158	156	153	150	147	145	143	140	139	137	135	133	130	128	126	124	122	120	117	115	113	111	109	107	104	102	99	97	95	93	92	91	91	90	89	88	87	85	84	82	80	79	78	77	75	74	72	69	67	64	62	59	57	55	53	51	49	46	44	42	39	37	35	34	32	31	30	29	28	28	28	28	29	31	32	33	33	34	35	35	36	38	39	39	39	39	40	39	39	39	39	38	37	38	38	38	39	38	37	36	34	33	32	30	29	27	25	24	22	20	19	18	17	15	11	6	4	3	3	2	1	0	0	0	0	0	0	0	0	0	0	0	0	0	0	0	0	0	0	0	0	0	0	0	0	0	0	0	0	0	0	0	0	0	0	0	0	0	0	0	0	0	0	0	0	0	0	0	0	0	0	0	0	0	0	0	0	0	0	0	0	0	0	0	0	0	0	0	0	0	0	0	0	0	0	0	0	0	0	0	0	0	0	0	0	0	0	0	0	0	0	0	0	0	0	0	0	0	0	0	0	0	0	0	0	0	0	0	0	0	0	0	0	0	0	0	0	0	0	0	0	0	0	0	0	0	0	0	0	0	0	0	0	0	0	0	0	0	0	0	0	0	0	0	0	0	0	0	0	0	0	0	0	0	0	0	0	0	0	0	0	0	0	0	0	0	0	0	0	0	0	0	0	0	0	0	0	0	0	0	0	0	0	0	0	0	0	0	0	0	0	0	0	0	0	0	0	0	0	0	0	0	0	0	0	0	0	0	0	0	0	0	0	0	0	0	0	0	0	0	0	0	0	0	0	0	0	0	0	0	0	0	0	0	0	0	0	0	0	0	0	0	0	0	0	0	0	0	0	0	0	0	0	0	0	0	0	1	2	2	3	4	5	7	10	12	13	14	15	16	17	18	20	21	22	24	25	28	29	30	31	32	34	35	36	37	37	36	36	36	36	37	38	39	39	41	42	44	45	47	49	50	53	55	58	60	61	62	63	62	60	59	59	59	60	60	59	60	61	61	60	60	58	56	55	55	55	55	54	53	53	53	53	52	51	51	52	53	53	54	54	55	56	57	58	59	62	64	66	68	70	71	72	73	74	75	76	77	78	80	81	83	84	86	88	91	94	96	98	100	101	102	103	103	103	105	106	107	108	108	108	109	111	112	113	114	114	113	113	113	114	114	114	113	112	111	110	109	109	109	108	107	105	103	101	100	99	97	94	91	87	85	83	82	81	79	77	75	74	72	71	70	70	69	67	66	64	62	59	57	55	53	52	51	49	47	45	43	40	39	38	37	36	35	35	35	34	32	30	28	25	22	20	17	15	15	16	14	13	11	8	5	4	3	2	1	0	0	0	0	0	0	0	0	0	0	0	0	0	0	0	0	0	0	0	1	1	2	3	4	5	5	5	5	5	4	6	10	12	14	14	14	14	11	7	4	2	1	1	1	1	1	1	1	1	1	1	2	1	1	1	1	1	1	1	2	4	6	12	21	22	21	22	24	27	28	30	33	35	37	39	41	42	43	44	45	46	49	51	52	54	55	57	59	61	62	63	64	66	68	70	72	74	75	76	78	80	81	83	84	85	86	88	90	92	93	95	98	100	103	105	107	109	110	112	113	115	117	119	122	124	126	128	131	132	133	134	136	138	139	141	142	143	144	145	145	145	145	146	147	149	150	151	151	151	150	149	149	149	150	150	151	153	154	154	154	153	152	152	152	152	152	150	149	147	145	141	138	136	134	133	132	131	130	129	126	123	120	116	112	108	106	103	100	97	94	91	89
166	164	163	161	160	159	158	158	157	155	153	150	148	147	145	144	143	143	143	144	146	148	150	153	155	158	161	162	162	160	158	156	154	151	148	147	145	144	142	140	139	140	142	143	144	144	144	143	142	140	139	139	140	140	138	136	134	131	127	124	121	119	119	120	122	123	122	121	120	121	121	121	121	122	123	124	125	126	126	124	122	121	122	124	125	126	126	126	127	128	129	131	133	134	134	134	133	132	130	129	127	126	125	125	125	125	125	125	125	125	124	123	123	122	121	120	119	118	118	119	120	120	121	123	126	129	130	132	134	135	137	139	140	141	143	144	145	146	147	148	150	152	154	157	159	161	162	163	163	164	165	167	168	169	170	170	171	172	173	172	173	174	175	177	179	180	181	183	184	185	187	189	192	193	195	196	196	197	196	196	196	196	197	198	199	199	199	198	197	197	197	197	197	198	199	200	200	200	200	199	198	197	195	194	192	190	189	188	187	185	184	183	182	181	181	180	178	175	170	165	161	158	155	152	149	147	144	142	140	138	136	134	132	130	128	126	124	122	119	118	116	114	112	110	108	105	103	100	97	95	93	91	89	88	88	87	86	85	84	83	82	80	78	76	75	74	73	72	70	67	65	62	60	58	56	54	52	50	48	46	43	41	38	36	35	33	32	31	30	29	28	28	28	29	30	32	33	33	34	34	34	35	36	37	38	38	39	39	41	42	39	40	41	40	38	38	39	38	38	38	37	36	34	32	31	30	28	26	25	23	21	19	18	16	15	13	10	7	5	3	2	1	0	0	0	0	0	0	0	0	0	0	0	0	0	0	0	0	0	0	0	0	0	0	0	0	0	0	0	0	0	0	0	0	0	0	0	0	0	0	0	0	0	0	0	0	0	0	0	0	0	0	0	0	0	0	0	0	0	0	0	0	0	0	0	0	0	0	0	0	0	0	0	0	0	0	0	0	0	0	0	0	0	0	0	0	0	0	0	0	0	0	0	0	0	0	0	0	0	0	0	0	0	0	0	0	0	0	0	0	0	0	0	0	0	0	0	0	0	0	0	0	0	0	0	0	0	0	0	0	0	0	0	0	0	0	0	0	0	0	0	0	0	0	0	0	0	0	0	0	0	0	0	0	0	0	0	0	0	0	0	0	0	0	0	0	0	0	0	0	0	0	0	0	0	0	0	0	0	0	0	0	0	0	0	0	0	0	0	0	0	0	0	0	0	0	0	0	0	0	0	0	0	0	0	0	0	0	0	0	0	0	0	0	0	0	0	0	0	0	0	0	0	0	0	0	0	0	0	0	0	0	0	0	0	0	0	0	0	0	0	0	0	0	0	0	0	0	0	0	0	0	0	0	0	0	0	0	0	0	1	2	3	3	4	6	9	11	12	13	14	15	15	16	17	19	20	22	23	25	27	28	29	31	33	34	35	35	36	35	34	34	35	35	36	37	38	39	41	42	43	45	47	48	51	54	56	57	58	59	60	60	58	57	57	57	58	58	57	57	58	58	57	56	55	53	52	52	51	51	50	50	49	49	50	50	49	49	50	51	52	53	53	54	56	57	58	60	63	65	68	70	71	71	72	73	74	75	76	77	78	79	80	83	85	87	89	92	94	97	99	101	103	104	105	105	105	107	109	110	110	110	111	112	113	114	115	116	116	115	115	114	114	115	115	114	113	113	112	111	111	110	110	109	107	105	103	101	100	98	95	92	89	86	84	83	81	79	78	76	75	74	73	72	71	70	69	67	64	62	60	58	56	55	53	52	51	49	46	44	42	40	39	38	37	35	34	33	33	31	29	28	26	24	22	20	17	16	13	12	13	13	9	6	5	4	2	1	0	0	0	0	0	0	0	0	0	0	0	0	0	0	0	0	0	0	1	1	1	2	3	4	5	6	6	6	6	6	8	11	13	13	13	11	10	7	4	2	1	1	1	1	1	1	1	1	1	1	1	2	1	1	1	1	1	1	1	2	5	8	16	20	21	21	23	25	28	30	32	34	36	39	40	42	43	44	45	46	48	50	52	54	53	54	58	60	62	63	64	66	68	69	71	73	74	76	77	79	80	82	83	85	86	88	90	92	94	95	97	99	101	103	105	108	111	112	114	115	117	119	121	122	125	127	130	132	133	134	136	138	140	142	143	144	144	145	145	146	147	147	148	150	151	153	153	154	153	152	152	151	152	152	153	153	155	156	156	155	155	154	154	153	153	153	152	150	148	146	142	140	138	137	136	135	133	132	130	127	125	121	117	113	109	107	104	101	99	96	93	90
164	163	162	160	158	157	157	157	156	154	152	150	148	146	145	143	142	142	142	144	146	148	151	153	155	158	160	161	161	160	158	156	154	151	149	147	145	144	141	139	137	138	140	142	142	142	141	141	139	137	135	134	136	136	134	132	129	126	123	119	117	116	115	115	118	119	117	117	117	118	118	118	118	119	120	121	121	123	123	121	119	118	120	122	124	125	124	124	124	125	127	129	131	133	134	134	133	131	130	129	127	126	126	126	126	126	126	126	126	126	125	125	124	123	122	120	119	118	118	120	121	121	123	126	128	130	132	133	135	136	137	139	140	141	143	144	145	147	147	149	150	153	156	159	161	163	164	165	165	165	166	167	168	169	170	171	172	173	174	174	174	175	177	179	181	182	183	185	187	187	188	190	193	194	196	196	197	197	197	197	197	197	198	199	200	200	199	199	198	197	196	196	196	197	198	198	198	198	197	196	195	193	192	190	189	188	186	185	184	183	181	180	179	179	178	177	174	170	166	162	158	155	152	149	147	144	141	139	137	134	132	131	130	128	125	123	121	119	117	115	113	111	109	107	105	103	101	98	95	93	90	89	87	85	84	83	82	82	81	81	80	78	76	74	73	72	71	69	67	65	63	61	59	57	55	53	51	49	47	45	43	40	38	36	34	32	31	31	30	29	29	28	28	30	32	33	34	34	34	34	34	35	37	38	37	37	38	39	42	47	46	41	41	41	38	38	39	38	38	38	37	36	34	32	30	29	28	26	24	23	21	18	16	15	13	11	9	7	5	3	2	0	0	0	0	0	0	0	0	0	0	0	0	0	0	0	0	0	0	0	0	0	0	0	0	0	0	0	0	0	0	0	0	0	0	0	0	0	0	0	0	0	0	0	0	0	0	0	0	0	0	0	0	0	0	0	0	0	0	0	0	0	0	0	0	0	0	0	0	0	0	0	0	0	0	0	0	0	0	0	0	0	0	0	0	0	0	0	0	0	0	0	0	0	0	0	0	0	0	0	0	0	0	0	0	0	0	0	0	0	0	0	0	0	0	0	0	0	0	0	0	0	0	0	0	0	0	0	0	0	0	0	0	0	0	0	0	0	0	0	0	0	0	0	0	0	0	0	0	0	0	0	0	0	0	0	0	0	0	0	0	0	0	0	0	0	0	0	0	0	0	0	0	0	0	0	0	0	0	0	0	0	0	0	0	0	0	0	0	0	0	0	0	0	0	0	0	0	0	0	0	0	0	0	0	0	0	0	0	0	0	0	0	0	0	0	0	0	0	0	0	0	0	0	0	0	0	0	0	0	0	0	0	0	0	0	0	0	0	0	0	0	0	0	0	0	0	0	0	0	0	0	0	0	0	0	0	0	0	0	0	1	2	3	3	5	8	10	11	12	13	14	14	15	16	17	19	20	22	23	25	26	28	29	31	33	34	34	34	34	33	32	33	33	34	36	37	38	39	41	41	44	45	47	49	52	54	55	56	56	57	57	55	54	54	55	56	56	55	55	54	54	55	54	52	51	49	48	48	47	46	46	46	46	46	47	47	47	48	49	50	51	51	53	55	57	59	61	64	67	69	71	72	73	73	73	74	75	76	77	78	79	80	82	85	87	90	92	95	98	101	102	104	105	106	107	107	108	110	112	112	112	113	114	115	116	117	118	117	117	116	116	116	117	117	116	115	114	113	113	113	112	112	111	109	107	105	103	101	99	96	93	90	87	85	83	82	80	78	77	76	75	74	73	72	71	69	67	65	63	61	59	57	56	54	53	52	50	48	46	43	42	41	39	37	34	32	32	32	30	29	29	28	26	24	22	19	17	14	12	12	12	10	7	6	4	3	1	0	0	0	0	0	0	0	0	0	0	0	0	0	0	0	0	0	0	1	1	2	3	5	7	8	8	9	10	10	10	11	11	12	12	9	5	4	3	1	1	0	1	1	1	1	1	1	1	1	1	1	2	1	1	1	1	1	1	2	3	5	12	22	21	20	21	23	26	28	30	33	35	38	39	41	43	44	45	46	47	49	51	53	55	55	57	60	62	63	64	66	67	69	71	72	74	75	77	78	80	81	82	84	86	88	90	91	93	96	98	100	101	102	104	106	109	111	114	116	118	119	121	122	124	126	128	131	133	135	136	138	140	143	144	145	145	145	146	146	148	149	150	151	152	153	154	156	156	156	155	154	154	154	155	155	156	157	158	158	157	156	156	156	155	155	155	154	152	150	147	144	142	141	140	138	137	135	134	132	129	125	122	118	114	111	108	106	103	101	98	95	91
162	161	160	158	156	156	155	155	154	153	151	150	148	146	144	143	141	141	142	144	146	148	150	153	155	158	160	161	161	160	158	156	153	151	149	147	145	144	141	139	136	136	137	139	139	139	138	138	136	134	131	130	131	131	129	127	124	121	118	115	114	113	112	111	112	113	112	113	115	116	116	115	115	115	117	117	118	119	119	118	116	116	117	119	121	121	121	121	122	123	125	128	131	132	133	133	132	131	130	128	127	126	126	126	126	126	126	126	127	127	126	126	125	124	121	119	118	118	119	121	122	123	125	128	131	133	134	135	136	137	138	139	140	141	142	144	145	147	148	149	151	154	157	161	163	164	165	166	166	166	166	167	168	169	171	172	173	174	175	176	176	177	178	181	182	184	185	187	188	189	190	192	194	196	197	197	197	198	198	197	197	198	199	200	201	201	200	199	198	196	194	194	194	195	195	195	195	194	194	192	191	190	188	187	186	185	183	181	180	180	178	177	176	176	175	174	171	168	164	160	156	152	149	147	144	141	138	136	134	131	129	127	127	126	123	120	118	116	115	113	111	109	107	105	103	101	98	96	93	91	88	86	84	83	81	80	79	79	79	78	77	76	74	72	71	70	69	67	65	64	62	60	58	56	54	52	50	48	46	44	42	40	38	36	34	32	31	31	30	29	28	28	29	30	33	34	34	33	34	34	35	36	37	38	39	38	38	38	39	42	40	38	40	40	39	40	39	38	38	38	37	36	34	32	30	28	27	26	24	22	19	17	15	13	11	9	8	7	5	3	1	0	0	0	0	0	0	0	0	0	0	0	0	0	0	0	0	0	0	0	0	0	0	0	0	0	0	0	0	0	0	0	0	0	0	0	0	0	0	0	0	0	0	0	0	0	0	0	0	0	0	0	0	0	0	0	0	0	0	0	0	0	0	0	0	0	0	0	0	0	0	0	0	0	0	0	0	0	0	0	0	0	0	0	0	0	0	0	0	0	0	0	0	0	0	0	0	0	0	0	0	0	0	0	0	0	0	0	0	0	0	0	0	0	0	0	0	0	0	0	0	0	0	0	0	0	0	0	0	0	0	0	0	0	0	0	0	0	0	0	0	0	0	0	0	0	0	0	0	0	0	0	0	0	0	0	0	0	0	0	0	0	0	0	0	0	0	0	0	0	0	0	0	0	0	0	0	0	0	0	0	0	0	0	0	0	0	0	0	0	0	0	0	0	0	0	0	0	0	0	0	0	0	0	0	0	0	0	0	0	0	0	0	0	0	0	0	0	0	0	0	0	0	0	0	0	0	0	0	0	0	0	0	0	0	0	0	0	0	0	0	0	0	0	0	0	0	0	0	0	0	0	0	0	0	0	0	0	0	0	0	1	2	2	3	5	7	9	10	11	12	13	13	14	15	16	17	19	20	22	23	25	27	29	30	32	33	33	32	32	31	31	31	32	33	34	36	37	38	39	40	42	44	46	48	50	52	53	54	54	54	54	53	52	52	53	54	54	53	52	51	51	51	51	49	48	47	46	45	44	44	44	44	44	44	44	45	45	46	47	48	49	50	52	55	57	59	63	65	68	70	72	74	75	74	74	74	75	76	77	78	79	80	82	84	87	90	93	96	99	101	103	104	106	107	108	109	109	111	112	113	114	115	116	116	117	119	119	118	117	117	117	118	119	119	118	116	115	115	114	114	114	113	112	110	109	107	105	102	99	97	93	90	87	85	84	82	81	79	78	77	77	76	74	73	71	70	68	65	64	62	60	59	57	55	54	53	51	49	47	45	43	41	39	37	34	32	32	32	32	31	31	30	28	26	23	21	19	18	15	13	11	10	8	6	5	3	1	1	1	0	0	0	0	0	0	0	0	0	0	0	0	0	0	0	0	1	1	2	4	8	11	11	12	13	14	15	14	13	11	9	7	4	2	2	1	0	0	1	1	1	1	1	1	1	1	1	1	1	2	1	1	1	1	1	1	2	3	6	14	24	21	20	21	23	26	28	30	33	36	38	40	41	43	45	46	47	49	50	52	55	56	57	59	61	63	64	65	67	69	70	72	73	75	76	77	79	81	82	84	86	88	90	92	94	95	98	100	102	103	104	105	107	110	112	115	117	120	122	123	125	126	127	130	132	134	135	137	139	141	144	145	146	147	147	147	148	150	152	153	153	154	155	156	157	158	158	157	156	156	157	158	158	158	158	159	159	158	158	157	157	157	157	157	156	154	151	148	145	145	144	143	141	139	137	135	133	130	126	123	119	116	113	111	108	105	103	100	97	93
161	159	157	155	154	154	153	153	152	151	151	150	148	145	143	142	141	140	141	143	145	147	149	151	154	157	159	160	160	159	156	154	151	149	148	147	145	143	141	139	136	134	134	135	136	136	135	135	133	130	127	125	124	125	124	121	118	115	113	112	111	111	109	108	108	109	109	110	112	113	113	112	112	112	114	114	115	116	117	116	115	115	115	116	117	118	118	119	120	123	125	128	131	132	132	132	132	131	130	129	127	126	126	126	126	126	126	127	127	128	127	127	126	123	120	118	119	119	120	122	123	124	127	131	133	135	135	136	137	138	139	140	141	142	143	144	145	147	148	150	153	156	159	161	163	165	165	166	166	166	167	167	168	169	171	172	174	175	177	178	178	179	180	182	184	185	187	188	190	191	193	194	196	197	197	198	198	198	198	198	197	198	199	200	201	201	200	199	196	194	193	192	192	192	192	191	192	191	190	189	188	187	185	184	183	181	178	176	176	176	175	173	172	172	171	170	168	166	163	158	153	149	146	143	140	137	135	133	131	129	126	125	124	123	121	118	116	114	112	111	109	107	105	103	101	99	97	94	92	89	86	84	82	81	79	78	77	77	76	76	75	74	72	71	69	68	67	65	64	62	61	59	58	55	53	51	49	48	46	45	43	40	38	36	34	33	31	30	29	29	28	29	29	31	33	34	34	34	34	35	36	36	35	37	38	35	37	38	37	36	35	36	38	38	41	42	39	38	38	37	36	35	33	31	29	28	26	25	23	20	18	16	13	10	8	7	6	5	4	2	1	0	0	0	0	0	0	0	0	0	0	0	0	0	0	0	0	0	0	0	0	0	0	0	0	0	0	0	0	0	0	0	0	0	0	0	0	0	0	0	0	0	0	0	0	0	0	0	0	0	0	0	0	0	0	0	0	0	0	0	0	0	0	0	0	0	0	0	0	0	0	0	0	0	0	0	0	0	0	0	0	0	0	0	0	0	0	0	0	0	0	0	0	0	0	0	0	0	0	0	0	0	0	0	0	0	0	0	0	0	0	0	0	0	0	0	0	0	0	0	0	0	0	0	0	0	0	0	0	0	0	0	0	0	0	0	0	0	0	0	0	0	0	0	0	0	0	0	0	0	0	0	0	0	0	0	0	0	0	0	0	0	0	0	0	0	0	0	0	0	0	0	0	0	0	0	0	0	0	0	0	0	0	0	0	0	0	0	0	0	0	0	0	0	0	0	0	0	0	0	0	0	0	0	0	0	0	0	0	0	0	0	0	0	0	0	0	0	0	0	0	0	0	0	0	0	0	0	0	0	0	0	0	0	0	0	0	0	0	0	0	0	0	0	0	0	0	0	0	0	0	0	0	0	0	0	0	0	0	0	0	1	2	2	3	4	7	9	10	10	11	11	12	13	14	15	16	18	19	21	22	24	27	28	30	31	31	31	30	30	30	30	30	30	31	33	34	35	36	37	39	41	43	45	47	48	50	51	52	52	53	52	51	51	50	51	51	51	50	49	48	47	47	47	46	45	44	43	42	42	42	42	42	42	42	43	43	44	45	46	47	49	51	53	55	57	60	63	66	69	72	74	75	76	76	75	75	75	76	77	78	79	80	82	84	87	90	93	95	99	101	103	105	106	108	109	110	111	112	113	114	116	117	118	118	119	121	121	120	119	119	119	120	120	120	119	117	116	116	116	115	115	114	113	112	110	108	105	102	100	97	93	90	88	86	85	83	82	80	79	78	78	77	75	73	72	70	68	66	65	64	62	60	59	57	55	53	52	50	47	45	43	41	39	36	34	33	33	33	34	33	32	31	29	28	25	23	22	21	19	15	13	11	10	8	6	3	1	1	1	1	1	0	0	0	0	0	0	0	0	0	0	0	0	0	1	1	1	2	6	11	13	13	14	15	16	16	15	13	10	6	3	2	1	1	1	1	0	1	1	1	1	1	1	1	1	1	2	2	3	2	1	1	1	1	1	2	3	7	13	18	19	20	21	23	26	28	30	34	36	39	40	42	43	45	47	48	50	51	54	56	57	58	60	62	64	65	66	67	69	71	73	75	76	77	78	80	81	83	86	88	90	92	94	96	97	99	101	103	105	106	107	109	111	113	115	118	121	124	126	127	128	130	132	134	135	136	138	140	143	145	146	147	148	149	149	150	152	154	155	156	156	157	157	158	159	159	158	158	158	159	160	160	160	160	160	160	160	159	159	159	159	159	158	157	155	152	149	147	147	147	145	143	140	138	136	133	130	127	123	121	118	115	112	110	107	104	101	97	93
160	158	155	153	152	152	151	151	150	150	150	149	147	145	143	141	140	140	140	142	144	146	148	151	153	155	157	158	159	157	154	152	150	148	146	145	144	143	141	139	135	133	131	132	132	132	132	130	128	125	122	120	119	119	118	116	113	111	110	109	108	107	106	105	105	105	106	107	108	109	109	109	109	110	111	112	113	114	114	114	114	113	113	114	115	116	117	119	121	123	126	129	131	132	132	132	131	131	130	128	127	126	125	125	125	126	127	127	128	128	128	127	125	122	120	119	120	121	122	123	124	126	130	133	135	136	137	137	138	139	140	141	142	143	144	145	146	148	149	151	154	157	160	162	163	165	166	166	167	167	168	168	169	170	171	173	175	177	179	180	181	181	182	183	185	187	188	190	191	193	195	196	197	198	198	198	198	198	198	197	197	198	199	200	200	200	199	197	194	192	191	189	188	188	187	187	188	187	187	186	185	183	182	181	180	177	174	172	172	171	170	169	168	167	166	165	164	162	160	155	150	147	143	139	135	133	131	130	128	126	124	122	121	120	119	117	115	112	110	109	108	106	103	101	99	96	94	92	90	87	85	83	80	79	77	76	75	74	74	73	73	72	71	69	68	67	65	64	62	61	60	59	57	55	53	51	49	48	47	45	43	40	38	36	34	33	31	30	29	28	28	29	30	31	33	34	34	33	33	34	35	34	31	32	31	32	35	37	36	36	36	37	37	37	38	40	38	37	37	37	35	34	32	30	28	27	25	24	22	19	16	13	9	6	5	5	5	4	3	1	0	0	0	0	0	0	0	0	0	0	0	0	0	0	0	0	0	0	0	0	0	0	0	0	0	0	0	0	0	0	0	0	0	0	0	0	0	0	0	0	0	0	0	0	0	0	0	0	0	0	0	0	0	0	0	0	0	0	0	0	0	0	0	0	0	0	0	0	0	0	0	0	0	0	0	0	0	0	0	0	0	0	0	0	0	0	0	0	0	0	0	0	0	0	0	0	0	0	0	0	0	0	0	0	0	0	0	0	0	0	0	0	0	0	0	0	0	0	0	0	0	0	0	0	0	0	0	0	0	0	0	0	0	0	0	0	0	0	0	0	0	0	0	0	0	0	0	0	0	0	0	0	0	0	0	0	0	0	0	0	0	0	0	0	0	0	0	0	0	0	0	0	0	0	0	0	0	0	0	0	0	0	0	0	0	0	0	0	0	0	0	0	0	0	0	0	0	0	0	0	0	0	0	0	0	0	0	0	0	0	0	0	0	0	0	0	0	0	0	0	0	0	0	0	0	0	0	0	0	0	0	0	0	0	0	0	0	0	0	0	0	0	0	0	0	0	0	0	0	0	0	0	0	0	0	0	0	0	0	0	0	1	2	2	3	5	7	9	10	10	10	10	11	12	13	14	15	17	18	20	21	22	25	27	28	29	29	29	29	28	28	29	29	29	30	32	33	34	34	36	38	41	42	44	45	46	47	48	49	50	51	51	50	49	49	48	49	49	48	47	46	44	43	44	43	42	41	40	39	39	39	39	39	40	41	41	42	42	44	45	47	49	51	53	55	58	61	64	68	72	74	75	77	78	78	77	76	76	76	77	79	79	80	82	84	87	90	93	95	98	101	103	105	107	109	110	111	112	113	114	115	117	119	119	120	121	122	123	122	121	121	121	121	121	121	120	118	118	118	118	117	116	115	114	112	110	107	104	102	99	96	94	91	89	88	86	84	83	82	81	80	80	78	76	75	73	71	70	68	67	66	64	62	60	58	56	54	52	50	48	46	43	41	39	37	35	34	33	34	34	34	33	32	30	29	27	26	24	22	19	17	14	12	11	9	7	4	2	1	1	1	1	0	0	0	0	0	0	0	0	0	0	0	1	1	1	1	1	2	6	11	13	14	15	15	15	16	15	13	8	4	2	2	1	1	1	1	1	1	1	1	1	1	1	1	1	1	1	2	3	2	1	1	1	1	2	2	4	9	14	17	19	21	22	24	26	28	30	34	37	39	41	42	44	45	47	48	50	52	55	57	58	60	62	63	65	66	67	69	71	73	74	76	77	79	80	81	83	85	87	90	92	95	97	98	100	101	103	104	106	107	109	111	112	114	116	119	122	126	128	130	131	133	135	136	137	138	139	141	144	146	148	149	150	150	151	152	154	155	157	158	159	159	159	160	160	160	160	159	160	161	162	162	162	162	162	162	162	161	160	160	160	160	159	158	155	152	150	149	149	148	147	145	142	139	136	133	129	127	124	121	119	117	114	111	108	105	101	98	93
159	157	154	152	150	150	150	149	149	149	149	148	147	144	142	141	140	139	140	142	144	146	148	150	152	154	156	157	157	156	153	150	148	146	144	144	143	142	140	138	135	132	130	129	127	127	126	125	123	120	119	118	116	115	113	111	109	108	107	106	104	103	102	101	101	101	102	103	104	105	106	107	108	108	109	110	112	113	113	113	112	112	111	112	113	114	116	119	121	124	127	130	132	132	132	132	131	131	129	128	126	125	125	125	125	126	127	127	128	128	128	127	125	122	120	121	121	122	123	124	125	128	132	135	137	138	138	138	138	139	140	142	143	144	145	146	147	149	150	153	155	158	161	162	164	165	166	167	168	169	169	170	170	170	172	174	177	179	181	182	183	183	183	185	187	189	190	191	193	194	196	197	197	198	198	198	199	198	197	197	196	197	198	199	199	198	196	194	192	190	188	186	185	184	183	183	183	183	183	182	181	180	179	178	176	174	171	169	168	166	165	164	163	162	161	161	160	158	155	151	147	144	139	135	132	130	128	126	124	123	122	120	119	118	116	115	113	111	109	107	105	104	101	99	96	94	92	90	88	85	83	81	79	77	75	73	72	71	71	71	71	71	69	68	67	67	65	63	62	60	59	58	56	54	53	51	50	48	46	44	42	40	38	36	34	32	31	30	29	28	28	29	29	31	33	34	34	33	33	34	35	35	35	34	31	32	35	37	36	36	36	37	37	36	36	37	37	37	36	35	34	32	30	29	28	26	24	23	21	18	15	9	5	4	3	4	3	2	1	0	0	0	0	0	0	0	0	0	0	0	0	0	0	0	0	0	0	0	0	0	0	0	0	0	0	0	0	0	0	0	0	0	0	0	0	0	0	0	0	0	0	0	0	0	0	0	0	0	0	0	0	0	0	0	0	0	0	0	0	0	0	0	0	0	0	0	0	0	0	0	0	0	0	0	0	0	0	0	0	0	0	0	0	0	0	0	0	0	0	0	0	0	0	0	0	0	0	0	0	0	0	0	0	0	0	0	0	0	0	0	0	0	0	0	0	0	0	0	0	0	0	0	0	0	0	0	0	0	0	0	0	0	0	0	0	0	0	0	0	0	0	0	0	0	0	0	0	0	0	0	0	0	0	0	0	0	0	0	0	0	0	0	0	0	0	0	0	0	0	0	0	0	0	0	0	0	0	0	0	0	0	0	0	0	0	0	0	0	0	0	0	0	0	0	0	0	0	0	0	0	0	0	0	0	0	0	0	0	0	0	0	0	0	0	0	0	0	0	0	0	0	0	0	0	0	0	0	0	0	0	0	0	0	0	0	0	0	0	0	0	0	0	0	0	0	0	0	0	0	0	0	0	0	0	0	0	0	0	0	0	1	2	2	2	4	6	8	9	10	10	10	10	11	12	12	13	15	16	17	18	19	20	22	25	27	28	28	28	28	28	28	28	28	28	29	30	31	32	33	35	38	40	41	42	43	44	45	46	47	48	50	50	49	48	47	46	46	47	46	45	43	41	40	41	40	39	38	38	37	37	37	36	36	37	39	40	40	41	42	45	47	50	52	53	55	59	62	65	70	74	76	77	79	80	80	80	78	77	77	77	79	79	80	82	85	88	91	93	95	97	100	102	104	107	109	111	112	113	114	115	116	118	119	120	121	122	123	124	124	123	123	123	123	124	123	122	120	119	119	119	119	118	116	113	111	108	106	103	101	100	97	95	93	92	90	88	86	84	83	83	82	82	80	78	76	75	73	72	71	69	68	67	65	62	60	58	56	54	52	50	47	44	42	40	39	37	35	34	34	34	34	34	32	31	30	29	28	25	23	20	19	15	12	11	10	8	6	3	2	2	1	1	1	0	0	0	0	0	0	0	0	0	1	1	1	2	2	2	2	5	11	14	14	15	15	15	15	14	11	6	3	2	1	1	1	1	1	1	1	1	1	1	1	1	1	1	1	1	2	3	2	1	1	1	1	2	3	5	11	15	18	20	22	23	25	27	28	30	34	38	40	42	43	44	45	47	48	51	53	56	58	59	61	63	65	67	68	69	70	72	74	76	77	78	81	82	83	84	87	89	92	94	97	99	101	102	104	105	106	107	108	111	114	115	116	118	121	124	127	130	132	134	135	137	139	139	140	140	142	145	147	149	151	151	152	153	154	156	157	159	160	162	163	162	162	162	161	161	161	162	163	164	164	164	164	164	164	164	163	162	162	161	161	160	158	156	153	151	151	151	150	148	145	143	139	135	132	129	127	124	121	120	118	114	111	108	105	102	98	93
158	156	153	150	149	148	148	147	147	147	147	147	146	144	142	141	140	139	139	141	143	145	147	149	150	152	153	155	155	154	152	149	146	144	142	141	140	139	138	136	134	131	128	125	123	122	120	120	119	118	117	115	113	111	110	108	107	105	104	103	102	101	100	99	99	99	100	101	102	103	104	105	106	106	107	108	110	111	111	111	111	110	110	111	113	114	116	119	122	125	129	131	133	133	134	133	132	131	129	127	125	124	124	124	124	125	126	127	128	128	128	127	124	121	120	121	122	123	125	126	127	130	134	136	138	139	140	140	139	140	141	142	144	144	146	148	149	151	152	154	157	159	162	163	164	165	166	168	169	170	171	171	171	172	173	176	178	181	183	184	185	185	185	187	189	191	193	193	194	195	196	197	198	198	198	198	198	198	197	196	195	196	197	198	197	196	193	191	189	187	185	183	182	181	180	179	179	179	178	178	177	177	175	174	173	171	168	166	165	163	162	161	160	158	157	157	156	154	151	148	145	141	136	132	129	127	125	124	122	121	120	119	117	115	114	113	111	109	107	105	103	102	99	97	94	92	90	88	86	84	82	79	77	75	73	71	70	68	68	69	69	69	68	67	67	66	65	63	62	60	59	58	56	54	53	51	50	48	46	44	42	39	37	35	33	32	31	30	29	29	28	29	29	31	32	34	34	34	34	35	35	35	36	38	37	39	38	36	37	37	36	35	36	37	37	37	36	36	35	34	32	30	29	27	26	25	23	21	19	17	13	7	3	3	3	3	2	1	0	0	0	0	0	0	0	0	0	0	0	0	0	0	0	0	0	0	0	0	0	0	0	0	0	0	0	0	0	0	0	0	0	0	0	0	0	0	0	0	0	0	0	0	0	0	0	0	0	0	0	0	0	0	0	0	0	0	0	0	0	0	0	0	0	0	0	0	0	0	0	0	0	0	0	0	0	0	0	0	0	0	0	0	0	0	0	0	0	0	0	0	0	0	0	0	0	0	0	0	0	0	0	0	0	0	0	0	0	0	0	0	0	0	0	0	0	0	0	0	0	0	0	0	0	0	0	0	0	0	0	0	0	0	0	0	0	0	0	0	0	0	0	0	0	0	0	0	0	0	0	0	0	0	0	0	0	0	0	0	0	0	0	0	0	0	0	0	0	0	0	0	0	0	0	0	0	0	0	0	0	0	0	0	0	0	0	0	0	0	0	0	0	0	0	0	0	0	0	0	0	0	0	0	0	0	0	0	0	0	0	0	0	0	0	0	0	0	0	0	0	0	0	0	0	0	0	0	0	0	0	0	0	0	0	0	0	0	0	0	0	0	0	0	0	0	0	0	0	0	0	0	0	0	0	0	0	0	0	0	0	1	2	2	2	3	4	7	9	10	10	10	10	10	10	11	12	13	14	15	16	17	18	19	21	23	25	26	27	27	27	27	27	27	27	27	29	29	30	31	33	34	36	38	39	40	41	43	44	45	46	47	48	48	47	46	44	43	44	44	44	43	41	39	38	38	37	36	36	35	35	35	34	34	35	36	37	38	38	40	42	45	48	50	52	53	56	60	64	66	70	73	76	78	80	82	82	81	80	79	77	77	78	79	80	82	85	88	91	93	95	97	99	101	104	107	109	111	112	114	115	116	117	118	119	121	122	123	124	125	125	125	124	124	125	125	124	123	121	120	120	119	119	118	115	112	110	108	106	104	102	101	100	98	96	94	92	90	87	86	85	85	84	83	81	79	78	77	76	75	73	72	70	69	67	64	62	59	57	55	53	51	48	46	44	42	40	38	37	36	35	35	35	34	33	32	32	31	29	27	25	23	21	16	12	11	10	9	6	4	3	3	2	1	1	0	0	0	0	0	0	0	0	1	1	1	2	2	2	2	3	7	12	14	13	14	15	14	13	11	7	3	2	1	1	1	2	1	1	1	1	1	1	1	1	1	1	1	1	1	1	1	1	1	1	1	1	2	3	6	12	15	19	21	23	25	26	27	29	31	34	37	40	42	43	44	46	47	49	51	54	56	58	60	62	64	67	69	71	71	72	74	75	77	78	79	82	84	85	87	89	91	93	96	98	101	103	105	107	108	109	110	112	114	117	118	119	121	123	125	128	131	133	136	138	140	141	142	142	142	143	146	148	150	152	152	153	155	157	158	160	161	162	164	165	165	164	163	163	163	163	164	165	165	166	165	165	165	166	165	165	164	163	162	161	160	159	156	154	153	152	152	150	147	145	142	138	134	131	128	126	124	121	119	117	115	112	109	107	103	99	93
157	154	151	149	147	146	145	145	145	145	146	145	145	144	142	140	139	138	139	140	142	144	146	148	149	150	151	152	152	151	149	147	145	143	141	139	137	136	135	134	133	131	127	123	120	119	117	117	116	115	114	112	109	108	106	105	104	102	102	101	100	100	100	100	100	99	100	101	101	101	103	104	104	105	105	106	108	109	110	110	110	109	109	111	113	114	117	120	122	126	129	132	134	135	135	134	133	131	129	126	124	123	123	123	123	125	126	126	127	128	127	126	123	121	120	122	124	125	126	127	129	132	135	137	139	140	141	141	140	140	141	142	144	145	147	149	151	153	155	156	158	160	162	164	165	166	167	169	170	171	172	172	172	173	175	177	180	183	185	187	188	188	187	188	190	193	194	195	195	196	197	198	198	198	198	197	197	196	195	194	194	194	195	196	195	193	191	188	186	184	182	180	179	177	177	176	176	175	175	175	174	173	172	171	169	166	164	163	162	160	159	158	157	155	154	153	152	149	147	144	141	138	134	130	126	124	123	121	119	118	118	117	115	113	112	111	109	108	105	103	101	99	97	95	92	90	88	86	84	82	80	78	76	74	72	70	68	66	66	66	67	67	66	66	65	65	64	63	61	60	59	58	56	54	53	51	49	48	46	43	41	39	37	35	33	31	31	30	29	29	28	29	30	31	32	33	34	35	34	34	35	35	36	38	39	41	38	36	36	36	35	35	36	36	36	36	35	34	33	32	30	29	27	26	24	23	22	20	19	16	11	5	3	2	2	1	1	0	0	0	0	0	0	0	0	0	0	0	0	0	0	0	0	0	0	0	0	0	0	0	0	0	0	0	0	0	0	0	0	0	0	0	0	0	0	0	0	0	0	0	0	0	0	0	0	0	0	0	0	0	0	0	0	0	0	0	0	0	0	0	0	0	0	0	0	0	0	0	0	0	0	0	0	0	0	0	0	0	0	0	0	0	0	0	0	0	0	0	0	0	0	0	0	0	0	0	0	0	0	0	0	0	0	0	0	0	0	0	0	0	0	0	0	0	0	0	0	0	0	0	0	0	0	0	0	0	0	0	0	0	0	0	0	0	0	0	0	0	0	0	0	0	0	0	0	0	0	0	0	0	0	0	0	0	0	0	0	0	0	0	0	0	0	0	0	0	0	0	0	0	0	0	0	0	0	0	0	0	0	0	0	0	0	0	0	0	0	0	0	0	0	0	0	0	0	0	0	0	0	0	0	0	0	0	0	0	0	0	0	0	0	0	0	0	0	0	0	0	0	0	0	0	0	0	0	0	0	0	0	0	0	0	0	0	0	0	0	0	0	0	0	0	0	0	0	0	0	0	0	0	0	0	0	0	0	0	0	0	1	1	2	2	3	3	5	7	9	10	10	10	10	10	10	10	11	12	13	14	15	16	18	19	20	22	24	25	26	26	26	26	26	26	26	27	28	29	30	31	32	33	35	35	37	39	40	41	43	44	45	45	46	46	46	44	42	40	40	41	41	40	38	36	35	34	33	33	33	33	32	32	32	33	33	34	35	36	37	39	42	45	48	50	52	54	57	61	64	67	70	73	76	79	81	83	83	82	81	79	78	78	78	79	80	82	84	87	90	93	95	97	98	100	103	105	108	110	112	114	115	116	117	118	119	121	122	123	125	125	126	125	125	125	126	125	124	123	121	121	120	119	118	117	115	113	111	110	108	106	105	104	102	100	98	96	93	91	89	88	87	87	86	84	83	82	81	80	79	78	77	75	73	71	69	66	63	61	59	57	55	53	50	48	45	44	42	40	38	38	38	37	36	34	33	33	32	32	30	29	27	25	23	17	12	11	11	8	6	4	3	3	2	1	0	0	0	0	0	0	0	0	0	1	1	2	2	3	3	3	5	9	13	13	12	13	13	13	10	7	3	2	1	1	1	1	3	2	1	1	1	1	1	1	1	2	1	1	1	1	1	1	1	1	1	1	1	2	3	7	15	17	20	22	24	26	27	28	30	31	34	36	39	41	43	44	46	48	50	52	54	56	57	60	63	66	69	72	73	73	74	75	76	78	79	80	82	85	87	88	90	93	95	97	100	102	105	107	110	112	113	114	115	117	119	121	123	124	125	127	130	132	134	137	140	142	143	143	143	143	144	146	148	150	152	154	155	157	159	160	162	162	164	165	167	167	167	166	165	165	165	166	166	167	167	167	167	167	167	167	167	166	164	163	161	160	158	157	155	154	153	151	149	146	143	140	136	132	129	127	125	123	121	118	117	115	112	110	107	104	100	94
154	152	149	147	145	144	143	143	143	143	144	145	144	143	141	140	138	138	138	139	141	143	145	147	148	149	149	150	149	148	147	145	143	142	139	136	134	132	131	131	131	129	126	123	119	117	116	114	112	111	110	107	106	104	102	101	100	99	98	98	98	100	101	102	101	101	101	102	102	102	102	103	103	103	104	105	106	108	109	109	109	108	109	111	113	115	118	121	124	127	130	133	135	136	136	135	133	131	129	126	124	123	122	122	123	125	126	126	127	127	126	125	122	120	120	122	125	127	128	128	130	134	136	138	140	141	141	141	141	141	142	143	144	146	148	150	152	155	157	158	159	161	163	165	166	168	169	170	171	173	174	174	174	175	176	178	181	184	187	189	190	190	189	190	191	193	195	196	196	197	197	198	198	198	197	197	196	195	194	193	192	192	193	193	193	191	188	186	183	181	179	177	175	175	174	174	173	173	172	172	171	170	169	167	165	162	160	159	159	157	156	155	153	151	150	149	148	145	143	141	138	135	131	127	123	121	120	118	117	116	116	116	114	112	110	108	107	106	104	102	99	97	95	93	90	88	85	83	82	80	78	76	74	72	70	69	67	65	64	64	64	64	64	63	64	64	63	62	60	59	58	57	56	54	53	51	49	47	45	43	41	38	36	34	32	31	30	30	29	29	28	29	30	31	32	33	35	35	33	33	34	35	36	37	36	38	38	36	36	35	35	34	34	33	33	33	33	32	31	29	28	26	25	24	23	22	20	19	17	15	9	5	3	1	1	0	0	0	0	0	0	0	0	0	0	0	0	0	0	0	0	0	0	0	0	0	0	0	0	0	0	0	0	0	0	0	0	0	0	0	0	0	0	0	0	0	0	0	0	0	0	0	0	0	0	0	0	0	0	0	0	0	0	0	0	0	0	0	0	0	0	0	0	0	0	0	0	0	0	0	0	0	0	0	0	0	0	0	0	0	0	0	0	0	0	0	0	0	0	0	0	0	0	0	0	0	0	0	0	0	0	0	0	0	0	0	0	0	0	0	0	0	0	0	0	0	0	0	0	0	0	0	0	0	0	0	0	0	0	0	0	0	0	0	0	0	0	0	0	0	0	0	0	0	0	0	0	0	0	0	0	0	0	0	0	0	0	0	0	0	0	0	0	0	0	0	0	0	0	0	0	0	0	0	0	0	0	0	0	0	0	0	0	0	0	0	0	0	0	0	0	0	0	0	0	0	0	0	0	0	0	0	0	0	0	0	0	0	0	0	0	0	0	0	0	0	0	0	0	0	0	0	0	0	0	0	0	0	0	0	0	0	0	0	0	0	0	0	0	0	0	0	0	0	0	0	0	0	0	0	0	0	0	0	0	0	0	0	1	1	2	2	3	4	6	8	9	9	10	10	10	10	10	10	11	12	13	14	15	16	17	19	20	21	23	24	25	25	25	25	26	26	26	26	28	29	30	31	32	33	34	34	36	37	39	40	41	42	43	43	44	44	43	41	39	38	38	38	38	37	36	34	32	31	31	30	30	30	30	30	31	31	32	33	34	35	37	40	42	45	48	50	51	54	58	62	65	68	71	74	77	80	81	82	83	82	81	80	79	79	79	80	81	83	84	86	89	91	94	96	98	100	102	104	106	109	111	113	114	115	116	118	120	122	123	124	125	126	126	126	126	126	126	126	124	123	122	121	121	120	119	117	116	114	113	112	110	109	108	106	104	102	100	97	95	93	92	90	89	88	87	86	85	84	83	83	82	81	80	77	75	73	70	68	65	63	61	59	57	55	52	50	48	45	43	42	41	40	39	38	36	35	34	33	33	33	32	30	29	26	23	18	12	13	12	8	5	4	3	2	1	1	1	0	0	0	0	0	0	0	1	1	2	2	3	3	3	4	8	12	13	12	11	11	12	11	8	4	2	2	1	1	1	2	4	3	1	1	1	1	1	1	1	1	0	0	0	1	1	1	1	1	1	1	1	2	4	10	20	20	20	22	25	26	27	29	30	32	34	37	39	41	43	45	48	49	51	52	54	55	57	60	64	68	71	73	75	75	75	76	77	79	80	81	82	85	88	90	91	94	96	98	101	104	107	110	112	114	115	117	119	120	122	124	126	126	127	129	131	133	135	138	142	144	145	145	145	145	146	147	149	150	152	155	157	158	160	162	163	164	165	167	168	169	168	168	167	167	167	167	168	168	169	168	168	168	169	169	168	167	165	163	161	160	158	156	155	154	152	150	148	145	142	139	135	131	128	126	123	121	120	118	116	115	112	109	106	104	100	95
153	150	148	146	144	142	140	140	140	141	143	143	143	142	141	139	137	137	137	138	140	142	144	145	146	147	147	146	145	145	144	143	141	139	136	132	129	127	126	127	128	127	125	123	119	116	114	112	109	107	106	104	103	101	99	97	96	95	95	96	99	102	103	103	103	103	104	105	105	104	104	103	103	102	103	104	105	107	107	107	108	108	109	111	114	116	120	123	125	128	131	133	135	136	136	134	132	130	128	126	125	124	123	122	122	124	125	126	126	125	124	123	121	120	121	123	125	127	129	130	132	135	138	139	141	142	142	142	142	142	142	143	145	147	149	151	153	156	158	159	160	162	164	166	167	169	170	172	173	174	176	177	177	178	179	180	183	186	188	189	191	191	191	191	192	193	195	197	197	198	198	197	197	197	197	196	196	195	193	192	191	190	191	190	190	188	185	183	181	178	176	174	173	172	171	170	169	169	169	168	167	167	165	164	162	159	157	156	155	154	153	151	149	147	145	144	143	140	138	137	134	132	129	125	122	119	117	116	114	113	113	113	113	111	108	106	105	103	102	100	98	96	93	91	89	86	83	81	80	78	76	75	73	71	69	68	66	63	62	61	61	61	61	61	61	62	61	60	60	59	58	57	55	54	52	51	49	47	45	42	40	37	36	34	32	31	30	29	29	29	29	29	29	30	32	33	35	35	34	34	36	36	36	37	35	36	38	36	35	34	33	32	31	31	31	31	30	29	28	26	25	24	23	22	20	19	18	17	15	11	7	4	2	1	0	0	0	0	0	0	0	0	0	0	0	0	0	0	0	0	0	0	0	0	0	0	0	0	0	0	0	0	0	0	0	0	0	0	0	0	0	0	0	0	0	0	0	0	0	0	0	0	0	0	0	0	0	0	0	0	0	0	0	0	0	0	0	0	0	0	0	0	0	0	0	0	0	0	0	0	0	0	0	0	0	0	0	0	0	0	0	0	0	0	0	0	0	0	0	0	0	0	0	0	0	0	0	0	0	0	0	0	0	0	0	0	0	0	0	0	0	0	0	0	0	0	0	0	0	0	0	0	0	0	0	0	0	0	0	0	0	0	0	0	0	0	0	0	0	0	0	0	0	0	0	0	0	0	0	0	0	0	0	0	0	0	0	0	0	0	0	0	0	0	0	0	0	0	0	0	0	0	0	0	0	0	0	0	0	0	0	0	0	0	0	0	0	0	0	0	0	0	0	0	0	0	0	0	0	0	0	0	0	0	0	0	0	0	0	0	0	0	0	0	0	0	0	0	0	0	0	0	0	0	0	0	0	0	0	0	0	0	0	0	0	0	0	0	0	0	0	0	0	0	0	0	0	0	0	0	0	0	0	0	0	0	0	0	1	1	2	3	4	5	7	9	9	9	10	10	10	11	11	11	12	12	13	14	15	16	17	18	19	21	22	23	24	25	25	25	25	25	25	26	28	29	30	31	31	32	33	33	35	36	38	39	40	41	42	42	42	41	40	38	37	35	35	35	35	34	33	30	29	28	27	27	27	27	27	28	29	30	31	32	33	36	38	41	43	46	48	50	52	55	59	62	65	68	72	75	78	80	81	82	82	82	81	80	80	80	81	82	83	85	86	88	89	91	93	95	97	100	102	104	106	109	110	111	114	115	116	118	120	122	123	124	125	126	126	127	127	127	127	126	125	124	123	123	122	121	120	119	118	117	115	113	112	111	110	108	106	104	101	99	97	96	95	93	91	90	89	88	87	87	86	86	85	83	81	79	77	74	72	69	67	65	63	61	59	57	54	52	49	47	45	44	43	41	40	38	37	35	35	34	34	33	32	31	29	27	24	18	13	14	12	8	6	5	3	2	2	1	1	1	0	0	0	0	0	0	1	1	2	3	4	3	4	7	11	13	12	11	10	11	11	9	6	3	2	2	1	1	1	3	6	3	1	1	1	1	1	1	1	1	1	0	0	1	1	1	1	1	1	1	1	2	4	10	18	19	20	22	25	27	28	29	31	33	35	37	39	42	44	47	49	50	51	52	53	55	57	61	65	68	71	73	75	76	77	78	79	80	81	82	83	86	88	90	92	94	97	99	102	105	108	112	114	116	118	120	122	123	124	126	128	129	130	131	133	134	136	139	143	145	146	146	146	146	147	148	150	151	153	156	158	160	162	164	165	166	167	169	170	170	170	170	169	169	169	169	169	170	170	169	169	169	170	170	169	168	166	164	162	160	158	156	155	153	151	149	147	144	141	138	134	130	127	124	122	120	118	117	115	114	111	107	104	102	99	95
151	149	147	145	143	140	138	137	137	139	140	142	142	141	140	138	136	136	136	137	138	140	142	143	144	144	144	143	142	141	141	140	138	135	132	129	126	124	123	124	124	124	123	122	120	116	113	109	106	104	103	102	101	99	96	95	94	94	95	97	100	103	105	105	106	108	109	110	109	107	106	105	104	103	103	104	105	105	106	106	107	108	109	112	115	119	122	125	127	130	131	133	134	135	134	133	131	130	128	127	126	125	124	122	121	122	123	125	125	123	123	122	120	121	122	124	126	128	130	131	133	136	139	140	142	143	143	143	143	143	143	144	146	148	150	152	154	156	158	159	161	164	165	167	168	170	172	174	175	177	178	179	181	182	182	182	185	187	189	190	192	193	192	192	193	194	196	197	198	198	198	197	197	197	197	197	196	194	192	190	189	189	189	188	187	185	183	181	178	176	174	172	171	169	168	166	165	165	165	164	164	163	162	160	158	156	154	153	152	151	150	148	146	143	141	140	138	136	135	133	131	129	127	124	121	118	115	113	112	111	111	111	110	109	106	104	102	101	99	97	95	94	92	90	87	84	82	80	78	76	74	73	71	69	68	66	64	63	61	59	58	58	59	59	59	59	59	59	58	58	57	55	54	53	51	50	48	46	44	41	39	37	35	33	31	30	30	29	29	29	29	29	30	30	32	33	35	36	36	36	36	36	36	36	35	38	38	36	34	33	31	30	29	29	29	28	27	27	25	24	23	21	20	19	17	16	15	14	11	8	6	4	2	1	0	0	0	0	0	0	0	0	0	0	0	0	0	0	0	0	0	0	0	0	0	0	0	0	0	0	0	0	0	0	0	0	0	0	0	0	0	0	0	0	0	0	0	0	0	0	0	0	0	0	0	0	0	0	0	0	0	0	0	0	0	0	0	0	0	0	0	0	0	0	0	0	0	0	0	0	0	0	0	0	0	0	0	0	0	0	0	0	0	0	0	0	0	0	0	0	0	0	0	0	0	0	0	0	0	0	0	0	0	0	0	0	0	0	0	0	0	0	0	0	0	0	0	0	0	0	0	0	0	0	0	0	0	0	0	0	0	0	0	0	0	0	0	0	0	0	0	0	0	0	0	0	0	0	0	0	0	0	0	0	0	0	0	0	0	0	0	0	0	0	0	0	0	0	0	0	0	0	0	0	0	0	0	0	0	0	0	0	0	0	0	0	0	0	0	0	0	0	0	0	0	0	0	0	0	0	0	0	0	0	0	0	0	0	0	0	0	0	0	0	0	0	0	0	0	0	0	0	0	0	0	0	0	0	0	0	0	0	0	0	0	0	0	0	0	0	0	0	0	0	0	0	0	0	0	0	0	0	0	0	0	0	0	0	1	2	2	3	4	5	7	8	9	9	10	10	10	11	11	12	12	13	13	14	16	17	18	19	19	20	22	22	23	24	24	24	24	24	25	26	28	29	30	31	31	31	32	32	34	35	37	38	39	40	41	41	41	39	38	36	34	32	32	32	33	32	30	27	26	24	24	25	25	25	25	26	27	28	29	31	33	36	40	43	45	46	48	50	52	56	59	63	66	69	72	76	79	81	82	82	82	82	81	81	81	82	83	85	86	88	89	90	90	91	93	95	97	100	102	104	106	108	109	110	112	115	116	117	120	121	123	124	125	126	127	127	128	128	127	126	125	124	124	124	123	123	122	120	120	119	117	116	114	113	111	109	107	106	104	102	100	99	98	96	94	92	91	90	90	90	89	88	87	85	83	81	78	76	73	71	68	66	65	63	61	58	56	54	51	49	48	46	44	43	41	39	38	36	36	36	35	34	33	31	30	27	25	20	15	14	13	10	7	5	3	3	2	2	1	1	0	0	0	0	0	0	1	2	2	3	4	5	8	10	12	11	10	11	11	11	10	7	4	2	1	1	1	1	1	3	3	2	1	1	1	1	1	1	1	1	1	1	1	1	1	1	1	1	1	1	1	3	6	10	14	17	20	23	25	27	29	31	32	34	36	38	40	42	45	47	49	50	52	53	53	56	59	62	65	68	70	72	74	76	78	79	80	81	82	83	84	86	89	91	92	95	97	100	103	106	110	113	116	118	120	123	125	126	127	129	130	132	132	133	134	135	137	140	143	146	147	147	147	148	149	150	152	153	155	157	159	162	164	165	166	167	169	170	171	171	172	172	171	171	170	171	171	171	172	171	170	170	170	170	169	168	166	165	163	161	159	157	155	153	151	148	146	143	140	137	133	129	126	123	121	119	117	115	113	111	108	104	101	98	96	94
149	147	145	143	141	139	137	135	135	136	138	140	140	140	139	137	135	134	134	135	136	138	140	141	142	142	141	140	138	137	137	136	134	132	129	126	123	121	120	120	120	121	122	121	119	116	112	108	104	102	101	100	99	97	94	93	93	94	95	97	100	104	106	108	110	112	113	114	113	111	109	108	107	105	104	104	105	105	105	105	107	108	110	113	116	120	124	127	128	130	132	133	134	134	134	133	131	130	130	129	128	126	125	123	121	120	121	123	123	121	121	121	121	121	123	125	127	130	132	133	134	138	140	141	143	144	144	144	144	144	144	145	147	148	150	152	154	157	159	160	163	165	166	168	170	172	174	176	177	179	181	182	184	185	185	185	186	189	190	191	192	194	193	192	193	195	197	198	198	198	198	197	196	196	197	197	196	194	191	189	188	187	187	186	184	183	181	179	176	174	172	170	169	167	165	163	162	161	161	161	161	160	159	157	155	152	151	150	149	148	147	145	143	141	139	137	136	134	132	130	128	126	124	122	119	116	113	112	110	110	109	109	108	107	104	101	99	98	97	95	93	91	90	88	85	83	80	78	76	74	72	71	69	68	67	65	63	62	60	58	57	56	56	55	55	56	57	57	57	56	55	54	53	52	50	49	47	45	42	40	37	35	33	32	31	30	29	29	29	29	29	30	30	30	32	34	35	35	35	36	36	36	36	33	31	36	37	35	34	32	30	28	28	27	26	25	25	24	22	21	20	19	18	16	15	13	12	9	6	5	4	3	2	0	0	0	0	0	0	0	0	0	0	0	0	0	0	0	0	0	0	0	0	0	0	0	0	0	0	0	0	0	0	0	0	0	0	0	0	0	0	0	0	0	0	0	0	0	0	0	0	0	0	0	0	0	0	0	0	0	0	0	0	0	0	0	0	0	0	0	0	0	0	0	0	0	0	0	0	0	0	0	0	0	0	0	0	0	0	0	0	0	0	0	0	0	0	0	0	0	0	0	0	0	0	0	0	0	0	0	0	0	0	0	0	0	0	0	0	0	0	0	0	0	0	0	0	0	0	0	0	0	0	0	0	0	0	0	0	0	0	0	0	0	0	0	0	0	0	0	0	0	0	0	0	0	0	0	0	0	0	0	0	0	0	0	0	0	0	0	0	0	0	0	0	0	0	0	0	0	0	0	0	0	0	0	0	0	0	0	0	0	0	0	0	0	0	0	0	0	0	0	0	0	0	0	0	0	0	0	0	0	0	0	0	0	0	0	0	0	0	0	0	0	0	0	0	0	0	0	0	0	0	0	0	0	0	0	0	0	0	0	0	0	0	0	0	0	0	0	0	0	0	0	0	0	0	0	0	0	0	0	0	0	0	0	0	0	1	2	2	3	4	6	7	8	9	9	10	10	10	11	11	12	12	12	13	14	16	17	18	18	19	20	21	21	22	22	22	22	23	23	24	26	28	29	30	31	30	30	31	32	33	34	35	37	38	39	39	40	39	38	35	33	31	28	28	29	30	29	27	25	23	21	22	22	22	22	23	25	25	26	28	31	34	37	41	44	46	47	48	50	53	56	60	63	67	70	73	76	79	81	83	83	82	82	82	82	82	84	85	87	89	91	92	93	92	92	93	94	97	103	104	104	105	108	109	109	112	115	116	118	120	121	123	124	126	127	128	128	128	128	127	127	126	125	125	125	125	125	124	123	122	121	120	118	117	115	113	111	109	108	106	104	103	102	100	98	96	94	93	92	92	92	91	90	88	86	84	82	79	77	75	73	71	69	67	65	62	60	58	56	53	51	50	48	46	44	43	41	39	37	36	36	36	35	33	31	30	28	26	23	19	16	15	12	7	5	4	3	2	2	1	1	1	0	0	0	0	0	1	1	2	3	4	8	12	13	12	10	10	11	11	10	9	5	2	2	1	1	1	2	2	2	1	1	1	1	1	1	1	1	1	1	1	1	1	1	1	1	1	1	1	1	1	3	7	11	14	18	21	23	26	28	30	32	34	35	37	39	40	42	45	47	49	50	52	53	54	57	60	63	66	68	70	72	74	76	78	80	81	82	83	84	85	87	89	91	93	95	97	100	103	107	110	114	116	118	121	124	127	128	130	131	132	133	134	134	135	136	138	140	143	146	147	148	148	149	151	152	154	155	156	158	160	162	165	166	167	168	170	171	172	173	173	173	173	172	173	173	173	173	173	172	171	171	171	170	169	168	167	165	164	162	159	158	156	154	151	149	145	142	138	135	132	129	126	123	120	118	115	113	111	109	105	102	98	95	93	91
147	145	143	141	139	137	135	134	133	134	137	138	138	138	137	136	134	131	131	132	134	136	138	139	140	139	138	136	135	133	132	131	130	128	126	123	120	118	117	116	117	118	119	119	118	115	111	107	103	100	98	97	97	95	92	91	91	92	94	97	101	105	108	110	113	114	116	116	116	114	112	111	109	107	105	105	105	105	105	106	108	110	112	115	118	121	124	127	129	131	133	134	134	134	134	133	132	131	131	131	130	128	126	123	121	119	120	121	120	117	118	120	121	121	123	126	129	132	133	134	136	139	141	142	143	144	145	145	145	145	146	146	147	149	151	153	155	157	159	161	164	166	168	170	172	174	176	178	180	182	183	185	186	187	188	188	188	190	191	192	193	194	194	193	194	196	197	198	198	198	197	196	195	195	196	196	194	192	190	187	186	185	184	183	181	180	179	176	174	171	169	168	166	165	163	161	160	159	158	158	157	156	155	153	151	149	148	147	147	146	144	142	141	139	137	136	135	133	131	128	126	124	122	120	117	114	111	110	109	108	107	107	106	105	102	100	98	96	95	93	91	89	87	85	83	81	79	77	74	72	70	69	67	66	65	63	62	61	59	58	56	55	54	52	52	53	54	55	55	55	54	53	52	50	49	48	46	43	41	38	36	34	32	30	30	30	29	29	29	29	29	30	30	31	33	35	34	33	32	34	36	36	36	35	35	37	37	35	35	32	29	27	26	25	24	23	22	21	19	18	17	16	15	14	13	11	8	5	3	3	3	2	1	0	0	0	0	0	0	0	0	0	0	0	0	0	0	0	0	0	0	0	0	0	0	0	0	0	0	0	0	0	0	0	0	0	0	0	0	0	0	0	0	0	0	0	0	0	0	0	0	0	0	0	0	0	0	0	0	0	0	0	0	0	0	0	0	0	0	0	0	0	0	0	0	0	0	0	0	0	0	0	0	0	0	0	0	0	0	0	0	0	0	0	0	0	0	0	0	0	0	0	0	0	0	0	0	0	0	0	0	0	0	0	0	0	0	0	0	0	0	0	0	0	0	0	0	0	0	0	0	0	0	0	0	0	0	0	0	0	0	0	0	0	0	0	0	0	0	0	0	0	0	0	0	0	0	0	0	0	0	0	0	0	0	0	0	0	0	0	0	0	0	0	0	0	0	0	0	0	0	0	0	0	0	0	0	0	0	0	0	0	0	0	0	0	0	0	0	0	0	0	0	0	0	0	0	0	0	0	0	0	0	0	0	0	0	0	0	0	0	0	0	0	0	0	0	0	0	0	0	0	0	0	0	0	0	0	0	0	0	0	0	0	0	0	0	0	0	0	0	0	0	0	0	0	0	0	0	0	0	0	0	0	0	0	0	0	2	5	3	3	4	6	8	9	10	10	10	11	11	11	11	11	12	13	14	14	15	16	17	18	19	19	20	20	21	21	21	21	22	23	23	25	27	29	30	30	30	30	31	32	32	33	34	35	36	37	38	38	37	36	34	31	28	25	25	25	25	25	24	22	20	19	18	18	19	20	22	23	24	26	29	31	34	37	42	45	46	47	49	52	54	57	60	64	68	71	74	77	79	81	83	83	82	82	82	82	82	84	86	88	91	93	95	96	95	94	95	95	97	105	105	104	105	107	109	111	114	116	117	119	121	122	123	125	127	128	129	129	128	128	128	128	127	126	126	126	127	127	127	126	125	123	122	121	119	117	115	113	111	110	109	107	106	104	102	100	98	96	95	94	93	93	92	91	89	87	85	83	81	79	76	75	73	72	70	67	64	62	60	58	55	54	52	50	48	46	44	43	40	38	37	36	36	35	34	32	30	29	27	23	17	15	15	13	8	6	4	3	3	2	1	1	1	0	0	0	0	0	1	1	1	2	4	10	13	13	11	10	11	12	11	10	8	4	2	2	1	1	1	3	3	2	2	1	2	3	1	1	1	1	1	2	1	1	2	1	1	1	1	1	1	1	2	4	8	12	16	19	21	24	26	28	30	32	34	36	38	40	41	43	45	47	49	51	52	53	55	58	60	63	66	68	71	73	75	77	79	80	81	83	84	85	86	88	90	93	94	96	98	101	104	107	111	114	116	119	122	125	128	130	132	133	134	134	135	136	137	138	139	141	144	146	148	149	150	151	153	155	157	158	159	160	161	163	165	166	168	169	171	172	173	174	174	174	174	174	175	175	175	175	174	173	172	172	172	171	169	168	167	167	165	163	160	158	156	154	152	149	145	142	138	134	131	128	125	122	120	117	113	111	109	106	103	100	96	92	90	87
144	143	141	139	137	136	134	132	132	133	135	136	136	135	135	134	132	129	128	130	132	133	135	136	136	136	135	133	131	130	128	127	125	124	121	119	116	114	113	113	114	116	117	117	116	113	110	106	102	98	96	94	94	93	90	89	89	91	94	97	102	106	109	112	114	116	117	117	117	117	116	114	112	110	108	107	107	107	107	108	110	112	115	117	119	121	124	126	129	131	133	134	135	135	134	134	133	132	131	131	131	128	125	123	121	119	119	119	118	117	117	119	120	122	124	128	132	134	135	135	137	140	142	143	144	145	146	146	147	147	147	147	148	150	151	153	155	158	160	162	165	167	170	172	174	176	178	180	182	184	186	187	189	190	190	190	190	190	192	192	193	194	194	194	195	196	197	198	198	198	197	196	194	194	194	194	192	190	188	185	184	182	181	180	178	177	175	173	171	169	167	165	163	162	161	159	158	157	156	155	154	153	152	150	149	147	145	144	144	143	142	140	138	137	135	134	132	131	129	126	124	121	120	118	115	112	110	108	107	106	105	104	104	102	100	98	96	95	93	90	89	87	85	83	81	79	77	75	73	70	69	67	65	64	63	62	61	60	58	57	56	54	53	51	50	50	51	52	52	53	53	52	51	49	48	46	44	42	39	37	35	33	31	30	30	30	30	29	29	29	29	30	31	32	34	35	34	32	32	34	36	36	37	37	39	39	36	36	35	33	30	27	24	23	22	21	20	18	17	15	14	13	12	11	9	7	5	3	2	2	1	1	0	0	0	0	0	0	0	0	0	0	0	0	0	0	0	0	0	0	0	0	0	0	0	0	0	0	0	0	0	0	0	0	0	0	0	0	0	0	0	0	0	0	0	0	0	0	0	0	0	0	0	0	0	0	0	0	0	0	0	0	0	0	0	0	0	0	0	0	0	0	0	0	0	0	0	0	0	0	0	0	0	0	0	0	0	0	0	0	0	0	0	0	0	0	0	0	0	0	0	0	0	0	0	0	0	0	0	0	0	0	0	0	0	0	0	0	0	0	0	0	0	0	0	0	0	0	0	0	0	0	0	0	0	0	0	0	0	0	0	0	0	0	0	0	0	0	0	0	0	0	0	0	0	0	0	0	0	0	0	0	0	0	0	0	0	0	0	0	0	0	0	0	0	0	0	0	0	0	0	0	0	0	0	0	0	0	0	0	0	0	0	0	0	0	0	0	0	0	0	0	0	0	0	0	0	0	0	0	0	0	0	0	0	0	0	0	0	0	0	0	0	0	0	0	0	0	0	0	0	0	0	0	0	0	0	0	0	0	0	0	0	0	0	0	0	0	1	0	0	0	0	0	0	0	0	0	0	0	0	0	0	0	0	1	2	3	8	7	4	4	5	7	9	10	11	12	12	11	11	11	11	11	12	12	13	14	15	16	16	17	19	20	20	20	20	20	20	21	22	22	23	25	27	28	29	29	29	30	31	32	33	33	34	35	36	36	36	36	35	34	32	30	26	24	23	22	21	21	20	19	17	16	16	16	17	19	20	22	24	27	30	32	35	39	42	44	45	48	51	53	56	60	62	65	69	72	75	77	79	81	83	83	82	82	82	82	83	84	86	89	93	96	98	98	97	96	97	97	98	100	102	103	105	107	109	112	115	117	119	120	122	124	124	126	128	129	129	129	129	129	129	129	128	127	127	128	129	130	130	129	128	126	125	124	122	120	118	116	114	113	111	110	109	107	105	102	100	99	98	96	95	94	93	92	90	89	87	84	82	80	78	77	75	73	71	68	66	64	62	60	58	56	54	52	50	48	46	44	42	39	38	37	36	35	34	32	31	30	28	22	16	13	13	11	8	5	4	3	3	2	1	1	1	0	0	0	0	0	0	1	1	2	5	10	12	13	12	12	12	12	11	10	7	3	2	1	1	2	2	5	3	3	1	2	3	3	2	1	1	1	2	2	2	2	2	2	1	1	1	2	2	1	2	4	8	12	15	18	21	23	26	28	30	32	34	36	38	40	42	44	46	48	50	51	53	54	56	58	60	63	66	69	72	74	76	78	79	81	82	84	86	87	88	90	92	94	96	97	100	103	106	108	111	113	116	119	122	126	128	131	133	134	135	136	137	138	139	140	141	143	145	147	149	150	151	153	155	157	159	160	161	161	162	163	165	167	168	170	171	172	174	174	175	175	175	175	176	176	176	176	175	174	173	172	172	171	170	169	169	168	167	164	161	158	156	154	152	149	146	142	138	134	131	128	125	122	119	116	113	110	108	106	103	99	95	91	88	85
142	141	139	137	135	134	132	132	132	132	133	133	133	133	132	132	129	126	126	128	130	130	131	132	132	132	131	129	127	125	124	122	121	119	117	116	113	110	110	110	111	113	115	115	114	111	108	104	100	96	93	91	90	90	88	87	87	91	94	98	103	107	110	113	115	116	117	118	118	119	119	118	116	113	111	109	109	109	110	112	113	114	117	119	122	123	125	127	129	132	134	135	135	135	135	134	134	133	132	132	131	128	125	122	119	118	119	120	119	119	119	120	122	124	127	131	134	136	136	137	138	141	143	144	145	146	147	148	149	150	149	149	149	151	152	154	156	158	161	163	166	168	171	174	176	178	180	183	185	187	189	190	191	191	191	191	191	191	192	192	193	194	194	194	195	196	197	197	198	198	197	196	194	193	192	191	189	187	185	183	181	180	178	177	175	174	172	170	168	167	165	162	160	158	158	157	156	155	154	152	151	150	149	148	146	145	143	141	141	141	140	138	136	134	133	131	130	128	127	124	122	119	118	116	113	111	108	107	105	104	103	102	101	100	98	96	95	92	90	88	86	85	83	80	79	77	75	73	71	69	67	65	64	62	61	61	60	59	57	56	55	53	52	51	49	49	49	49	49	50	50	50	49	48	46	44	42	40	38	35	34	32	31	30	30	30	30	30	29	29	29	30	31	33	35	35	35	35	34	35	36	37	37	37	37	38	37	36	36	34	31	27	24	22	20	19	18	17	15	14	13	11	9	8	7	5	3	2	2	1	0	0	0	0	0	0	0	0	0	0	0	0	0	0	0	0	0	0	0	0	0	0	0	0	0	0	0	0	0	0	0	0	0	0	0	0	0	0	0	0	0	0	0	0	0	0	0	0	0	0	0	0	0	0	0	0	0	0	0	0	0	0	0	0	0	0	0	0	0	0	0	0	0	0	0	0	0	0	0	0	0	0	0	0	0	0	0	0	0	0	0	0	0	0	0	0	0	0	0	0	0	0	0	0	0	0	0	0	0	0	0	0	0	0	0	0	0	0	0	0	0	0	0	0	0	0	0	0	0	0	0	0	0	0	0	0	0	0	0	0	0	0	0	0	0	0	0	0	0	0	0	0	0	0	0	0	0	0	0	0	0	0	0	0	0	0	0	0	0	0	0	0	0	0	0	0	0	0	0	0	0	0	0	0	0	0	0	0	0	0	0	0	0	0	0	0	0	0	0	0	0	0	0	0	0	0	0	0	0	0	0	0	0	0	0	0	0	0	0	0	0	0	0	0	0	0	0	0	0	0	0	0	0	0	0	0	0	0	0	0	0	0	0	0	0	0	1	2	2	1	0	0	0	0	1	2	1	1	0	0	0	0	0	0	0	2	4	7	7	4	3	4	6	8	10	11	12	12	13	13	12	12	12	12	12	13	13	14	15	16	17	18	19	20	20	20	20	20	20	21	22	23	24	25	26	27	27	28	29	30	32	33	34	34	35	35	35	35	34	34	34	33	31	28	25	22	20	19	18	18	17	15	15	14	14	16	18	19	20	22	25	27	30	33	36	39	42	44	46	49	52	54	58	61	64	66	69	73	76	77	79	80	81	82	82	82	83	83	83	84	86	90	94	96	99	99	98	98	98	99	99	99	101	103	105	107	110	112	115	119	120	121	124	124	124	126	128	128	129	129	130	130	130	130	129	129	129	130	132	134	134	133	131	129	128	126	124	123	120	118	117	116	115	113	112	109	107	104	103	102	100	98	97	96	95	93	92	90	88	85	83	82	80	79	77	74	72	69	67	65	63	62	60	58	56	54	52	50	48	45	43	41	39	37	36	35	34	33	32	32	28	21	17	14	11	9	7	5	3	3	3	2	2	1	1	0	0	0	0	0	0	0	1	3	6	9	10	11	12	12	12	12	11	10	7	3	1	1	1	2	4	8	5	2	1	1	2	2	2	1	1	2	2	3	3	3	2	2	1	1	1	2	1	1	2	5	9	12	15	18	20	23	25	28	30	32	34	36	38	40	42	44	46	48	50	52	54	55	57	58	60	63	66	69	73	75	77	79	81	83	85	87	88	89	89	91	93	95	97	99	102	105	107	110	112	114	117	119	122	125	128	131	133	135	136	137	138	140	141	143	144	146	147	149	150	151	152	154	156	159	161	163	163	164	164	164	165	167	168	170	172	173	174	175	176	176	176	176	177	176	176	176	175	174	173	172	172	172	171	170	169	168	166	164	161	158	155	153	151	148	146	143	138	134	131	128	125	122	119	116	113	110	108	106	102	99	95	91	88	85
140	139	137	135	133	132	131	131	132	131	131	130	130	130	130	130	128	125	124	126	128	128	128	128	128	128	127	126	124	121	119	118	116	115	114	112	110	108	107	107	109	111	112	112	111	109	106	101	97	93	90	88	88	87	86	86	87	90	94	98	103	107	111	113	115	117	117	118	118	119	120	120	118	116	114	112	111	112	114	115	116	117	119	121	124	125	126	128	131	133	135	135	136	136	135	135	134	134	133	132	130	128	125	122	119	118	118	120	121	121	121	122	125	128	130	133	137	138	138	139	140	143	144	145	146	147	148	150	151	152	151	151	150	152	154	155	157	159	162	164	167	170	173	175	177	179	182	185	187	189	190	191	192	192	192	192	191	191	192	192	193	194	194	195	195	196	197	197	197	197	197	196	194	192	190	188	187	185	183	181	179	177	175	174	172	171	170	168	167	165	162	159	157	155	155	154	153	153	151	150	148	147	146	145	144	143	141	139	138	138	137	136	134	132	130	129	127	126	124	122	120	118	115	113	111	109	107	105	104	102	101	99	98	97	96	95	93	90	88	85	84	82	80	78	76	74	72	70	69	67	65	63	61	60	59	59	59	57	56	55	53	52	51	50	49	48	48	47	47	47	48	48	47	46	44	43	41	38	36	34	33	32	31	30	30	29	30	30	29	29	30	30	32	34	35	35	35	35	33	33	36	37	37	37	36	33	35	36	37	35	32	27	24	21	20	19	17	16	15	14	13	12	10	8	7	6	3	2	1	0	0	0	0	0	0	0	0	0	0	0	0	0	0	0	0	0	0	0	0	0	0	0	0	0	0	0	0	0	0	0	0	0	0	0	0	0	0	0	0	0	0	0	0	0	0	0	0	0	0	0	0	0	0	0	0	0	0	0	0	0	0	0	0	0	0	0	0	0	0	0	0	0	0	0	0	0	0	0	0	0	0	0	0	0	0	0	0	0	0	0	0	0	0	0	0	0	0	0	0	0	0	0	0	0	0	0	0	0	0	0	0	0	0	0	0	0	0	0	0	0	0	0	0	0	0	0	0	0	0	0	0	0	0	0	0	0	0	0	0	0	0	0	0	0	0	0	0	0	0	0	0	0	0	0	0	0	0	0	0	0	0	0	0	0	0	0	0	0	0	0	0	0	0	0	0	0	0	0	0	0	0	0	0	0	0	0	0	0	0	0	0	0	0	0	0	0	0	0	0	0	0	0	0	0	0	0	0	0	0	0	0	0	0	0	0	0	0	0	0	0	0	0	0	0	0	0	0	0	0	0	0	0	0	0	0	0	0	0	0	0	0	0	0	0	0	0	1	3	3	1	0	0	0	0	1	2	2	2	1	1	1	1	1	1	2	3	3	4	3	3	4	6	8	10	11	12	12	13	13	13	13	13	13	13	14	14	14	15	15	16	17	18	19	20	20	20	20	20	21	21	22	23	23	24	26	26	27	28	29	31	32	33	34	35	35	36	35	34	32	32	32	31	29	26	23	21	19	17	16	15	14	13	13	13	15	16	18	20	21	23	25	28	31	34	37	40	42	44	47	50	52	55	58	61	64	66	69	73	75	76	77	79	80	81	82	83	83	83	84	84	86	89	93	97	99	99	99	98	98	99	100	100	101	103	104	108	111	113	116	119	121	121	122	121	122	125	127	128	129	130	131	132	132	132	131	130	131	132	135	137	137	136	134	132	130	128	127	125	123	120	119	118	117	116	113	111	108	107	106	104	102	100	99	98	96	95	93	91	89	88	86	84	82	81	78	75	73	71	69	67	65	63	62	60	58	56	53	51	49	47	44	42	39	37	36	35	34	32	32	32	28	22	19	16	12	10	8	6	4	3	3	2	1	1	1	1	0	0	0	0	0	1	1	3	7	9	9	10	12	13	12	11	11	9	6	2	1	1	1	2	3	11	5	1	1	1	1	1	1	2	2	2	2	3	3	3	2	2	2	3	2	1	1	1	3	6	9	12	14	18	21	23	25	27	29	31	34	36	38	40	42	44	46	48	50	53	54	56	58	59	61	64	67	70	73	76	78	81	83	85	87	90	91	91	91	92	94	95	97	99	102	105	108	111	114	116	118	120	123	126	128	131	134	136	138	139	140	142	143	145	147	149	150	151	151	153	155	156	158	160	163	164	166	166	166	166	166	168	169	171	172	174	175	176	176	176	176	176	176	176	175	175	174	173	172	172	172	172	171	170	168	167	165	162	159	157	155	152	150	148	145	142	138	134	131	128	125	122	118	115	113	110	108	106	102	99	95	91	88	85
138	136	135	133	131	130	130	130	130	128	127	127	127	127	126	126	125	124	124	124	125	125	124	124	124	124	123	122	120	117	115	114	112	111	110	108	106	104	104	104	105	107	108	108	108	106	103	99	95	91	88	86	85	85	84	85	86	90	94	98	102	106	110	113	115	116	117	117	117	118	120	120	120	119	117	116	115	115	117	118	119	120	120	122	125	128	129	131	133	134	136	136	136	136	136	135	135	134	133	131	129	127	125	122	119	117	118	120	121	122	123	125	127	130	132	136	139	140	140	141	143	145	146	147	148	149	150	151	152	153	153	152	152	153	155	157	158	160	163	165	168	171	174	176	178	181	184	187	189	190	191	191	192	192	192	192	191	191	192	193	193	194	194	195	196	196	197	197	197	197	197	196	194	191	189	187	185	183	181	179	177	175	173	171	170	168	167	166	165	163	160	157	155	154	153	152	151	150	149	148	146	145	144	143	142	140	139	137	136	135	134	133	131	130	128	127	125	124	122	120	118	116	113	111	109	107	105	103	102	100	99	97	95	95	94	93	91	89	86	84	82	80	78	76	74	71	69	68	66	64	62	61	60	59	58	58	57	56	55	53	52	51	50	49	48	48	47	46	45	45	45	46	46	44	43	41	39	37	35	33	32	31	30	30	29	29	30	30	30	30	30	31	33	35	36	36	36	36	34	35	36	35	37	37	37	36	37	37	37	36	32	28	25	22	21	19	18	17	16	15	14	13	11	10	8	7	4	2	1	0	0	0	0	0	0	0	0	0	0	0	0	0	0	0	0	0	0	0	0	0	0	0	0	0	0	0	0	0	0	0	0	0	0	0	0	0	0	0	0	0	0	0	0	0	0	0	0	0	0	0	0	0	0	0	0	0	0	0	0	0	0	0	0	0	0	0	0	0	0	0	0	0	0	0	0	0	0	0	0	0	0	0	0	0	0	0	0	0	0	0	0	0	0	0	0	0	0	0	0	0	0	0	0	0	0	0	0	0	0	0	0	0	0	0	0	0	0	0	0	0	0	0	0	0	0	0	0	0	0	0	0	0	0	0	0	0	0	0	0	0	0	0	0	0	0	0	0	0	0	0	0	0	0	0	0	0	0	0	0	0	0	0	0	0	0	0	0	0	0	0	0	0	0	0	0	0	0	0	0	0	0	0	0	0	0	0	0	0	0	0	0	0	0	0	0	0	0	0	0	0	0	0	0	0	0	0	0	0	0	0	0	0	0	0	0	0	0	0	0	0	0	0	0	0	0	0	0	0	0	0	0	0	0	0	0	0	0	0	0	0	0	0	0	0	0	0	1	2	2	1	0	0	0	1	1	2	2	2	2	1	1	1	2	3	3	3	4	5	5	4	5	8	10	11	12	12	13	13	14	14	14	14	14	15	16	16	15	15	16	16	17	17	18	18	19	19	20	21	21	22	22	22	23	24	25	26	27	28	29	30	32	33	34	34	35	35	34	32	30	30	29	28	26	24	22	19	18	16	14	12	12	12	12	13	15	17	19	20	22	24	26	28	31	34	37	39	42	45	48	51	53	55	57	60	63	66	69	72	74	75	76	78	79	80	82	82	82	82	83	85	86	88	90	95	98	99	99	98	98	99	100	101	102	103	108	117	112	112	114	115	116	119	120	119	121	124	126	127	129	131	132	133	133	133	133	132	133	135	137	139	139	138	137	135	133	130	128	127	124	122	121	121	120	118	115	112	110	109	108	106	104	102	101	100	98	96	95	93	92	90	88	86	84	82	80	78	76	74	72	69	67	65	63	62	60	58	55	53	51	48	46	43	40	38	36	35	34	32	32	32	29	26	23	19	15	13	11	8	5	3	3	2	1	1	1	0	0	0	0	0	0	1	1	2	6	8	9	10	12	13	12	11	9	7	4	2	1	1	1	2	2	4	2	1	1	1	1	2	2	2	2	2	2	2	3	3	2	2	2	3	3	1	1	2	3	6	10	12	15	19	21	23	25	27	29	31	33	36	38	41	43	45	47	49	51	53	55	58	60	61	63	65	68	70	73	76	79	81	84	86	89	92	93	93	93	94	95	97	98	100	102	105	108	112	115	118	120	122	125	128	131	133	136	137	139	140	141	143	145	147	150	152	153	153	154	155	157	159	160	162	164	166	167	168	169	169	169	169	170	171	173	174	176	177	177	177	176	176	175	174	174	174	173	172	171	172	172	171	171	169	167	165	163	160	158	156	154	152	149	147	144	141	138	134	131	128	125	122	119	116	113	110	107	105	102	98	95	91	87	85
135	134	132	131	130	129	128	127	126	125	124	124	124	123	122	122	121	121	121	121	121	120	120	120	120	120	119	118	115	113	111	109	108	107	105	104	103	102	101	100	101	102	104	105	105	103	100	97	93	90	86	84	83	83	83	83	86	89	94	99	101	104	107	111	114	116	116	115	115	116	118	120	121	121	120	119	118	118	120	122	122	122	122	123	127	130	131	133	134	136	136	136	137	136	136	136	135	134	132	130	128	126	124	122	119	117	117	120	122	123	125	126	129	132	135	138	140	141	141	143	145	147	148	149	149	150	151	152	153	154	154	155	155	155	157	158	159	161	164	166	168	171	174	176	179	181	184	187	189	190	190	191	191	192	192	192	192	192	193	193	194	194	194	195	196	196	197	197	198	198	196	195	193	191	188	186	184	182	180	178	175	173	171	169	167	166	165	163	162	160	158	156	153	152	151	150	149	148	147	146	144	143	141	140	139	138	136	135	133	132	130	129	128	127	126	124	123	121	120	118	116	113	111	109	107	105	103	101	99	98	97	95	93	92	92	92	90	88	85	82	80	77	75	73	71	69	67	65	63	62	60	59	58	57	57	57	56	55	54	52	51	50	49	48	47	46	46	45	44	43	44	44	44	43	41	38	36	35	33	32	31	31	30	29	29	29	30	29	29	30	31	32	34	36	37	37	38	41	39	37	35	31	35	37	38	39	39	38	38	37	33	29	26	23	22	21	20	18	17	16	15	14	12	10	9	7	5	2	1	0	0	0	0	0	0	0	0	0	0	0	0	0	0	0	0	0	0	0	0	0	0	0	0	0	0	0	0	0	0	0	0	0	0	0	0	0	0	0	0	0	0	0	0	0	0	0	0	0	0	0	0	0	0	0	0	0	0	0	0	0	0	0	0	0	0	0	0	0	0	0	0	0	0	0	0	0	0	0	0	0	0	0	0	0	0	0	0	0	0	0	0	0	0	0	0	0	0	0	0	0	0	0	0	0	0	0	0	0	0	0	0	0	0	0	0	0	0	0	0	0	0	0	0	0	0	0	0	0	0	0	0	0	0	0	0	0	0	0	0	0	0	0	0	0	0	0	0	0	0	0	0	0	0	0	0	0	0	0	0	0	0	0	0	0	0	0	0	0	0	0	0	0	0	0	0	0	0	0	0	0	0	0	0	0	0	0	0	0	0	0	0	0	0	0	0	0	0	0	0	0	0	0	0	0	0	0	0	0	0	0	0	0	0	0	0	0	0	0	0	0	0	0	0	0	0	0	0	0	0	0	0	0	0	0	0	0	0	0	0	0	0	0	0	0	0	0	0	1	1	1	0	1	1	2	2	2	3	2	2	2	2	3	4	4	4	4	5	6	7	7	9	11	12	12	13	13	14	14	14	14	14	14	15	16	17	17	17	16	17	17	17	17	17	18	18	19	20	21	21	21	22	22	23	24	25	26	27	28	29	30	31	32	33	33	33	33	32	30	28	27	27	25	24	23	20	18	16	15	13	10	10	11	12	14	16	17	19	21	23	25	27	29	32	35	37	39	41	45	48	51	53	55	57	60	63	67	69	71	72	74	76	77	79	80	82	81	81	82	84	85	86	87	88	91	94	96	98	98	98	99	100	103	104	104	107	115	110	110	110	108	108	115	119	120	122	124	125	127	130	132	133	134	134	135	135	135	135	136	139	141	141	140	139	138	135	132	130	128	126	124	123	122	121	119	117	114	113	111	110	108	106	105	103	102	100	98	97	95	93	92	90	88	86	84	82	80	78	76	74	72	70	68	66	64	62	60	57	54	52	50	47	44	41	39	37	35	33	32	31	31	29	27	25	20	17	16	14	11	7	4	3	2	1	0	0	0	0	0	0	0	0	1	1	2	4	7	8	10	12	12	11	9	6	4	2	2	1	1	1	1	1	1	1	1	1	1	2	2	2	2	2	2	2	2	2	2	2	2	2	2	2	1	1	2	4	7	10	13	17	20	22	24	26	28	30	32	34	36	39	41	43	46	48	50	52	54	56	58	61	62	65	67	69	71	74	77	79	82	84	88	91	93	95	95	95	95	96	98	100	102	104	106	109	113	116	119	122	124	127	130	133	136	138	139	140	142	143	144	147	150	153	155	156	156	156	157	159	161	163	164	165	167	169	170	171	171	171	171	171	172	174	176	177	178	178	177	176	175	174	173	173	173	172	171	171	171	171	171	170	168	166	163	161	159	157	155	153	151	148	146	144	141	138	135	132	128	125	122	119	116	112	109	106	103	100	97	94	90	87	84
133	131	130	130	129	128	127	125	124	123	123	123	122	122	121	120	118	118	117	117	116	116	116	116	116	116	114	112	109	108	107	106	105	103	102	101	101	100	99	98	98	98	100	102	103	101	98	95	92	89	85	82	82	83	82	83	86	88	92	97	100	102	105	108	111	113	113	111	111	114	117	120	121	122	121	121	120	121	123	124	125	124	124	126	129	132	133	134	135	136	137	137	137	137	137	136	135	133	131	129	126	124	122	120	118	116	116	120	122	124	126	128	131	134	138	140	141	142	143	145	147	148	149	150	151	151	152	153	154	155	156	157	158	159	159	159	160	162	165	167	169	171	173	176	179	182	184	187	189	189	190	190	191	192	192	192	193	193	193	194	194	194	194	195	196	197	197	198	198	197	196	193	191	189	187	185	183	181	179	177	175	172	170	167	165	163	162	161	160	158	156	154	152	150	149	148	147	146	145	144	142	141	139	138	137	136	134	133	131	130	128	127	126	125	124	122	120	119	117	115	113	110	108	107	105	102	100	99	97	96	95	93	91	91	90	90	89	87	84	81	79	76	74	71	69	67	65	63	61	59	58	57	56	56	55	55	55	54	53	51	49	49	48	47	46	45	45	44	43	42	42	42	42	40	38	36	35	33	32	31	31	31	30	29	29	29	30	29	29	30	31	33	35	36	36	36	37	40	39	34	32	33	35	38	39	39	37	37	38	38	35	31	27	25	24	23	21	20	18	16	15	14	12	10	8	7	5	3	1	0	0	0	0	0	0	0	0	0	0	0	0	0	0	0	0	0	0	0	0	0	0	0	0	0	0	0	0	0	0	0	0	0	0	0	0	0	0	0	0	0	0	0	0	0	0	0	0	0	0	0	0	0	0	0	0	0	0	0	0	0	0	0	0	0	0	0	0	0	0	0	0	0	0	0	0	0	0	0	0	0	0	0	0	0	0	0	0	0	0	0	0	0	0	0	0	0	0	0	0	0	0	0	0	0	0	0	0	0	0	0	0	0	0	0	0	0	0	0	0	0	0	0	0	0	0	0	0	0	0	0	0	0	0	0	0	0	0	0	0	0	0	0	0	0	0	0	0	0	0	0	0	0	0	0	0	0	0	0	0	0	0	0	0	0	0	0	0	0	0	0	0	0	0	0	0	0	0	0	0	0	0	0	0	0	0	0	0	0	0	0	0	0	0	0	0	0	0	0	0	0	0	0	0	0	0	0	0	0	0	0	0	0	0	0	0	0	0	0	0	0	0	0	0	0	0	0	0	0	0	0	0	0	0	0	0	0	0	0	0	0	0	0	0	0	0	0	0	1	1	1	1	1	2	2	3	3	3	3	2	2	2	3	4	4	4	5	7	9	10	11	12	13	13	13	14	15	15	15	15	15	15	15	16	18	19	19	18	18	18	18	18	18	18	18	19	19	20	20	20	21	21	22	22	23	25	26	26	27	28	29	30	30	30	31	30	30	29	27	26	25	24	23	22	20	17	15	14	13	11	9	9	11	13	14	16	18	21	23	25	27	28	30	32	34	36	38	41	45	47	50	52	55	57	60	63	66	69	70	71	74	75	76	78	79	80	81	81	83	84	85	85	86	87	87	90	94	96	96	97	98	99	103	105	103	103	105	106	107	107	106	107	113	117	120	122	123	124	127	130	132	133	134	136	137	138	137	136	138	140	142	142	141	140	139	136	133	131	130	128	126	124	123	122	120	118	116	115	113	112	110	108	107	106	104	102	101	99	97	95	93	91	89	87	85	84	82	81	79	77	74	73	70	68	66	64	61	58	55	53	50	48	45	43	40	37	35	33	32	31	30	29	27	25	22	19	17	15	12	8	5	4	2	1	0	0	0	0	0	0	0	0	1	2	2	3	5	7	8	10	10	8	6	4	3	2	2	1	1	1	1	1	1	1	1	1	2	2	2	2	2	2	2	2	2	2	2	1	1	1	1	1	1	1	2	4	7	11	14	18	21	23	25	27	29	31	33	35	37	39	42	44	47	49	50	52	54	56	58	61	63	66	68	70	72	75	77	80	82	85	88	92	94	96	96	96	97	98	100	102	104	106	109	111	114	117	121	124	126	129	132	136	138	140	142	142	143	144	146	148	151	154	156	158	158	158	158	160	162	165	166	166	168	170	171	172	172	172	173	172	173	174	176	178	178	178	177	176	174	173	173	173	173	172	170	170	170	170	169	168	165	164	162	160	158	156	154	152	149	147	145	143	140	138	135	132	129	125	122	119	116	113	109	105	103	100	97	93	90	87	84
131	130	129	128	128	127	125	124	123	123	122	122	122	121	120	119	117	116	115	114	114	113	113	112	112	111	109	106	104	104	104	104	102	101	99	98	98	97	97	96	96	96	97	99	100	99	96	94	91	87	83	81	81	82	83	84	86	88	90	94	97	99	103	106	108	108	108	108	109	112	116	118	120	121	122	122	122	123	126	127	127	127	127	129	131	133	135	136	137	137	137	137	137	137	137	136	135	132	129	127	124	122	120	119	118	116	116	119	123	125	129	131	132	136	138	141	142	142	144	146	148	149	150	151	152	153	154	155	156	157	159	160	162	162	162	162	162	164	166	168	170	172	174	176	179	182	184	186	188	189	190	191	192	192	193	193	193	194	194	194	194	194	195	196	197	197	197	198	198	197	194	191	189	187	185	183	182	180	178	175	173	171	169	166	164	162	160	159	157	155	153	152	150	148	146	145	144	143	142	141	140	139	138	136	134	133	132	131	130	129	127	126	124	123	121	119	117	116	114	112	110	107	106	104	102	100	98	96	95	94	93	91	90	89	88	88	87	85	83	80	78	76	73	70	68	65	63	61	59	57	56	55	54	53	53	53	54	54	52	50	49	48	47	46	45	44	44	43	42	41	40	40	39	38	36	35	34	33	32	31	31	31	30	29	29	30	30	30	30	31	32	35	36	35	35	35	35	36	36	38	38	37	37	38	39	39	38	38	39	39	36	33	29	27	25	24	23	21	20	18	16	15	13	10	9	7	5	3	2	1	0	0	0	0	0	0	0	0	0	0	0	0	0	0	0	0	0	0	0	0	0	0	0	0	0	0	0	0	0	0	0	0	0	0	0	0	0	0	0	0	0	0	0	0	0	0	0	0	0	0	0	0	0	0	0	0	0	0	0	0	0	0	0	0	0	0	0	0	0	0	0	0	0	0	0	0	0	0	0	0	0	0	0	0	0	0	0	0	0	0	0	0	0	0	0	0	0	0	0	0	0	0	0	0	0	0	0	0	0	0	0	0	0	0	0	0	0	0	0	0	0	0	0	0	0	0	0	0	0	0	0	0	0	0	0	0	0	0	0	0	0	0	0	0	0	0	0	0	0	0	0	0	0	0	0	0	0	0	0	0	0	0	0	0	0	0	0	0	0	0	0	0	0	0	0	0	0	0	0	0	0	0	0	0	0	0	0	0	0	0	0	0	0	0	0	0	0	0	0	0	0	0	0	0	0	0	0	0	0	0	0	0	0	0	0	0	0	0	0	0	0	0	0	0	0	0	0	0	0	0	0	0	0	0	0	0	0	0	0	0	0	0	0	0	0	0	0	0	1	2	2	2	3	3	3	3	3	3	3	3	3	3	3	4	5	8	10	12	13	14	15	15	15	15	15	16	17	17	17	17	17	17	18	19	20	20	20	20	19	19	19	19	19	19	19	19	20	20	20	20	21	21	22	23	24	25	26	27	28	28	27	27	27	28	28	27	25	24	23	22	21	20	19	17	14	12	11	10	10	9	9	11	13	15	17	20	23	25	27	29	30	31	32	34	36	38	41	45	47	49	52	54	57	60	63	65	68	70	71	72	74	75	77	78	79	78	78	79	82	83	84	84	84	84	86	90	92	93	95	97	98	100	102	102	102	103	103	105	106	107	109	112	115	118	120	122	124	127	130	133	134	135	137	139	140	139	138	139	141	143	143	142	141	139	137	135	133	131	129	127	125	124	122	121	119	117	116	115	114	112	111	110	108	106	105	103	101	99	97	95	93	91	89	88	86	85	83	81	79	77	75	72	70	68	65	62	59	55	53	51	49	46	44	41	38	36	35	33	31	30	29	27	26	23	21	19	16	12	8	6	5	4	3	2	1	1	0	0	0	0	1	1	1	2	2	3	5	6	7	7	6	4	3	3	2	2	2	1	1	1	1	1	1	2	2	2	3	3	2	2	2	2	2	2	2	1	1	1	1	1	1	1	2	2	5	8	12	15	18	21	23	26	28	30	33	35	37	39	41	43	45	47	49	51	53	55	57	59	61	64	66	69	72	74	75	78	81	83	86	89	92	95	97	97	98	99	100	103	105	108	110	112	114	116	119	122	126	128	131	134	138	141	143	144	145	145	146	148	150	153	156	158	160	161	160	160	162	164	166	167	168	170	171	173	173	173	174	174	174	174	175	176	177	178	177	176	175	174	173	172	172	172	171	169	168	168	168	167	164	160	160	160	159	157	155	154	153	149	146	144	141	139	137	135	132	128	125	122	118	115	112	109	105	102	99	96	93	89	86	83
