0	0	0	0	0	0	0	0	0	0	0	0	0	0	0	0	0	0	0	0	0	0	0	0	0	0	0	0	0	0	0	0	0	0	0	0	0	0	0	0	0	0	0	0	0	0	0	0	0	0	0	0	0	0	0	0	0	0	0	0	0	0	0	0	0	0	0	0	0	0	0	0	0	0	0	0	0	0	0	0	0	0	0	0	0	0	0	0	0	0	0	0	0	0	0	0	0	0	0	0	0	0	0	0	0	0	0	0	0	0	0	0	1	2	8	13	9	12	17	32	45	54	60	63	65	68	70	72	73	73	73	73	73	73	73	74	74	74	74	74	74	74	74	74	74	75	75	75	75	75	75	75	75	75	75	75	75	74	72	68	67	64	62	57	56	52	51	48	36	11	5	1	0	0	0	0	0	0	0	0	0	0	0	0	0	0	0	0	0	0	0	0	0	0	0	0	0	0	0	0	0	0	0	0	0	0	0	0	0	0	0	0	0	0	0	0	0	0	0	0	0	0	0	0	0	0	0	0	0	0	0	0	0	0	0	0	0	0	0	0	0	0	0	0	0	0	0	0	0	0	0	0	0	0	0	0	0	0	0	0	0	0	0	0	0	0	0	0	0	0	0	0	0	0	0	0	0	0	0	0	0	0	0	0	0	0	0	1	4	6	6	5	5	5	5	5	5	5	5	5	5	5	5	5	5	5	5	5	5	5	5	5	6	6	6	6	6	6	6	6	6	6	6	5	5	5	5	5	5	5	5	5	5	6	6	6	6	6	6	6	6	6	6	6	6	6	6	6	6	6	6	6	6	6	6	6	6	6	7	11	16	24	28	32	38	41	45	46	48	50	52	54	56	59	61	63	65	67	69	71	72	70	67	64	61	60	61	61	61	61	61	61	61	61	61	61	61	61	61	61	61	61	61	65	71	76	81	87	91	97	101	107	112	117	123	128	133	137	142	147	151	154	157	159	162	164	166	168	170	172	173	175	176	178	180	182	184	185	187	188	190	192	194	196	197	198	197	197	197	196	196	196	196	197	197	197	197	198	198	198	198	198	199	199	199	199	200	200	201	202	203	203	201	198	196	193	190	187	184	182	181	181	180	179	178	177	175	174	171	168	165	161	157	155	153	152	152	153	154	156	158	161	163	166	168	169	168	166	165	163	162	160	158	156	155	153	151	149	147	145	142	141	140	141	141	142	143	145	147	149	151	153	155	157	159	160	159	158	156	155	154	152	150	148	146	143	141	139	136	133	131	128	124	121	117	114	111	108	105	103	100	97	95	94	93	91	89	86	84	82	81	81	80	79	78	76	74	73	71	70	68	67	66	65	64	62	61	60	59	57	57	56	54	52	51	49	47	46	43	40	37	34	31	30	30	29	30	30	32	33	34	36	37	38	39	40	41	42	43	44	45	45	45	44	42	40	36	32	29	26	25	26	27	28	30	31	32	33	34	33	33	32	31	30	29	29	30	31	32	33	34	35	36	37	37	38	38	38	38	37	36	35	34	33	32	31	30	29	28	26	25	23	21	20	18	16	16	15	15	15	15	15	16	17	17	19	20	21	23	24	25	27	28	29	30	32	33	34	36	36	37	38	39	40	41	43	43	43	42	43	43	43	43	43	42	42	41	41	41	41	41	40	40	40	40	40	40	40	40	40	40	40	40	39	39	38	38	37	37	35	32	30	28	27	26	25	25	25	25	25	25	26	27	28	29	30	30	30	30	30	30	30	30	30	30	30	30	30	30	30	30	30	30	30	29	29	29	29	28	28	28	28	28	28	28	27	27	27	27	27	26	26	26	26	26	26	26	26	26	25	25	24	23	22	20	18	17	15	14	13	12	10	9	7	7	7	7	7	7	7	7	7	7	7	7	7	7	7	7	7	7	7	7	7	7	7	8	8	8	8	7	7	7	7	7	7	7	7	7	7	7	7	7	7	7	7	6	6	6	6	6	6	6	6	6	6	6	6	5	5	5	5	5	5	5	5	5	5	5	5	5	5	4	4	4	4	5	4	2	0	0	0	0	0	0	0	0	0	0	0	0	0	0	0	0	0	0	0	0	0	0	0	0	0	0	0	0	0	0	0	0	0	0	0	0	0	0	0	0	0	0	0	0	0	0	0	0	0	0	0	0	0	0	0	0	0	0	0	0	0	0	0	0	0	0	0	0	0	0	0	0	0	0	0	0	6	6	6	6	6	6	6	6	6	6	6	6	6	5	5	5	5	5	5	5	5	6	6	6	6	6	7	7	7	7	7	7	7	7	8
0	0	0	0	0	0	0	0	0	0	0	0	0	0	0	0	0	0	0	0	0	0	0	0	0	0	0	0	0	0	0	0	0	0	0	0	0	0	0	0	0	0	0	0	0	0	0	0	0	0	0	0	0	0	0	0	0	0	0	0	0	0	0	0	0	0	0	0	0	0	0	0	0	0	0	0	0	0	0	0	0	0	0	0	0	0	0	0	0	0	0	0	0	0	0	0	0	0	0	0	0	0	0	0	0	0	0	0	0	0	0	0	0	0	0	1	4	5	7	9	12	20	26	40	51	58	62	64	67	69	71	72	73	73	73	73	73	73	74	74	74	74	74	74	74	74	74	74	74	74	74	75	75	75	75	75	75	75	75	74	74	72	70	67	66	62	47	42	34	29	31	28	13	7	3	1	0	0	0	0	0	0	0	0	0	0	0	0	0	0	0	0	0	0	0	0	0	0	0	0	0	0	0	0	0	0	0	0	0	0	0	0	0	0	0	0	0	0	0	0	0	0	0	0	0	0	0	0	0	0	0	0	0	0	0	0	0	0	0	0	0	0	0	0	0	0	0	0	0	0	0	0	0	0	0	0	0	0	0	0	0	0	0	0	0	0	0	0	0	0	0	0	0	0	0	0	0	0	0	0	0	0	0	0	0	0	1	2	5	6	6	6	5	5	5	5	5	5	5	5	5	5	5	5	5	5	5	5	5	5	5	6	6	6	6	6	6	6	6	6	6	6	6	6	6	6	6	6	6	5	5	6	6	6	6	6	6	6	6	6	6	6	6	6	6	6	6	6	6	6	6	6	7	7	6	6	6	7	10	15	22	30	34	36	39	42	43	45	46	47	49	51	54	57	59	62	64	65	67	70	70	68	65	62	61	60	61	61	61	61	61	61	61	61	61	61	61	61	61	61	61	61	61	66	72	77	82	87	92	97	102	107	113	118	124	129	133	138	142	147	151	154	157	160	162	165	167	169	171	172	174	175	177	179	180	182	184	186	187	188	190	191	193	195	196	196	195	195	195	195	194	194	194	195	195	195	195	196	196	196	196	197	197	198	198	198	199	200	201	201	202	202	200	198	196	193	190	187	184	181	180	179	178	176	174	173	172	171	169	166	163	160	156	154	153	152	152	153	153	155	157	159	162	164	167	168	168	167	165	164	163	161	159	158	157	155	153	150	148	146	144	142	140	140	140	141	142	144	146	148	151	153	155	156	158	159	158	157	155	153	151	149	147	145	144	142	140	137	135	132	130	127	124	120	117	113	111	108	105	102	99	96	93	91	90	89	87	84	82	81	80	79	79	77	76	75	73	72	71	70	68	67	66	65	64	63	62	61	60	59	58	57	55	54	52	50	49	47	44	41	37	34	31	30	29	29	29	30	31	32	33	34	35	36	37	38	39	40	41	42	42	43	42	41	40	37	33	29	26	24	23	23	25	26	28	29	30	31	32	31	30	29	28	27	26	26	27	28	29	31	32	33	34	34	35	35	36	36	36	36	35	33	32	31	30	30	29	28	26	25	24	22	20	18	17	16	15	15	15	15	15	15	15	16	16	17	18	19	20	22	23	24	25	27	28	29	31	32	34	35	36	37	38	40	41	42	42	42	42	42	43	43	43	42	42	42	41	41	41	41	41	40	40	40	40	40	40	40	40	41	41	40	40	39	39	38	38	37	36	34	31	29	27	26	24	24	23	24	24	24	24	25	27	28	29	30	30	30	30	30	30	30	30	30	30	30	30	30	30	30	30	30	29	29	29	29	29	29	28	28	28	28	28	28	27	27	27	27	27	26	26	26	26	26	26	26	26	26	25	25	24	24	22	20	18	16	15	13	12	11	10	8	7	7	7	7	7	7	7	7	7	7	7	7	7	7	7	7	7	7	7	7	7	7	7	7	7	8	8	8	7	7	7	7	7	7	7	7	7	7	7	7	7	7	7	6	6	6	6	6	6	6	6	6	6	6	6	5	5	5	5	5	5	5	5	5	5	5	5	5	5	5	4	4	4	4	5	3	1	0	0	0	0	0	0	0	0	0	0	0	0	0	0	0	0	0	0	0	0	0	0	0	0	0	0	0	0	0	0	0	0	0	0	0	0	0	0	0	0	0	0	0	0	0	0	0	0	0	0	0	0	0	0	0	0	0	0	0	0	0	0	0	0	0	0	0	0	0	0	0	0	0	0	0	0	6	6	6	6	6	6	6	6	6	6	6	6	5	5	5	5	5	5	5	5	5	5	6	6	6	6	6	7	7	7	7	7	7	7	7
0	0	0	0	0	0	0	0	0	0	0	0	0	0	0	0	0	0	0	0	0	0	0	0	0	0	0	0	0	0	0	0	0	0	0	0	0	0	0	0	0	0	0	0	0	0	0	0	0	0	0	0	0	0	0	0	0	0	0	0	0	0	0	0	0	0	0	0	0	0	0	0	0	0	0	0	0	0	0	0	0	0	0	0	0	0	0	0	0	0	0	0	0	0	0	0	0	0	0	0	0	0	0	0	0	0	0	0	0	0	0	0	0	0	0	0	0	0	0	1	6	9	7	9	15	27	38	49	58	61	63	66	68	71	72	73	73	73	73	73	73	73	74	74	74	74	74	74	74	74	74	74	74	74	74	74	75	75	75	75	75	75	75	74	73	70	68	66	64	51	40	35	31	25	19	15	9	4	0	0	0	0	0	0	0	0	0	0	0	0	0	0	0	0	0	0	0	0	0	0	0	0	0	0	0	0	0	0	0	0	0	0	0	0	0	0	0	0	0	0	0	0	0	0	0	0	0	0	0	0	0	0	0	0	0	0	0	0	0	0	0	0	0	0	0	0	0	0	0	0	0	0	0	0	0	0	0	0	0	0	0	0	0	0	0	0	0	0	0	0	0	0	0	0	0	0	0	0	0	0	0	0	0	0	0	1	2	3	5	6	6	6	6	6	6	5	5	5	5	5	5	5	5	5	5	5	5	5	5	6	6	6	6	6	6	6	6	6	6	6	6	6	6	6	6	6	6	6	6	6	6	6	6	6	6	6	6	6	6	6	6	6	6	6	6	6	6	6	6	6	6	6	7	7	6	6	6	9	15	22	28	33	35	37	38	39	41	42	44	45	46	49	52	55	57	59	61	63	65	68	69	66	63	61	61	61	61	61	61	61	61	61	61	61	61	61	61	61	61	61	61	60	62	67	73	78	83	88	93	98	103	108	113	119	124	129	133	138	142	146	150	154	157	160	163	165	168	170	171	173	175	176	178	179	181	183	184	186	187	188	189	191	193	194	195	194	194	193	193	193	193	192	192	193	193	193	193	193	194	194	195	195	196	196	197	197	198	199	200	200	201	202	201	198	196	193	191	188	185	182	180	178	176	173	171	170	170	168	166	164	161	158	156	154	152	151	151	152	153	154	156	158	161	163	165	167	168	168	166	165	164	163	161	159	158	156	154	152	150	147	145	143	141	140	140	140	141	143	145	147	150	152	154	155	157	158	157	155	153	151	149	147	145	143	141	140	138	135	133	131	128	125	122	119	115	113	110	107	104	101	99	96	93	90	87	86	84	83	82	81	80	80	79	77	75	74	73	71	71	70	69	68	67	66	65	64	62	62	61	60	60	59	57	55	53	51	50	48	45	41	37	34	31	30	29	29	29	30	31	32	32	33	34	35	36	36	37	38	38	39	40	40	39	38	36	33	30	26	23	21	21	21	22	24	25	27	28	29	29	29	28	27	26	24	24	23	24	25	26	28	29	30	31	32	33	33	34	34	34	34	33	32	30	29	29	28	27	26	25	24	23	21	19	17	16	15	15	15	15	15	15	15	15	15	15	16	17	18	19	20	20	22	23	24	26	27	29	31	32	34	35	36	38	39	41	41	41	42	42	42	42	43	43	42	42	41	41	41	41	41	41	40	40	40	40	40	40	40	40	41	41	40	40	39	39	38	37	37	35	33	31	29	27	25	23	22	22	22	22	23	24	25	26	27	29	30	30	30	30	30	30	30	30	30	30	30	30	30	30	30	30	29	29	29	29	29	29	28	28	28	28	28	28	28	27	27	27	27	27	26	26	26	26	26	26	26	26	25	25	25	24	23	20	18	16	15	13	12	10	9	8	7	7	7	7	7	7	7	7	7	7	7	7	7	7	7	7	7	7	7	7	7	7	7	7	7	7	7	7	7	7	7	7	7	7	7	7	7	7	7	7	7	7	7	6	6	6	6	6	6	6	6	6	6	6	6	5	5	5	5	5	5	5	5	5	5	5	5	5	5	5	5	4	4	4	4	4	2	0	0	0	0	0	0	0	0	0	0	0	0	0	0	0	0	0	0	0	0	0	0	0	0	0	0	0	0	0	0	0	0	0	0	0	0	0	0	0	0	0	0	0	0	0	0	0	0	0	0	0	0	0	0	0	0	0	0	0	0	0	0	0	0	0	0	0	0	0	0	0	0	0	0	0	0	6	6	6	6	6	6	6	6	6	6	6	6	6	5	5	5	5	5	5	5	5	5	5	6	6	6	6	6	7	7	7	7	7	7	7	7
0	0	0	0	0	0	0	0	0	0	0	0	0	0	0	0	0	0	0	0	0	0	0	0	0	0	0	0	0	0	0	0	0	0	0	0	0	0	0	0	0	0	0	0	0	0	0	0	0	0	0	0	0	0	0	0	0	0	0	0	0	0	0	0	0	0	0	0	0	0	0	0	0	0	0	0	0	0	0	0	0	0	0	0	0	0	0	0	0	0	0	0	0	0	0	0	0	0	0	0	0	0	0	0	0	0	0	0	0	0	0	0	0	0	0	0	0	0	0	0	0	0	1	4	9	8	9	13	22	34	45	54	60	63	65	68	70	72	73	73	73	73	73	73	73	73	74	74	74	74	74	74	74	74	74	74	74	74	74	74	74	74	74	74	74	74	74	73	71	68	65	65	56	45	37	32	27	21	15	9	6	2	0	0	0	0	0	0	0	0	0	0	0	0	0	0	0	0	0	0	0	0	0	0	0	0	0	0	0	0	0	0	0	0	0	0	0	0	0	0	0	0	0	0	0	0	0	0	0	0	0	0	0	0	0	0	0	0	0	0	0	0	0	0	0	0	0	0	0	0	0	0	0	0	0	0	0	0	0	0	0	0	0	0	0	0	0	0	0	0	0	0	0	0	0	0	0	0	0	0	0	0	0	0	0	1	3	4	6	6	6	6	6	6	6	6	6	6	5	5	5	5	5	5	5	5	5	6	6	6	6	6	6	6	6	6	6	6	6	6	6	6	6	6	6	6	6	6	6	6	6	6	6	6	6	6	6	6	6	6	6	6	6	6	6	6	6	6	6	6	6	6	6	6	6	6	7	13	18	24	30	32	33	34	36	37	39	40	41	42	44	47	50	53	55	57	59	61	63	66	67	64	62	61	60	61	61	61	61	61	61	61	61	61	61	61	61	61	61	61	61	61	62	68	74	79	84	89	94	99	104	109	114	119	124	129	133	137	141	146	149	153	156	159	162	166	169	170	171	173	175	177	178	180	181	183	184	185	187	188	189	191	192	193	193	192	192	191	191	191	191	190	191	191	191	191	191	191	192	192	193	193	194	195	195	196	197	198	198	199	200	201	201	199	196	193	191	188	186	183	181	178	175	172	170	169	168	166	164	161	159	156	154	152	150	150	150	151	152	153	155	157	160	162	164	166	167	168	167	166	165	164	163	161	159	158	155	153	151	149	147	145	143	141	140	140	141	142	144	147	149	151	152	154	155	156	155	153	151	149	147	145	143	141	139	138	136	134	131	129	127	124	121	117	114	111	109	106	104	101	98	96	93	90	87	85	83	83	83	83	82	81	79	77	75	73	72	71	70	69	69	68	67	66	65	64	63	62	62	61	60	60	58	56	54	52	49	47	45	42	37	33	31	30	29	28	29	29	30	31	32	32	33	33	34	35	35	35	36	36	36	36	35	34	31	29	26	23	20	19	19	20	21	22	23	24	25	26	27	26	25	24	23	22	21	20	20	21	22	24	26	27	28	29	30	31	31	32	32	32	31	30	29	29	28	27	26	25	24	23	22	20	18	16	15	15	15	15	15	15	15	15	15	15	15	15	15	16	17	18	19	20	21	22	24	26	28	30	31	33	34	36	37	39	41	41	41	42	42	42	42	42	42	42	42	41	41	41	41	41	41	40	40	40	40	40	40	40	40	40	41	40	40	39	38	38	37	36	34	32	30	28	26	24	22	21	21	21	21	22	23	25	26	27	28	29	30	30	30	30	30	30	30	30	30	30	30	30	30	30	29	29	29	29	29	29	29	28	28	28	28	28	28	28	27	27	27	27	27	26	26	26	26	26	26	25	25	25	24	24	24	22	19	17	15	14	12	10	8	8	7	7	7	7	7	7	7	7	7	7	7	7	7	7	7	7	7	7	7	7	7	7	7	7	7	7	7	7	7	7	7	7	7	7	7	7	7	7	7	7	7	7	7	6	6	6	6	6	6	6	6	6	6	6	6	5	5	5	5	5	5	5	5	5	5	5	5	5	5	5	5	5	4	4	4	5	3	1	0	0	0	0	0	0	0	0	0	0	0	0	0	0	0	0	0	0	0	0	0	0	0	0	0	0	0	0	0	0	0	0	0	0	0	0	0	0	0	0	0	0	0	0	0	0	0	0	0	0	0	0	0	0	0	0	0	0	0	0	0	0	0	0	0	0	0	0	0	0	0	0	0	0	0	1	6	6	6	6	6	6	6	6	6	6	6	6	5	5	5	5	5	5	4	4	5	5	5	6	6	6	6	6	7	7	7	7	7	7	7	7
0	0	0	0	0	0	0	0	0	0	0	0	0	0	0	0	0	0	0	0	0	0	0	0	0	0	0	0	0	0	0	0	0	0	0	0	0	0	0	0	0	0	0	0	0	0	0	0	0	0	0	0	0	0	0	0	0	0	0	0	0	0	0	0	0	0	0	0	0	0	0	0	0	0	0	0	0	0	0	0	0	0	0	0	0	0	0	0	0	0	0	0	0	0	0	0	0	0	0	0	0	0	0	0	0	0	0	0	0	0	0	0	0	0	0	0	0	0	0	0	0	0	0	0	0	0	2	6	9	7	12	17	30	42	53	59	62	64	67	69	71	72	73	73	73	73	73	73	73	74	74	74	74	74	74	74	74	74	74	74	74	74	74	74	74	74	74	74	74	74	74	72	69	66	65	62	49	38	34	27	23	18	12	5	3	0	0	0	0	0	0	0	0	0	0	0	0	0	0	0	0	0	0	0	0	0	0	0	0	0	0	0	0	0	0	0	0	0	0	0	0	0	0	0	0	0	0	0	0	0	0	0	0	0	0	0	0	0	0	0	0	0	0	0	0	0	0	0	0	0	0	0	0	0	0	0	0	0	0	0	0	0	0	0	0	0	0	0	0	0	0	0	0	0	0	0	0	0	0	0	0	0	0	0	0	2	3	4	6	6	6	6	6	6	6	6	6	6	6	6	6	6	6	6	6	6	6	6	6	6	6	6	6	6	6	6	6	6	6	6	6	6	6	6	6	6	6	6	6	6	6	6	6	6	6	6	6	6	6	6	6	6	6	6	6	6	6	6	6	6	6	7	6	6	6	6	11	17	22	27	30	30	31	32	33	35	37	38	40	41	43	45	48	50	53	55	57	59	61	64	65	63	61	61	61	61	61	61	61	61	61	61	61	61	61	61	61	61	61	61	60	61	63	69	74	80	85	90	95	100	105	109	114	120	125	129	133	137	141	145	149	152	156	159	162	166	169	170	171	172	174	176	178	180	182	183	184	185	186	188	189	190	191	191	191	190	190	189	189	189	189	188	188	188	189	189	189	189	190	190	190	191	192	193	194	195	195	196	197	198	199	200	200	199	196	194	191	190	188	185	181	179	176	173	171	169	166	164	161	159	157	155	153	150	149	149	149	151	152	153	155	157	159	161	163	165	166	167	167	166	165	164	164	163	161	159	157	155	153	151	149	147	145	143	141	140	140	141	143	146	148	149	151	152	152	153	153	151	149	148	146	143	141	139	137	135	134	132	129	127	125	122	119	116	113	110	108	105	103	100	98	96	93	90	87	85	84	84	84	84	83	82	80	78	76	74	72	71	70	69	68	68	67	66	65	65	63	63	62	61	61	60	58	56	53	51	49	47	45	41	37	33	31	30	29	28	28	29	30	30	31	32	32	32	33	33	33	33	33	33	32	32	31	29	27	25	23	20	19	18	18	18	19	20	20	21	22	23	24	23	23	22	20	19	18	17	17	17	18	20	22	24	25	27	28	28	29	29	30	30	29	29	28	27	27	26	25	24	23	22	21	19	17	15	15	15	15	15	15	15	15	14	14	14	14	14	15	15	16	17	18	18	19	20	22	24	26	29	31	32	34	36	38	39	41	41	41	41	42	42	42	42	42	42	41	41	41	41	41	41	41	40	40	40	40	40	40	40	40	40	40	40	40	39	38	37	36	35	33	32	30	27	25	23	21	20	20	20	20	21	22	24	25	27	28	29	29	30	30	30	30	30	30	29	29	29	29	29	29	29	29	29	29	29	29	28	28	28	28	28	28	28	28	27	27	27	27	27	27	27	26	26	26	26	25	25	25	24	24	24	24	22	20	18	16	14	12	9	8	7	7	7	7	7	7	7	7	7	7	7	7	7	7	7	7	7	7	7	7	7	7	7	7	7	7	7	7	7	7	7	7	7	7	7	7	7	7	7	7	7	7	7	7	6	6	6	6	6	6	6	6	6	6	5	5	5	5	5	5	5	5	5	5	5	5	5	5	5	5	5	5	4	4	4	4	4	2	0	0	0	0	0	0	0	0	0	0	0	0	0	0	0	0	0	0	0	0	0	0	0	0	0	0	0	0	0	0	0	0	0	0	0	0	0	0	0	0	0	0	0	0	0	0	0	0	0	0	0	0	0	0	0	0	0	0	0	0	0	0	0	0	0	0	0	0	0	0	0	0	0	0	0	1	3	6	6	6	6	6	6	6	6	6	6	6	6	5	5	5	5	5	5	4	4	5	5	5	5	6	6	6	6	6	7	7	7	7	7	7	7
0	0	0	0	0	0	0	0	0	0	0	0	0	0	0	0	0	0	0	0	0	0	0	0	0	0	0	0	0	0	0	0	0	0	0	0	0	0	0	0	0	0	0	0	0	0	0	0	0	0	0	0	0	0	0	0	0	0	0	0	0	0	0	0	0	0	0	0	0	0	0	0	0	0	0	0	0	0	0	0	0	0	0	0	0	0	0	0	0	0	0	0	0	0	0	0	0	0	0	0	0	0	0	0	0	0	0	0	0	0	0	0	0	0	0	0	0	0	0	0	0	0	0	0	0	0	0	0	0	1	5	8	9	10	18	27	38	48	55	61	63	66	68	71	72	73	73	73	73	73	73	73	73	74	74	74	74	74	74	74	74	74	74	74	74	74	74	74	74	74	74	74	74	74	72	70	67	65	57	50	41	35	30	24	20	14	9	4	2	0	0	0	0	0	0	0	0	0	0	0	0	0	0	0	0	0	0	0	0	0	0	0	0	0	0	0	0	0	0	0	0	0	0	0	0	0	0	0	0	0	0	0	0	0	0	0	0	0	0	0	0	0	0	0	0	0	0	0	0	0	0	0	0	0	0	0	0	0	0	0	0	0	0	0	0	0	0	0	0	0	0	0	0	0	0	0	0	0	0	0	0	0	0	0	0	1	3	4	5	6	6	6	6	6	6	6	6	6	6	6	6	6	6	6	6	6	6	6	6	6	6	6	6	6	6	6	6	6	6	6	6	6	6	6	6	6	6	6	6	6	6	6	6	6	6	6	6	6	6	6	6	6	6	6	6	6	6	6	6	6	7	7	6	6	6	9	14	20	25	27	28	29	30	31	32	34	36	38	41	43	44	46	47	49	51	53	55	57	59	62	63	62	61	61	61	61	61	61	61	61	61	61	61	61	61	61	61	61	60	61	60	61	64	70	75	80	85	91	96	100	105	110	115	120	125	129	133	137	141	145	148	152	155	159	162	165	168	169	170	172	174	175	177	179	181	183	183	184	186	187	188	189	190	190	189	189	188	188	187	187	186	186	186	186	186	186	187	187	187	188	188	189	190	191	192	193	194	195	196	196	197	198	198	198	196	194	192	191	189	185	182	179	176	174	171	169	166	163	160	158	156	154	152	150	149	148	148	150	152	153	155	157	160	162	164	165	166	167	167	167	166	165	164	164	163	161	159	156	154	152	150	148	146	144	142	140	140	141	143	145	146	148	149	149	150	150	150	149	147	147	145	143	140	138	136	134	132	130	128	125	123	120	117	114	112	109	107	104	102	99	97	95	93	90	88	87	86	86	85	84	84	83	81	78	76	74	72	71	70	69	68	67	66	66	66	65	64	63	62	61	61	60	58	55	53	50	48	46	44	40	36	32	31	29	28	28	28	28	29	30	30	31	31	31	31	31	31	30	30	30	29	28	27	26	24	22	20	19	18	18	17	17	18	18	18	18	19	19	20	20	19	18	16	16	15	14	13	13	14	16	18	20	22	24	25	26	26	27	28	28	28	27	27	26	26	25	24	23	22	21	20	18	16	15	15	15	15	15	15	15	14	14	14	15	14	14	14	15	15	16	17	17	18	20	21	23	26	28	30	32	34	35	37	39	41	41	41	41	41	42	42	42	42	42	41	41	41	41	41	41	41	40	40	40	40	40	40	40	40	40	40	40	40	38	37	35	35	34	32	31	29	26	24	22	20	20	19	20	20	20	22	23	25	26	27	28	29	29	29	29	29	29	29	29	29	29	29	29	29	29	29	29	29	28	28	28	28	28	28	28	28	28	28	27	27	27	27	27	27	27	26	26	26	25	25	25	25	24	24	24	24	23	21	19	17	15	12	10	8	7	7	7	7	7	7	7	7	7	7	7	7	7	7	7	7	7	7	7	7	6	6	6	7	7	7	7	7	7	7	7	7	7	7	7	7	7	7	7	7	7	7	7	7	7	6	6	6	6	6	6	6	6	6	5	5	5	5	5	5	5	5	5	5	5	5	5	5	5	5	5	5	4	4	4	4	4	1	0	0	0	0	0	0	0	0	0	0	0	0	0	0	0	0	0	0	0	0	0	0	0	0	0	0	0	0	0	0	0	0	0	0	0	0	0	0	0	0	0	0	0	0	0	0	0	0	0	0	0	0	0	0	0	0	0	0	0	0	0	0	0	0	0	0	0	0	0	0	0	0	0	0	1	3	5	6	6	6	6	6	6	6	6	6	6	6	5	5	5	5	5	5	5	5	5	5	5	5	5	6	6	6	6	6	6	7	7	7	7	7	7
0	0	0	0	0	0	0	0	0	0	0	0	0	0	0	0	0	0	0	0	0	0	0	0	0	0	0	0	0	0	0	0	0	0	0	0	0	0	0	0	0	0	0	0	0	0	0	0	0	0	0	0	0	0	0	0	0	0	0	0	0	0	0	0	0	0	0	0	0	0	0	0	0	0	0	0	0	0	0	0	0	0	0	0	0	0	0	0	0	0	0	0	0	0	0	0	0	0	0	0	0	0	0	0	0	0	0	0	0	0	0	0	0	0	0	0	0	0	0	0	0	0	0	0	0	0	0	0	0	0	0	0	0	2	8	6	8	13	17	32	44	52	60	63	65	67	70	72	72	73	73	73	73	73	73	73	74	74	74	74	74	74	74	74	74	74	74	74	74	74	74	74	74	74	74	74	74	73	71	68	64	64	50	44	37	32	26	21	16	10	5	2	0	0	0	0	0	0	0	0	0	0	0	0	0	0	0	0	0	0	0	0	0	0	0	0	0	0	0	0	0	0	0	0	0	0	0	0	0	0	0	0	0	0	0	0	0	0	0	0	0	0	0	0	0	0	0	0	0	0	0	0	0	0	0	0	0	0	0	0	0	0	0	0	0	0	0	0	0	0	0	0	0	0	0	0	0	0	0	0	0	0	0	0	0	1	3	4	6	6	6	6	6	6	6	6	6	6	6	6	6	6	6	6	6	6	6	6	6	6	6	6	6	6	6	6	6	6	6	6	6	6	6	6	6	6	6	6	6	6	6	6	6	6	6	6	6	6	6	6	6	6	6	6	6	6	6	6	6	7	7	7	6	6	7	11	17	22	25	25	27	28	29	31	33	35	38	40	43	45	47	48	49	51	52	53	54	55	58	60	61	61	61	61	61	61	61	61	61	61	61	61	61	61	61	61	61	61	61	61	61	61	65	71	76	81	86	92	96	101	106	111	116	121	126	130	133	136	140	144	148	152	155	158	161	164	166	168	170	171	173	175	177	178	180	182	183	184	185	186	188	189	189	188	188	187	187	186	185	185	184	184	184	184	184	184	184	184	185	185	186	187	188	189	190	191	192	193	193	194	195	196	196	197	196	194	193	191	188	185	182	179	177	174	172	169	166	163	160	157	155	154	152	150	149	147	147	149	151	153	155	157	160	162	164	165	165	167	167	168	167	166	165	164	163	162	160	158	156	154	152	150	147	144	142	141	140	140	142	143	145	146	147	147	147	148	147	146	145	145	144	142	140	137	135	133	130	128	126	123	121	119	116	113	111	108	106	103	101	98	96	94	92	90	89	89	88	87	86	85	84	83	81	79	76	74	72	70	70	69	68	67	66	66	65	65	64	63	62	62	61	60	57	54	51	49	47	44	42	39	35	32	30	29	28	27	27	27	28	29	29	30	30	30	30	29	28	28	27	27	26	26	24	23	21	20	19	18	18	17	17	17	17	17	17	17	16	16	16	16	16	15	14	14	13	12	11	11	12	13	14	17	19	21	23	23	24	25	25	26	26	26	26	25	24	24	23	22	21	20	19	17	15	15	15	15	15	15	14	14	14	14	15	14	14	14	14	14	14	15	16	17	18	19	21	23	25	27	29	31	33	35	37	39	41	41	41	41	41	41	42	42	42	41	41	41	41	41	41	41	41	41	40	40	40	40	40	40	40	40	40	40	40	38	35	34	34	33	32	30	28	25	22	20	19	19	19	19	19	20	21	23	24	26	27	28	29	29	29	29	29	29	29	29	29	29	29	29	29	29	29	29	28	28	28	28	28	28	28	28	28	28	28	27	27	27	27	27	27	26	26	25	25	25	25	25	24	24	24	24	24	23	22	19	17	15	13	10	8	7	7	7	7	7	7	7	7	7	7	7	7	7	7	7	7	7	7	6	6	6	6	6	6	7	7	7	7	7	7	7	7	7	7	7	7	7	7	7	7	7	6	7	7	7	7	6	6	6	6	6	6	6	6	5	5	5	5	5	5	5	5	5	5	5	5	5	5	5	5	5	5	4	4	4	4	3	0	0	0	0	0	0	0	0	0	0	0	0	0	0	0	0	0	0	0	0	0	0	0	0	0	0	0	0	0	0	0	0	0	0	0	0	0	0	0	0	0	0	0	0	0	0	0	0	0	0	0	0	0	0	0	0	0	0	0	0	0	0	0	0	0	0	0	0	0	0	0	0	0	0	2	5	6	6	6	6	6	6	6	6	6	6	6	6	6	5	5	5	5	5	5	5	5	5	5	5	5	5	5	6	6	6	6	6	7	7	7	7	7	7
0	0	0	0	0	0	0	0	0	0	0	0	0	0	0	0	0	0	0	0	0	0	0	0	0	0	0	0	0	0	0	0	0	0	0	0	0	0	0	0	0	0	0	0	0	0	0	0	0	0	0	0	0	0	0	0	0	0	0	0	0	0	0	0	0	0	0	0	0	0	0	0	0	0	0	0	0	0	0	0	0	0	0	0	0	0	0	0	0	0	0	0	0	0	0	0	0	0	0	0	0	0	0	0	0	0	0	0	0	0	0	0	0	0	0	0	0	0	0	0	0	0	0	0	0	0	0	0	0	0	0	0	0	0	0	1	1	5	7	8	11	17	25	37	47	56	61	64	67	69	71	72	73	73	73	73	73	73	73	73	74	74	74	74	74	74	74	74	74	74	74	74	74	74	74	74	74	74	74	74	73	71	68	65	58	53	45	39	35	29	23	18	13	7	2	1	0	0	0	0	0	0	0	0	0	0	0	0	0	0	0	0	0	0	0	0	0	0	0	0	0	0	0	0	0	0	0	0	0	0	0	0	0	0	0	0	0	0	0	0	0	0	0	0	0	0	0	0	0	0	0	0	0	0	0	0	0	0	0	0	0	0	0	0	0	0	0	0	0	0	0	0	0	0	0	0	0	0	0	0	0	0	0	0	0	1	3	4	6	6	6	6	6	6	6	6	6	6	6	6	6	6	6	6	6	6	6	6	6	6	6	6	6	6	6	6	6	6	6	6	6	6	6	6	6	6	6	6	6	6	6	6	6	6	6	6	6	6	6	6	6	6	6	6	6	6	6	6	6	7	7	7	6	6	9	13	18	21	23	25	27	29	30	32	34	37	40	42	45	47	49	51	52	53	55	55	56	56	57	59	60	61	60	61	60	60	61	61	61	61	61	61	61	61	61	61	61	60	61	61	61	62	66	72	77	82	87	92	97	102	107	112	116	121	126	129	133	136	140	145	149	152	155	158	160	163	165	167	168	170	172	174	175	177	179	181	182	183	185	186	187	188	188	187	186	186	185	185	184	183	182	182	181	181	181	181	182	182	182	183	184	184	186	187	188	189	190	191	191	192	193	193	194	195	194	194	192	190	187	184	181	179	177	174	172	169	166	163	160	158	156	154	152	150	148	146	146	148	150	152	154	157	160	162	164	164	165	166	167	167	167	166	165	165	164	163	161	159	157	155	153	150	147	145	142	140	139	139	141	142	143	144	144	145	145	145	145	144	143	143	142	141	139	136	134	132	129	127	124	122	120	117	115	112	110	107	105	102	100	98	96	94	92	92	91	90	90	88	87	86	85	83	81	78	76	74	72	70	69	68	68	67	66	66	65	64	64	63	62	62	61	59	57	53	50	47	45	42	40	37	34	32	30	29	28	27	26	27	27	28	29	29	29	28	28	27	26	25	25	25	24	23	22	20	19	18	18	18	18	18	18	18	18	18	18	18	18	18	18	17	17	17	16	15	15	14	13	11	11	11	12	13	15	17	20	21	22	23	24	24	24	24	24	24	23	23	22	21	20	19	17	16	15	15	15	15	15	14	14	14	14	15	14	14	14	14	14	14	14	14	15	16	17	18	20	22	25	27	29	31	33	35	37	39	40	41	41	41	41	41	42	42	42	41	41	41	41	41	41	41	41	41	40	40	40	40	40	40	40	40	40	39	38	36	35	33	32	31	30	28	26	23	21	20	19	19	18	19	19	20	21	22	24	26	27	28	28	29	28	28	29	29	29	29	28	28	28	28	28	28	28	28	28	28	28	28	28	28	28	28	28	28	28	27	27	27	27	27	27	26	25	25	25	25	24	24	24	24	24	23	23	23	22	20	18	16	14	11	9	7	7	7	7	7	7	7	7	7	7	7	7	7	7	7	7	6	6	6	6	6	6	6	6	6	6	7	7	7	7	7	7	7	7	7	7	7	6	7	7	6	6	6	7	7	7	6	6	6	6	6	6	6	6	6	5	5	5	5	5	5	5	5	5	5	5	5	5	5	5	5	5	4	4	5	4	2	0	0	0	0	0	0	0	0	0	0	0	0	0	0	0	0	0	0	0	0	0	0	0	0	0	0	0	0	0	0	0	0	0	0	0	0	0	0	0	0	0	0	0	0	0	0	0	0	0	0	0	0	0	0	0	0	0	0	0	0	0	0	0	0	0	0	0	0	0	0	0	0	1	4	6	6	6	6	6	6	6	6	6	6	6	6	6	6	6	5	5	5	5	5	5	5	5	5	5	5	5	5	5	6	6	6	6	6	6	7	7	7	6	6
0	0	0	0	0	0	0	0	0	0	0	0	0	0	0	0	0	0	0	0	0	0	0	0	0	0	0	0	0	0	0	0	0	0	0	0	0	0	0	0	0	0	0	0	0	0	0	0	0	0	0	0	0	0	0	0	0	0	0	0	0	0	0	0	0	0	0	0	0	0	0	0	0	0	0	0	0	0	0	0	0	0	0	0	0	0	0	0	0	0	0	0	0	0	0	0	0	0	0	0	0	0	0	0	0	0	0	0	0	0	0	0	0	0	0	0	0	0	0	0	0	0	0	0	0	0	0	0	0	0	0	0	0	0	0	0	0	0	0	1	2	8	7	9	14	17	31	42	51	60	63	66	68	70	72	72	73	73	73	73	73	73	73	73	74	74	74	74	74	74	74	74	74	74	74	74	74	74	74	74	74	74	74	74	72	69	66	62	57	47	41	36	30	25	20	14	9	5	0	0	0	0	0	0	0	0	0	0	0	0	0	0	0	0	0	0	0	0	0	0	0	0	0	0	0	0	0	0	0	0	0	0	0	0	0	0	0	0	0	0	0	0	0	0	0	0	0	0	0	0	0	0	0	0	0	0	0	0	0	0	0	0	0	0	0	0	0	0	0	0	0	0	0	0	0	0	0	0	0	0	0	0	0	0	0	1	3	5	6	6	6	6	6	6	6	6	6	6	6	6	6	6	6	6	6	6	6	6	6	6	6	6	6	6	6	6	6	6	6	6	6	6	6	6	6	6	6	6	6	6	6	6	6	6	6	6	6	6	6	6	6	6	6	6	6	6	6	6	7	7	7	6	6	7	11	15	19	23	25	27	29	31	33	35	37	39	42	44	47	49	51	53	55	56	57	58	58	58	59	59	60	61	61	61	61	61	61	60	61	61	61	61	61	61	61	61	61	61	61	61	61	63	67	72	77	83	88	93	98	103	108	112	117	121	125	129	132	136	140	145	149	152	154	156	159	161	163	165	167	169	171	172	174	176	178	179	181	183	184	185	186	187	187	186	185	185	184	183	182	181	180	179	179	179	179	179	179	180	180	180	181	182	183	184	186	187	188	188	189	190	191	191	192	192	193	192	191	189	186	183	181	178	176	174	172	169	166	163	161	158	156	154	152	150	148	145	145	147	149	151	153	156	159	161	163	164	165	165	166	167	167	167	166	165	164	163	162	160	158	156	153	150	147	144	141	139	137	137	138	140	141	142	142	142	142	142	142	142	142	142	141	140	137	135	133	131	129	126	123	121	118	116	113	111	109	106	104	101	99	97	95	94	94	94	93	92	91	89	87	86	85	82	80	78	75	73	71	69	68	67	67	66	65	65	64	63	63	62	62	61	60	58	55	52	48	45	43	41	38	36	33	31	30	29	28	27	26	26	27	27	28	28	28	27	26	25	24	23	22	22	21	20	20	19	18	18	18	18	19	19	19	19	19	19	19	20	20	20	20	19	19	19	18	18	17	16	15	13	12	11	10	11	12	13	16	18	20	21	22	22	23	23	23	22	22	21	21	20	19	18	16	15	15	15	15	15	14	14	14	15	14	14	14	14	14	14	14	14	14	14	15	15	16	18	20	22	24	26	28	30	32	34	36	38	40	41	41	41	41	41	41	41	41	41	41	41	41	41	41	41	41	41	41	41	40	40	40	40	40	39	38	37	36	35	34	32	31	30	28	26	24	22	20	19	19	18	18	18	19	19	20	22	24	25	27	27	28	28	28	28	28	28	28	28	28	28	28	28	28	28	28	28	28	28	28	28	28	28	28	28	27	27	27	27	27	27	27	27	26	26	25	25	25	25	24	24	24	24	23	23	23	22	22	21	19	17	15	12	9	7	7	7	7	7	7	7	7	7	7	7	7	7	7	7	6	6	6	6	6	6	6	6	6	6	6	6	7	7	7	7	7	7	7	6	6	6	6	6	6	6	6	6	6	7	7	7	6	6	6	6	6	6	6	6	5	5	5	5	5	5	5	5	5	5	5	5	5	5	5	5	4	4	4	4	3	1	0	0	0	0	0	0	0	0	0	0	0	0	0	0	0	0	0	0	0	0	0	0	0	0	0	0	0	0	0	0	0	0	0	0	0	0	0	0	0	0	0	0	0	0	0	0	0	0	0	0	0	0	0	0	0	0	0	0	0	0	0	0	0	0	0	0	0	0	0	0	0	0	3	6	6	6	6	6	6	6	6	6	6	6	6	6	6	6	6	5	5	5	5	5	5	5	5	5	5	5	5	5	5	6	6	6	6	6	6	7	7	6	6	6
0	0	0	0	0	0	0	0	0	0	0	0	0	0	0	0	0	0	0	0	0	0	0	0	0	0	0	0	0	0	0	0	0	0	0	0	0	0	0	0	0	0	0	0	0	0	0	0	0	0	0	0	0	0	0	0	0	0	0	0	0	0	0	0	0	0	0	0	0	0	0	0	0	0	0	0	0	0	0	0	0	0	0	0	0	0	0	0	0	0	0	0	0	0	0	0	0	0	0	0	0	0	0	0	0	0	0	0	0	0	0	0	0	0	0	0	0	0	0	0	0	0	0	0	0	0	0	0	0	0	0	0	0	0	0	0	0	0	0	0	0	0	1	4	3	7	9	12	15	25	35	46	56	61	65	68	70	71	72	73	73	73	73	73	73	73	73	74	74	74	74	74	74	74	74	74	74	74	74	74	74	74	74	74	74	74	74	72	69	67	62	56	50	43	37	32	27	22	16	11	6	2	0	0	0	0	0	0	0	0	0	0	0	0	0	0	0	0	0	0	0	0	0	0	0	0	0	0	0	0	0	0	0	0	0	0	0	0	0	0	0	0	0	0	0	0	0	0	0	0	0	0	0	0	0	0	0	0	0	0	0	0	0	0	0	0	0	0	0	0	0	0	0	0	0	0	0	0	0	0	0	0	0	0	0	2	4	5	6	6	6	6	6	6	6	6	6	6	6	6	6	6	6	6	6	6	6	6	6	6	6	6	6	7	7	7	7	7	6	6	6	6	6	6	6	6	6	6	6	6	6	6	6	6	6	6	6	6	6	6	6	6	6	6	6	6	6	6	7	7	7	6	6	9	13	17	22	25	28	30	32	34	36	38	40	42	44	46	49	51	53	55	57	58	59	59	59	59	59	60	61	61	61	61	61	61	61	61	61	60	61	61	61	61	61	61	61	61	61	62	62	64	68	73	78	84	89	94	99	104	109	113	117	120	124	128	132	136	140	145	149	151	153	155	158	160	162	163	165	167	169	171	173	175	177	178	180	182	183	184	185	186	187	186	184	183	182	181	180	179	178	177	176	176	176	176	177	177	177	178	179	179	180	181	183	184	184	185	186	187	188	189	190	190	190	190	189	187	185	182	180	178	176	173	171	169	166	163	161	158	155	153	152	150	146	143	144	146	148	150	152	154	157	160	162	163	164	165	165	166	167	167	166	165	164	163	162	160	158	156	153	150	146	143	139	136	134	134	135	136	138	139	139	139	139	139	140	141	141	141	141	139	136	134	132	130	127	125	122	119	116	114	112	110	108	106	103	100	98	97	96	96	96	95	94	93	91	89	87	86	84	81	79	77	74	72	70	69	67	66	65	65	64	63	63	62	62	61	61	60	59	57	54	50	47	44	41	39	37	35	32	31	30	28	27	26	25	25	26	27	27	27	26	26	25	24	22	21	20	20	19	19	18	18	18	18	19	19	19	20	20	20	20	21	21	21	22	22	22	22	22	21	21	20	19	18	17	15	14	12	11	10	10	10	12	14	16	18	19	20	21	21	21	21	21	20	20	19	18	17	16	15	15	15	15	14	14	14	15	15	14	14	14	14	14	13	13	14	14	14	14	15	16	18	20	22	24	26	28	30	32	34	36	38	40	41	41	41	41	41	41	42	41	41	41	41	41	41	41	41	41	41	40	40	39	39	38	38	37	37	36	34	33	33	32	31	29	28	26	24	22	20	19	18	18	17	17	18	18	19	20	21	23	25	27	27	27	28	28	28	28	28	28	28	28	28	28	28	28	28	28	28	28	28	28	28	27	27	27	27	27	27	27	27	27	26	26	26	26	26	25	25	24	24	24	24	23	23	23	23	22	22	22	22	21	18	16	13	9	8	7	7	7	7	7	7	7	7	7	7	7	7	7	7	6	6	6	6	6	6	6	6	6	6	6	6	6	6	6	6	6	6	6	6	6	6	6	6	6	6	6	6	6	6	6	6	6	6	6	6	6	6	6	6	6	5	5	5	5	5	5	5	5	5	5	5	5	5	5	5	4	4	5	4	2	0	0	0	0	0	0	0	0	0	0	0	0	0	0	0	0	0	0	0	0	0	0	0	0	0	0	0	0	0	0	0	0	0	0	0	0	0	0	0	0	0	0	0	0	0	0	0	0	0	0	0	0	0	0	0	0	0	0	0	0	0	0	0	0	0	0	0	0	0	0	0	0	1	4	6	6	6	6	6	6	7	6	6	6	6	6	6	6	6	6	5	5	5	5	5	5	5	5	5	5	5	5	5	5	6	6	6	6	6	6	7	7	6	6	5
0	0	0	0	0	0	0	0	0	0	0	0	0	0	0	0	0	0	0	0	0	0	0	0	0	0	0	0	0	0	0	0	0	0	0	0	0	0	0	0	0	0	0	0	0	0	0	0	0	0	0	0	0	0	0	0	0	0	0	0	0	0	0	0	0	0	0	0	0	0	0	0	0	0	0	0	0	0	0	0	0	0	0	0	0	0	0	0	0	0	0	0	0	0	0	0	0	0	0	0	0	0	0	0	0	0	0	0	0	0	0	0	0	0	0	0	0	0	0	0	0	0	0	0	0	0	0	0	0	0	0	0	0	0	0	0	0	0	0	0	0	0	0	0	0	0	2	7	5	7	10	14	18	30	38	51	59	64	66	69	71	72	73	73	73	73	73	73	73	73	73	74	74	74	74	74	74	74	74	74	74	74	74	74	74	74	74	74	74	74	73	71	67	64	62	51	40	40	34	29	23	19	13	7	4	0	0	0	0	0	0	0	0	0	0	0	0	0	0	0	0	0	0	0	0	0	0	0	0	0	0	0	0	0	0	0	0	0	0	0	0	0	0	0	0	0	0	0	0	0	0	0	0	0	0	0	0	0	0	0	0	0	0	0	0	0	0	0	0	0	0	0	0	0	0	0	0	0	0	0	0	0	0	0	1	3	4	6	6	7	7	7	7	7	6	6	6	6	6	6	6	6	6	6	6	6	6	6	6	6	7	7	7	7	7	7	7	7	7	7	7	7	7	7	7	7	7	7	6	6	6	6	6	6	6	6	6	6	6	6	6	6	6	6	6	6	6	7	7	7	7	6	7	11	15	20	24	27	30	33	35	37	39	41	43	44	46	49	51	53	56	58	59	60	60	60	60	60	60	60	61	61	61	61	61	61	61	61	61	61	60	61	61	61	61	61	60	61	61	62	62	64	69	74	79	84	89	94	100	105	109	113	116	120	123	126	130	135	140	145	149	151	152	154	156	158	159	161	163	166	168	170	172	174	176	178	179	181	183	184	185	186	187	186	184	183	181	180	179	178	176	175	174	174	174	174	174	174	175	175	176	176	177	178	179	180	181	182	183	184	185	186	187	187	187	187	186	185	184	181	179	177	175	173	170	168	165	163	160	157	155	152	150	148	145	142	143	145	147	149	151	153	155	157	160	162	163	164	164	165	166	166	166	165	164	163	161	159	157	155	152	148	145	141	137	133	130	130	131	133	134	135	136	137	137	137	138	140	141	141	140	138	136	133	131	128	126	123	120	117	115	113	111	109	107	105	102	100	99	98	97	97	97	95	94	92	90	88	86	84	82	80	78	76	73	71	69	68	66	65	64	63	62	62	61	61	61	60	60	59	57	55	52	49	46	43	41	38	36	34	31	30	29	28	27	26	25	25	26	26	26	26	25	25	25	23	22	20	19	19	18	18	18	18	19	19	19	20	20	21	21	22	22	23	23	24	24	25	25	25	24	24	23	22	21	20	19	17	16	14	12	11	10	9	10	11	12	14	16	17	18	19	19	19	19	19	19	18	17	16	15	15	15	15	14	14	14	15	15	14	14	14	14	14	13	13	13	13	14	14	14	15	16	17	19	21	23	25	27	29	31	33	35	37	39	40	41	41	41	41	41	41	41	41	41	41	41	41	41	41	41	40	39	38	37	36	35	35	34	34	33	32	31	30	29	28	27	25	23	21	20	18	18	17	17	16	16	17	18	19	19	21	23	25	26	27	27	27	27	27	28	28	27	27	27	27	27	27	27	27	27	27	27	28	27	27	27	27	27	27	27	26	26	26	26	26	26	26	26	25	25	24	24	24	24	23	23	23	23	22	22	22	22	22	22	20	17	14	11	8	7	7	7	7	7	7	7	7	7	7	7	7	7	6	6	6	6	6	6	6	6	6	6	6	6	6	6	6	6	6	6	6	6	6	6	6	6	6	6	6	6	6	6	6	6	6	6	6	6	6	6	6	6	6	6	6	5	5	5	5	5	5	5	5	5	5	5	5	5	5	5	4	5	3	1	0	0	0	0	0	0	0	0	0	0	0	0	0	0	0	0	0	0	0	0	0	0	0	0	0	0	0	0	0	0	0	0	0	0	0	0	0	0	0	0	0	0	0	0	0	0	0	0	0	0	0	0	0	0	0	0	0	0	0	0	0	0	0	0	0	0	0	0	0	0	0	0	2	5	6	6	6	6	6	7	7	7	7	7	7	7	6	6	6	6	5	5	5	5	5	5	5	5	5	5	5	5	5	5	6	6	6	6	6	6	7	7	6	5	4
0	0	0	0	0	0	0	0	0	0	0	0	0	0	0	0	0	0	0	0	0	0	0	0	0	0	0	0	0	0	0	0	0	0	0	0	0	0	0	0	0	0	0	0	0	0	0	0	0	0	0	0	0	0	0	0	0	0	0	0	0	0	0	0	0	0	0	0	0	0	0	0	0	0	0	0	0	0	0	0	0	0	0	0	0	0	0	0	0	0	0	0	0	0	0	0	0	0	0	0	0	0	0	0	0	0	0	0	0	0	0	0	0	0	0	0	0	0	0	0	0	0	0	0	0	0	0	0	0	0	0	0	0	0	0	0	0	0	0	0	0	0	0	0	0	0	0	0	0	1	5	6	7	9	12	16	25	33	44	54	61	66	68	70	72	72	73	73	73	73	73	73	73	73	74	74	74	74	74	74	74	74	74	74	74	74	74	74	74	74	74	74	74	73	71	67	62	59	55	46	40	36	31	25	20	15	9	5	2	0	0	0	0	0	0	0	0	0	0	0	0	0	0	0	0	0	0	0	0	0	0	0	0	0	0	0	0	0	0	0	0	0	0	0	0	0	0	0	0	0	0	0	0	0	0	0	0	0	0	0	0	0	0	0	0	0	0	0	0	0	0	0	0	0	0	0	0	0	0	0	0	0	0	0	2	3	5	6	7	7	7	7	7	7	7	6	6	6	6	6	6	6	6	6	6	6	6	6	6	7	7	7	7	7	7	7	7	7	7	7	7	7	7	7	7	7	7	7	7	7	6	6	6	6	6	6	6	6	6	6	6	6	6	6	6	6	6	7	7	7	6	6	9	13	18	22	26	30	33	36	39	41	42	44	46	47	49	51	53	56	58	60	61	61	61	61	61	61	61	61	60	61	61	61	61	61	61	61	61	61	61	61	60	61	61	61	61	61	62	62	62	65	70	74	79	85	90	95	100	105	109	112	115	118	121	125	129	134	139	143	147	150	151	153	154	156	158	160	162	164	167	169	171	173	175	177	179	180	182	183	184	185	187	186	185	183	181	180	179	177	176	175	174	173	173	172	172	172	172	173	173	174	174	175	176	177	178	179	180	181	182	183	183	184	183	183	183	183	182	180	178	176	174	172	169	167	164	161	159	156	153	151	148	145	142	140	141	143	145	147	149	151	153	155	158	160	162	163	163	164	164	164	164	164	163	161	160	157	155	153	150	147	143	139	135	130	127	127	127	129	131	132	133	134	134	135	136	138	140	140	140	138	136	133	130	127	125	121	119	117	114	112	111	108	106	104	102	100	99	98	98	98	97	95	93	92	89	86	84	83	81	79	77	75	72	70	68	66	64	63	62	61	60	60	59	59	58	58	57	56	55	53	51	49	46	44	41	38	35	32	30	28	28	27	26	25	25	25	25	25	25	25	25	25	24	23	22	20	19	18	18	18	19	19	19	20	20	21	22	23	23	24	25	25	26	27	27	27	28	28	27	27	26	25	24	23	21	20	18	16	14	12	11	10	9	9	10	11	12	14	15	16	17	17	18	18	18	17	17	16	15	15	15	14	14	14	15	14	14	14	14	14	14	13	13	13	13	13	13	13	14	15	16	17	19	21	23	25	27	28	30	32	34	35	37	39	40	41	41	41	41	41	41	41	41	41	41	41	41	41	41	39	37	35	34	33	33	32	31	31	30	29	28	28	26	25	24	22	21	19	18	17	16	16	16	16	16	16	17	18	19	20	22	24	25	26	26	27	27	27	27	27	27	27	27	27	27	27	27	27	27	27	27	27	27	27	27	26	26	26	26	26	26	26	26	25	25	25	25	25	24	24	24	24	23	23	23	23	23	22	22	22	22	22	22	21	19	16	13	10	8	7	7	7	7	7	7	7	7	7	7	7	7	6	6	6	6	6	6	6	6	6	6	6	6	6	6	6	6	6	6	6	6	6	6	6	6	6	6	6	6	6	6	6	6	6	6	6	6	6	6	6	6	6	6	6	6	6	5	5	5	5	5	5	5	5	5	5	5	5	5	5	4	2	0	0	0	0	0	0	0	0	0	0	0	0	0	0	0	0	0	0	0	0	0	0	0	0	0	0	0	0	0	0	0	0	0	0	0	0	0	0	0	0	0	0	0	0	0	0	0	0	0	0	0	0	0	0	0	0	0	0	0	0	0	0	0	0	0	0	0	0	0	0	0	0	0	3	6	6	6	6	6	6	7	7	7	7	7	7	7	6	6	6	6	5	5	5	5	5	5	4	5	5	5	5	5	5	5	5	5	6	6	6	6	6	6	5	4	3
0	0	0	0	0	0	0	0	0	0	0	0	0	0	0	0	0	0	0	0	0	0	0	0	0	0	0	0	0	0	0	0	0	0	0	0	0	0	0	0	0	0	0	0	0	0	0	0	0	0	0	0	0	0	0	0	0	0	0	0	0	0	0	0	0	0	0	0	0	0	0	0	0	0	0	0	0	0	0	0	0	0	0	0	0	0	0	0	0	0	0	0	0	0	0	0	0	0	0	0	0	0	0	0	0	0	0	0	0	0	0	0	0	0	0	0	0	0	0	0	0	0	0	0	0	0	0	0	0	0	0	0	0	0	0	0	0	0	0	0	0	0	0	0	0	0	0	0	0	0	0	0	0	2	7	9	8	11	13	19	29	37	50	59	65	67	70	72	72	73	73	73	73	73	73	73	73	73	74	74	74	74	74	74	74	74	74	74	74	74	74	74	74	74	74	74	73	72	69	65	60	54	47	41	38	32	26	22	18	12	6	2	0	0	0	0	0	0	0	0	0	0	0	0	0	0	0	0	0	0	0	0	0	0	0	0	0	0	0	0	0	0	0	0	0	0	0	0	0	0	0	0	0	0	0	0	0	0	0	0	0	0	0	0	0	0	0	0	0	0	0	0	0	0	0	0	0	0	0	0	0	0	0	1	3	4	5	6	7	7	7	7	7	7	7	7	6	6	6	6	6	6	6	6	7	7	7	7	7	7	7	7	7	7	7	7	7	7	7	7	7	7	7	7	7	7	7	7	7	7	7	7	6	6	6	6	6	6	6	6	6	6	6	6	6	6	7	7	7	7	6	7	11	15	20	24	28	32	36	39	42	44	46	47	48	50	51	53	55	58	60	61	62	63	63	62	61	61	61	60	61	61	61	61	61	61	61	61	61	61	61	61	61	60	61	61	61	61	62	62	63	66	70	75	80	85	90	95	100	104	108	111	114	117	121	124	129	133	138	142	145	148	150	151	153	154	156	159	161	163	166	168	171	173	174	176	178	180	181	183	184	185	186	187	186	184	182	181	179	178	177	175	174	173	173	172	172	171	171	170	170	171	171	172	173	174	174	175	176	177	178	179	180	180	180	179	180	180	180	178	177	175	173	170	168	165	163	160	157	155	152	149	146	143	140	137	139	141	143	145	147	149	151	153	156	158	160	161	162	162	162	162	162	161	160	159	158	156	154	151	148	145	142	138	134	129	126	125	125	126	127	129	130	131	131	132	134	136	138	139	139	137	136	133	131	128	125	122	120	117	115	113	111	109	106	104	102	100	99	99	99	98	97	95	93	91	88	84	82	81	79	77	75	73	71	69	66	64	62	61	60	59	58	57	57	56	55	55	54	54	53	51	50	48	46	44	41	38	34	31	29	27	27	27	25	24	24	24	25	25	25	25	24	24	24	23	22	20	19	19	19	19	19	20	20	21	22	23	24	25	26	26	27	28	29	29	30	30	30	30	30	30	29	28	26	25	23	22	20	18	17	15	13	11	10	9	9	9	10	11	12	13	14	15	16	16	17	17	16	15	15	15	15	14	14	15	14	14	14	14	14	14	13	13	13	13	13	13	13	13	14	15	16	18	19	21	22	24	25	27	28	31	32	34	36	37	39	40	41	41	41	41	41	41	41	41	41	41	41	41	40	38	36	33	31	30	30	29	28	28	27	26	26	25	24	22	21	20	18	17	16	15	15	15	15	15	15	15	16	17	18	19	21	22	24	24	25	26	26	27	26	26	26	27	27	27	27	27	27	27	27	26	26	26	26	26	26	26	26	25	25	25	25	25	25	25	25	25	24	24	24	24	24	24	23	23	23	23	22	22	22	22	22	22	22	22	20	18	15	11	9	7	7	7	7	7	7	7	7	7	7	7	6	6	6	6	6	6	6	6	6	6	6	6	6	6	6	6	6	6	6	6	6	6	6	6	6	6	6	6	6	6	6	6	6	6	6	6	6	6	6	6	6	6	6	6	6	6	6	5	5	5	5	5	5	5	5	5	5	5	5	5	4	1	0	0	0	0	0	0	0	0	0	0	0	0	0	0	0	0	0	0	0	0	0	0	0	0	0	0	0	0	0	0	0	0	0	0	0	0	0	0	0	0	0	0	0	0	0	0	0	0	0	0	0	0	0	0	0	0	0	0	0	0	0	0	0	0	0	0	0	0	0	0	0	0	1	4	6	6	6	6	6	6	7	7	7	7	7	7	6	6	6	6	5	5	5	5	5	5	5	5	5	5	5	5	5	5	5	5	5	5	5	5	5	5	5	5	4	3
0	0	0	0	0	0	0	0	0	0	0	0	0	0	0	0	0	0	0	0	0	0	0	0	0	0	0	0	0	0	0	0	0	0	0	0	0	0	0	0	0	0	0	0	0	0	0	0	0	0	0	0	0	0	0	0	0	0	0	0	0	0	0	0	0	0	0	0	0	0	0	0	0	0	0	0	0	0	0	0	0	0	0	0	0	0	0	0	0	0	0	0	0	0	0	0	0	0	0	0	0	0	0	0	0	0	0	0	0	0	0	0	0	0	0	0	0	0	0	0	0	0	0	0	0	0	0	0	0	0	0	0	0	0	0	0	0	0	0	0	0	0	0	0	0	0	0	0	0	0	0	0	0	0	0	1	1	5	7	9	10	12	16	25	30	43	52	61	66	69	71	72	72	73	73	73	73	73	73	73	73	73	74	74	74	74	74	74	74	74	74	74	74	74	74	74	74	74	74	73	72	69	66	62	56	48	42	39	35	30	23	18	14	9	3	1	0	0	0	0	0	0	0	0	0	0	0	0	0	0	0	0	0	0	0	0	0	0	0	0	0	0	0	0	0	0	0	0	0	0	0	0	0	0	0	0	0	0	0	0	0	0	0	0	0	0	0	0	0	0	0	0	0	0	0	0	0	0	0	0	0	0	1	2	4	5	6	7	7	7	7	7	7	7	7	7	6	6	6	6	6	6	7	7	7	7	7	7	7	7	7	7	7	7	7	7	7	7	7	7	7	7	7	7	7	7	7	7	7	7	7	7	7	6	6	6	6	6	6	6	6	6	6	6	6	6	7	7	7	6	6	9	13	18	22	26	31	35	39	42	45	47	48	50	51	53	54	55	57	59	61	62	63	63	63	62	61	61	61	61	61	61	61	61	61	61	61	61	61	61	61	61	61	61	60	61	61	62	62	62	63	66	71	76	81	86	90	95	99	103	106	109	112	116	120	124	128	132	136	140	143	145	147	149	151	153	155	157	160	162	165	167	170	172	173	175	177	179	181	182	183	185	186	187	187	185	183	182	180	179	177	176	175	174	174	173	173	172	171	170	169	169	169	169	170	171	171	172	173	174	175	176	176	177	176	176	177	177	177	176	175	173	171	169	167	164	161	159	156	153	150	147	144	140	137	134	136	138	141	143	145	147	149	152	154	157	158	159	160	160	160	160	159	158	157	156	155	153	152	149	147	144	141	137	133	129	126	123	122	123	125	126	127	128	129	131	133	135	136	138	138	137	136	134	131	129	126	123	121	119	117	114	112	109	106	103	101	100	99	99	99	98	97	95	93	90	86	83	81	79	77	75	74	72	70	67	65	62	60	59	58	57	56	55	54	53	53	52	52	51	51	49	48	47	46	44	41	38	34	30	28	27	27	26	24	23	23	23	24	24	24	24	24	24	23	23	21	20	20	20	20	20	20	21	22	23	23	25	26	27	28	28	29	30	31	32	32	33	33	33	32	32	31	30	29	27	26	24	22	21	19	17	15	13	11	10	9	8	8	8	10	11	12	14	15	15	16	16	15	15	15	15	14	14	15	14	14	14	14	14	14	13	13	13	13	13	13	13	13	13	14	15	16	18	19	20	21	23	24	25	27	29	31	32	34	36	37	39	40	40	41	41	41	41	41	41	41	41	41	40	39	36	34	31	29	27	26	26	25	25	24	24	23	22	21	20	19	18	17	16	15	14	14	14	14	14	14	14	15	16	17	18	19	21	22	22	23	24	24	24	25	25	26	26	26	26	26	26	26	26	26	26	26	26	26	26	25	25	25	25	25	25	25	25	25	25	24	24	24	24	23	23	23	24	24	23	23	23	22	22	22	22	22	22	22	22	22	19	17	13	10	8	7	7	7	7	7	7	7	7	7	6	6	6	6	6	6	6	6	6	6	6	6	6	6	6	6	6	6	6	6	6	6	6	6	6	6	6	6	6	6	6	6	6	6	6	6	6	6	6	6	6	6	6	6	6	6	6	6	6	5	5	5	5	5	5	5	5	5	5	5	5	3	1	0	0	0	0	0	0	0	0	0	0	0	0	0	0	0	0	0	0	0	0	0	0	0	0	0	0	0	0	0	0	0	0	0	0	0	0	0	0	0	0	0	0	0	0	0	0	0	0	0	0	0	0	0	0	0	0	0	0	0	0	0	0	0	0	0	0	0	0	0	0	0	0	2	5	6	6	6	6	6	7	7	7	7	7	7	7	6	6	6	6	5	5	5	5	5	5	5	5	5	5	5	5	5	5	5	5	5	5	5	5	5	5	5	5	4	3
0	0	0	0	0	0	0	0	0	0	0	0	0	0	0	0	0	0	0	0	0	0	0	0	0	0	0	0	0	0	0	0	0	0	0	0	0	0	0	0	0	0	0	0	0	0	0	0	0	0	0	0	0	0	0	0	0	0	0	0	0	0	0	0	0	0	0	0	0	0	0	0	0	0	0	0	0	0	0	0	0	0	0	0	0	0	0	0	0	0	0	0	0	0	0	0	0	0	0	0	0	0	0	0	0	0	0	0	0	0	0	0	0	0	0	0	0	0	0	0	0	0	0	0	0	0	0	0	0	0	0	0	0	0	0	0	0	0	0	0	0	0	0	0	0	0	0	0	0	0	0	0	0	0	0	0	0	0	0	1	2	8	7	9	12	14	18	26	37	48	58	65	68	70	72	72	73	73	73	73	73	73	73	73	73	74	74	74	74	74	74	74	74	74	74	74	74	74	74	74	73	73	73	73	71	67	62	60	52	41	41	36	32	26	19	15	11	5	0	0	0	0	0	0	0	0	0	0	0	0	0	0	0	0	0	0	0	0	0	0	0	0	0	0	0	0	0	0	0	0	0	0	0	0	0	0	0	0	0	0	0	0	0	0	0	0	0	0	0	0	0	0	0	0	0	0	0	0	0	0	1	1	2	3	4	5	6	7	7	7	7	7	7	7	7	7	7	6	6	6	6	7	7	7	7	7	7	7	7	7	7	7	7	7	7	7	7	7	7	7	7	7	7	7	7	7	7	7	7	7	7	7	7	6	6	6	6	6	6	6	6	6	6	6	6	6	7	7	7	6	7	11	15	20	24	29	33	37	41	44	47	49	51	53	54	56	57	58	59	61	63	64	63	62	62	61	61	61	61	61	61	61	61	61	61	61	61	61	61	61	61	61	61	61	61	61	61	62	63	63	64	67	72	76	81	86	90	94	98	101	104	108	111	115	119	123	127	131	134	138	140	143	145	147	149	151	154	156	159	161	164	166	169	171	173	175	176	178	180	182	183	184	185	186	187	186	185	183	181	180	179	177	176	175	175	174	174	173	172	171	170	169	168	168	168	168	169	169	170	171	172	172	173	173	173	174	174	174	174	174	173	172	170	168	165	163	160	157	155	152	149	145	141	138	134	131	132	135	138	140	143	145	148	150	153	155	157	158	158	158	157	157	156	155	154	153	152	151	150	148	145	143	139	136	132	129	126	123	121	121	122	124	125	127	128	130	132	133	135	136	137	136	135	133	131	129	126	124	122	120	117	115	113	110	107	103	101	100	99	99	98	97	95	94	92	89	86	83	80	77	75	73	71	70	68	66	63	61	58	57	55	54	53	52	51	51	51	50	50	49	49	48	47	46	44	43	40	37	33	29	27	27	27	25	24	23	23	23	23	23	24	24	24	23	23	22	21	20	21	21	21	22	22	23	24	24	25	26	27	28	29	30	31	32	33	34	34	35	35	35	34	34	33	32	31	30	28	26	25	23	21	19	17	15	13	11	9	8	8	7	8	9	10	12	13	14	15	15	15	15	15	15	14	15	14	14	14	14	14	14	13	13	13	13	13	13	13	12	13	13	14	15	16	17	18	19	20	21	22	24	25	27	29	31	33	34	36	37	38	39	39	40	40	40	40	40	40	40	39	38	36	34	32	30	27	24	23	22	22	22	21	21	20	19	18	18	17	16	15	14	14	14	14	14	13	13	13	14	14	15	16	17	18	19	20	20	21	21	21	21	23	24	26	26	26	26	26	26	25	25	25	25	25	25	25	25	25	25	25	25	25	24	24	24	24	24	24	24	24	23	23	23	24	24	24	23	23	23	23	22	22	22	22	22	22	22	22	21	18	15	12	9	7	7	7	7	7	7	7	7	6	6	6	6	6	6	6	6	6	6	6	6	6	6	6	6	6	6	6	6	6	6	6	6	6	6	6	6	6	6	6	6	6	6	6	6	6	6	6	6	6	6	6	6	6	6	6	6	6	6	5	5	5	5	5	5	5	5	5	5	5	4	2	0	0	0	0	0	0	0	0	0	0	0	0	0	0	0	0	0	0	0	0	0	0	0	0	0	0	0	0	0	0	0	0	0	0	0	0	0	0	0	0	0	0	0	0	0	0	0	0	0	0	0	0	0	0	0	0	0	0	0	0	0	0	0	0	0	0	0	0	0	0	0	0	1	4	6	6	6	6	6	7	7	7	7	7	7	7	7	6	6	6	5	5	5	5	5	5	5	5	5	5	5	5	5	5	5	5	5	5	5	5	5	5	5	5	5	4	3
0	0	0	0	0	0	0	0	0	0	0	0	0	0	0	0	0	0	0	0	0	0	0	0	0	0	0	0	0	0	0	0	0	0	0	0	0	0	0	0	0	0	0	0	0	0	0	0	0	0	0	0	0	0	0	0	0	0	0	0	0	0	0	0	0	0	0	0	0	0	0	0	0	0	0	0	0	0	0	0	0	0	0	0	0	0	0	0	0	0	0	0	0	0	0	0	0	0	0	0	0	0	0	0	0	0	0	0	0	0	0	0	0	0	0	0	0	0	0	0	0	0	0	0	0	0	0	0	0	0	0	0	0	0	0	0	0	0	0	0	0	0	0	0	0	0	0	0	0	0	0	0	0	0	0	0	0	0	0	0	0	0	1	4	6	9	12	10	13	17	24	30	43	54	61	67	69	71	72	72	73	73	73	73	73	73	73	73	73	74	74	74	74	74	74	74	74	74	74	74	74	73	73	73	73	73	73	71	68	63	58	50	47	40	37	32	28	22	16	11	7	2	0	0	0	0	0	0	0	0	0	0	0	0	0	0	0	0	0	0	0	0	0	0	0	0	0	0	0	0	0	0	0	0	0	0	0	0	0	0	0	0	0	0	0	0	0	0	0	0	0	0	0	0	0	0	0	0	0	1	2	2	3	4	5	6	6	7	7	7	7	7	7	7	7	7	7	6	6	6	7	7	7	7	7	7	7	7	7	7	7	7	7	7	7	7	7	7	7	7	7	7	7	7	7	7	7	6	6	7	7	7	7	7	6	6	6	6	6	6	6	6	6	6	6	7	7	7	7	6	8	13	17	22	26	30	34	38	42	45	48	50	53	55	57	58	59	60	62	63	65	65	64	62	61	61	61	61	60	61	61	61	61	61	61	61	61	61	61	61	61	61	61	61	61	61	61	62	63	63	64	68	73	77	82	86	90	94	97	100	103	107	110	115	119	123	127	130	133	136	138	141	143	145	147	150	153	155	158	160	163	165	168	170	172	174	176	177	179	181	182	184	185	186	187	187	186	184	183	181	180	179	178	177	176	176	175	174	173	173	172	171	169	168	167	166	166	167	167	168	168	169	169	169	170	170	171	171	171	171	171	170	168	166	164	161	159	156	153	150	147	143	138	134	130	128	129	132	135	138	141	144	146	149	151	154	155	156	156	155	155	154	153	152	151	150	149	148	147	146	144	141	138	135	132	128	125	123	120	119	120	121	123	125	127	129	130	132	134	135	136	136	134	133	131	129	126	124	122	119	117	115	113	110	106	103	101	99	98	97	96	94	93	92	90	88	85	82	79	77	74	72	70	68	66	64	62	59	57	55	53	52	51	50	49	48	48	48	48	48	48	47	46	44	43	41	39	35	31	28	27	27	26	24	24	24	24	23	22	22	23	23	23	23	22	22	21	21	22	23	23	23	24	25	25	26	27	27	28	30	31	32	33	34	35	36	37	37	37	37	37	36	35	34	33	32	30	29	27	25	23	21	20	18	16	13	11	9	8	7	7	7	8	9	10	12	13	14	14	15	15	15	14	14	14	14	14	14	14	13	13	13	13	13	12	13	12	12	12	13	14	15	15	16	17	18	18	19	20	21	23	25	27	29	31	33	34	35	36	37	37	38	38	39	39	39	38	38	37	36	34	32	30	27	24	21	20	19	19	19	19	18	18	17	16	16	15	14	14	14	13	13	13	13	13	13	13	13	13	14	14	15	16	17	18	18	18	18	18	19	21	23	25	26	25	25	25	25	25	25	25	25	25	25	25	25	25	24	24	24	24	24	24	24	24	24	24	24	24	24	24	24	23	23	23	23	23	23	22	22	22	22	22	22	22	22	22	22	20	17	14	10	8	7	7	7	7	7	7	6	6	6	6	6	6	6	6	6	6	6	6	6	6	6	6	6	6	6	6	6	6	6	6	6	6	6	6	6	6	6	6	6	6	6	6	6	6	6	6	6	6	6	6	6	6	6	6	6	6	5	5	5	5	5	5	5	5	5	5	5	5	3	1	0	0	0	0	0	0	0	0	0	0	0	0	0	0	0	0	0	0	0	0	0	0	0	0	0	0	0	0	0	0	0	0	0	0	0	0	0	0	0	0	0	0	0	0	0	0	0	0	0	0	0	0	0	0	0	0	0	0	0	0	0	0	0	0	0	0	0	0	0	0	0	0	1	5	6	6	6	6	6	7	7	7	7	7	7	7	7	6	6	5	5	5	5	5	4	4	5	5	5	5	5	5	5	5	5	5	5	5	5	5	5	5	5	5	5	4	3
0	0	0	0	0	0	0	0	0	0	0	0	0	0	0	0	0	0	0	0	0	0	0	0	0	0	0	0	0	0	0	0	0	0	0	0	0	0	0	0	0	0	0	0	0	0	0	0	0	0	0	0	0	0	0	0	0	0	0	0	0	0	0	0	0	0	0	0	0	0	0	0	0	0	0	0	0	0	0	0	0	0	0	0	0	0	0	0	0	0	0	0	0	0	0	0	0	0	0	0	0	0	0	0	0	0	0	0	0	0	0	0	0	0	0	0	0	0	0	0	0	0	0	0	0	0	0	0	0	0	0	0	0	0	0	0	0	0	0	0	0	0	0	0	0	0	0	0	0	0	0	0	0	0	0	0	0	0	0	0	0	0	0	0	0	0	2	4	9	11	10	12	15	20	23	37	47	58	66	69	71	72	72	73	73	73	73	73	73	73	73	73	73	74	74	74	74	74	74	74	74	74	74	73	73	73	73	73	73	73	72	70	65	60	54	44	39	40	34	29	24	18	13	7	4	0	0	0	0	0	0	0	0	0	0	0	0	0	0	0	0	0	0	0	0	0	0	0	0	0	0	0	0	0	0	0	0	0	0	0	0	0	0	0	0	0	0	0	0	0	0	0	0	0	0	0	0	0	1	2	3	3	4	5	5	6	6	7	7	7	7	7	7	7	7	7	7	7	7	7	7	7	7	7	7	7	7	7	7	7	7	7	7	7	7	7	7	7	7	7	6	6	6	6	6	6	6	6	6	7	7	7	7	7	7	7	7	6	6	6	6	6	6	6	6	7	7	7	7	7	10	14	19	23	28	32	36	40	43	46	49	51	54	57	58	59	61	62	64	65	66	67	65	63	61	61	60	61	61	61	61	61	61	61	61	61	61	61	61	61	61	61	61	61	61	61	62	63	63	63	65	69	73	78	82	87	90	93	97	100	103	107	110	114	118	122	126	129	132	134	136	139	141	144	146	149	152	154	157	159	162	164	167	169	171	173	175	177	178	180	182	183	184	185	186	187	186	185	184	183	182	181	180	179	179	178	177	176	175	174	173	172	171	169	168	167	165	165	165	165	164	165	165	165	166	166	167	167	167	167	167	167	167	165	162	160	157	154	151	148	145	140	135	131	127	125	126	129	132	136	140	143	146	148	150	152	153	154	154	153	152	150	149	149	148	147	146	145	144	143	142	140	137	134	131	128	125	123	121	118	118	119	121	124	126	128	130	131	132	133	134	134	133	131	130	128	125	123	120	118	116	114	112	110	106	103	100	98	96	94	93	91	90	89	88	86	84	81	79	76	73	71	69	67	65	63	61	58	55	53	51	50	49	47	46	45	45	45	47	47	47	46	44	42	40	39	36	32	29	27	27	26	24	24	24	24	24	24	23	22	22	22	22	22	21	21	22	23	24	24	25	25	26	27	27	28	28	29	30	31	33	34	35	37	38	38	39	40	40	39	39	38	37	36	35	34	32	30	29	27	25	23	22	20	18	16	14	12	10	8	7	7	6	7	7	9	11	13	14	14	14	14	14	14	14	14	14	14	13	13	13	13	13	12	13	12	12	12	12	12	13	14	14	15	16	16	17	17	18	19	20	22	24	27	29	31	32	33	34	35	35	36	36	36	37	36	36	36	35	34	32	30	28	25	21	19	18	17	17	17	16	16	16	15	15	14	13	13	13	13	12	12	12	12	12	11	11	11	11	12	12	13	14	15	15	15	15	15	16	17	19	22	24	25	25	25	25	25	25	25	25	24	24	24	24	24	24	24	24	24	24	24	24	24	24	24	24	24	23	23	23	23	22	22	22	22	22	22	21	21	21	22	22	22	22	22	22	22	21	18	15	11	9	7	7	7	7	7	7	6	6	6	6	6	6	6	6	6	6	6	6	6	6	6	6	6	6	6	6	6	6	6	6	6	6	6	6	6	6	6	6	6	6	6	6	6	6	6	6	6	6	6	6	6	6	6	6	6	5	5	5	5	5	5	5	5	5	5	5	5	5	3	0	0	0	0	0	0	0	0	0	0	0	0	0	0	0	0	0	0	0	0	0	0	0	0	0	0	0	0	0	0	0	0	0	0	0	0	0	0	0	0	0	0	0	0	0	0	0	0	0	0	0	0	0	0	0	0	0	0	0	0	0	0	0	0	0	0	0	0	0	0	0	0	0	3	6	6	6	6	6	6	7	7	7	7	7	7	7	6	6	5	5	5	5	5	4	4	4	4	5	5	5	5	5	5	5	5	5	5	5	5	5	5	5	5	5	5	4	3
0	0	0	0	0	0	0	0	0	0	0	0	0	0	0	0	0	0	0	0	0	0	0	0	0	0	0	0	0	0	0	0	0	0	0	0	0	0	0	0	0	0	0	0	0	0	0	0	0	0	0	0	0	0	0	0	0	0	0	0	0	0	0	0	0	0	0	0	0	0	0	0	0	0	0	0	0	0	0	0	0	0	0	0	0	0	0	0	0	0	0	0	0	0	0	0	0	0	0	0	0	0	0	0	0	0	0	0	0	0	0	0	0	0	0	0	0	0	0	0	0	0	0	0	0	0	0	0	0	0	0	0	0	0	0	0	0	0	0	0	0	0	0	0	0	0	0	0	0	0	0	0	0	0	0	0	0	0	0	0	0	0	0	0	0	0	0	0	0	1	4	7	8	13	12	14	17	23	31	43	53	62	68	70	72	72	72	73	73	73	73	73	73	73	73	73	74	74	74	74	74	74	74	74	73	73	73	73	73	73	73	73	73	72	70	66	61	56	48	43	38	35	30	25	21	16	9	4	2	0	0	0	0	0	0	0	0	0	0	0	0	0	0	0	0	0	0	0	0	0	0	0	0	0	0	0	0	0	0	0	0	0	0	0	0	0	0	0	0	0	0	0	0	0	0	0	1	1	2	3	3	4	5	5	5	5	6	7	7	7	7	7	7	7	7	7	7	7	7	7	7	7	7	7	7	7	7	7	7	7	7	7	7	7	7	7	7	7	6	6	6	6	6	6	6	6	6	6	6	7	7	7	7	7	6	6	6	6	6	6	6	6	6	6	7	7	7	7	7	7	11	16	20	25	30	34	38	41	44	47	49	52	55	57	59	60	62	63	65	66	67	67	65	62	61	60	61	60	61	61	61	61	61	61	61	61	61	61	61	61	61	61	61	61	61	61	62	63	64	64	66	70	74	79	83	87	90	93	96	100	103	107	110	114	118	121	125	128	131	133	135	137	139	142	145	148	151	153	156	158	161	163	166	168	170	172	174	176	178	179	181	183	184	185	186	187	187	187	186	185	184	183	182	182	181	180	180	178	177	176	175	173	172	171	169	168	166	165	164	162	161	161	161	161	161	162	162	163	163	163	164	164	164	162	160	158	155	152	148	145	142	137	132	128	125	123	124	127	130	134	139	142	144	146	148	150	151	151	151	150	149	147	145	145	145	144	143	142	141	140	139	138	136	133	130	128	126	124	122	119	117	118	120	123	125	127	129	130	131	131	132	131	131	130	129	127	124	121	118	116	115	113	111	108	105	102	99	97	94	92	90	88	87	86	86	84	83	80	78	75	72	70	68	66	64	62	60	57	54	52	50	48	46	44	44	44	43	43	45	46	46	44	41	38	37	36	34	30	27	27	26	25	24	24	24	24	24	24	24	23	22	22	21	21	21	22	24	25	25	26	27	27	28	29	29	30	30	30	31	33	35	36	37	39	39	40	41	41	41	41	41	40	39	38	37	35	34	32	30	29	27	25	23	22	20	18	16	14	12	10	8	7	6	6	6	6	9	12	14	14	14	13	13	13	14	14	14	13	13	13	13	13	12	13	12	12	12	12	12	12	12	12	13	13	14	14	15	15	16	17	18	20	22	24	26	28	30	31	32	33	33	34	34	34	35	34	34	34	33	32	30	28	25	22	19	18	16	15	15	15	15	14	14	14	13	13	12	12	12	11	11	11	11	11	10	10	10	10	10	10	10	11	11	12	13	13	13	13	14	16	18	20	22	24	24	24	24	24	24	24	24	24	24	24	24	24	24	24	24	24	24	23	23	23	23	22	22	22	21	21	21	21	20	21	21	21	21	21	21	21	21	21	22	22	22	22	22	22	22	19	15	12	9	7	7	7	7	7	6	6	6	6	6	6	6	6	6	6	6	6	6	6	6	6	6	6	6	6	6	6	6	6	6	6	6	6	6	6	6	6	6	6	6	6	6	6	6	6	6	6	6	6	6	6	6	6	6	5	5	5	5	5	5	5	5	5	5	5	5	5	4	2	0	0	0	0	0	0	0	0	0	0	0	0	0	0	0	0	0	0	0	0	0	0	0	0	0	0	0	0	0	0	0	0	0	0	0	0	0	0	0	0	0	0	0	0	0	0	0	0	0	0	0	0	0	0	0	0	0	0	0	0	0	0	0	0	0	0	0	0	0	0	0	0	1	4	6	6	6	6	6	6	7	7	7	7	7	7	7	6	6	5	5	5	5	5	4	4	4	4	4	4	5	5	5	5	5	5	5	5	5	5	5	5	5	5	5	5	4	3
0	0	0	0	0	0	0	0	0	0	0	0	0	0	0	0	0	0	0	0	0	0	0	0	0	0	0	0	0	0	0	0	0	0	0	0	0	0	0	0	0	0	0	0	0	0	0	0	0	0	0	0	0	0	0	0	0	0	0	0	0	0	0	0	0	0	0	0	0	0	0	0	0	0	0	0	0	0	0	0	0	0	0	0	0	0	0	0	0	0	0	0	0	0	0	0	0	0	0	0	0	0	0	0	0	0	0	0	0	0	0	0	0	0	0	0	0	0	0	0	0	0	0	0	0	0	0	0	0	0	0	0	0	0	0	0	0	0	0	0	0	0	0	0	0	0	0	0	0	0	0	0	0	0	0	0	0	0	0	0	0	0	0	0	0	0	0	0	0	0	0	0	0	2	7	10	16	10	13	15	20	24	38	49	58	67	70	71	72	72	73	73	73	73	73	73	73	73	73	73	74	74	74	74	74	73	73	73	73	73	73	73	73	73	73	73	72	71	68	63	58	53	42	42	37	32	26	21	17	12	6	1	0	0	0	0	0	0	0	0	0	0	0	0	0	0	0	0	0	0	0	0	0	0	0	0	0	0	0	0	0	0	0	0	0	0	0	0	0	0	0	0	0	0	0	1	2	2	3	4	4	5	5	5	5	5	6	7	7	7	7	7	7	7	7	7	7	7	7	7	7	7	7	7	7	7	7	7	7	7	7	7	7	7	7	7	7	7	6	6	6	6	6	6	6	6	6	6	6	7	7	7	7	6	6	6	6	6	6	6	6	6	6	6	7	7	7	7	7	8	13	18	22	27	31	36	39	42	45	47	50	52	55	57	59	61	63	64	65	66	67	66	63	61	60	60	61	61	61	61	61	61	61	61	61	61	61	61	61	61	61	61	61	61	61	62	63	63	64	64	66	71	75	79	83	87	90	93	96	99	103	106	110	113	117	121	124	127	130	132	134	136	138	141	144	147	150	153	155	158	160	163	165	167	170	172	173	175	177	179	181	182	183	184	185	186	187	187	187	186	186	185	184	184	184	183	182	181	180	179	177	175	173	172	170	169	168	166	165	163	161	159	158	158	158	158	158	159	159	160	160	160	160	159	157	155	152	148	146	143	139	134	129	126	124	122	122	125	129	133	137	141	143	145	146	148	149	149	148	148	146	144	142	142	142	141	140	139	138	137	137	136	134	132	130	129	127	125	123	120	118	117	119	122	124	126	127	128	129	129	130	129	129	128	127	124	121	118	116	114	112	111	109	107	104	101	99	97	94	91	89	87	85	84	84	83	81	79	77	74	71	69	67	65	63	61	59	56	54	51	49	46	44	43	43	43	42	42	42	44	44	41	37	34	34	33	31	28	27	26	25	24	24	24	24	24	24	24	24	23	23	22	22	22	23	24	26	26	27	28	28	29	30	31	31	32	31	32	33	35	37	38	39	40	41	42	42	43	43	42	42	41	41	40	39	37	35	34	32	30	28	27	25	23	21	20	18	16	14	12	10	9	7	6	5	5	6	10	13	13	13	13	13	13	13	13	13	13	13	13	13	12	13	12	12	12	12	12	11	11	11	11	11	12	12	12	13	13	14	15	17	18	20	21	23	25	27	28	29	30	31	32	32	32	33	32	32	32	31	29	27	25	22	20	18	16	15	14	14	14	13	13	13	13	12	11	11	10	10	10	10	10	10	9	9	9	9	9	9	9	9	9	9	10	10	10	10	11	12	14	16	18	20	22	24	24	24	24	24	24	24	24	24	24	24	24	23	23	23	22	22	22	21	21	20	20	20	19	19	18	18	18	18	18	19	20	20	21	21	21	21	21	21	21	22	22	22	22	21	18	15	12	9	7	7	7	7	7	6	6	6	6	6	6	6	6	6	6	6	6	6	6	6	6	6	6	6	6	6	6	6	6	6	6	6	6	6	6	6	6	6	6	6	6	6	6	6	6	6	6	6	6	6	6	6	6	6	5	5	5	5	5	5	5	5	5	5	5	5	5	4	2	0	0	0	0	0	0	0	0	0	0	0	0	0	0	0	0	0	0	0	0	0	0	0	0	0	0	0	0	0	0	0	0	0	0	0	0	0	0	0	0	0	0	0	0	0	0	0	0	0	0	0	0	0	0	0	0	0	0	0	0	0	0	0	0	0	0	0	0	0	0	0	0	2	5	6	6	6	6	6	7	7	7	7	7	7	6	6	6	6	5	5	5	4	4	4	4	4	4	4	4	4	4	4	4	5	5	5	5	5	5	5	5	5	5	5	5	4	4
0	0	0	0	0	0	0	0	0	0	0	0	0	0	0	0	0	0	0	0	0	0	0	0	0	0	0	0	0	0	0	0	0	0	0	0	0	0	0	0	0	0	0	0	0	0	0	0	0	0	0	0	0	0	0	0	0	0	0	0	0	0	0	0	0	0	0	0	0	0	0	0	0	0	0	0	0	0	0	0	0	0	0	0	0	0	0	0	0	0	0	0	0	0	0	0	0	0	0	0	0	0	0	0	0	0	0	0	0	0	0	0	0	0	0	0	0	0	0	0	0	0	0	0	0	0	0	0	0	0	0	0	0	0	0	0	0	0	0	0	0	0	0	0	0	0	0	0	0	0	0	0	0	0	0	0	0	0	0	0	0	0	0	0	0	0	0	0	0	0	0	0	0	0	0	0	1	5	10	12	14	12	15	18	22	32	44	53	62	68	71	72	72	73	73	73	73	73	73	73	73	73	73	73	73	73	73	73	73	73	73	73	73	73	73	73	73	73	72	72	71	69	64	59	51	46	41	38	34	29	24	18	14	8	3	1	0	0	0	0	0	0	0	0	0	0	0	0	0	0	0	0	0	0	0	0	0	0	0	0	0	0	0	0	0	0	0	0	0	0	1	0	0	1	1	2	2	3	4	5	5	5	5	5	5	5	6	7	7	7	7	7	7	7	7	7	7	7	7	7	7	7	7	7	7	7	7	7	7	7	7	7	7	6	6	6	6	6	6	6	6	6	6	6	6	6	6	6	6	6	6	6	6	6	6	6	6	6	6	6	6	6	6	7	7	7	7	7	7	10	15	20	24	29	34	38	41	44	46	48	50	53	55	58	60	62	63	65	66	66	66	63	61	60	60	60	61	61	61	61	61	61	61	61	61	61	61	61	61	61	61	61	61	61	61	62	63	64	64	65	67	71	76	80	84	87	90	93	96	99	103	106	109	113	116	120	123	126	129	131	133	134	137	140	143	146	149	152	155	157	160	162	164	167	169	171	173	175	176	178	180	182	183	184	185	186	187	187	188	187	187	186	186	186	186	185	185	184	183	182	180	178	176	174	172	170	169	168	166	164	162	159	158	157	156	155	155	155	156	156	157	156	156	155	153	151	148	145	143	140	136	132	127	124	122	119	119	123	127	131	135	139	142	143	145	146	147	146	146	145	144	142	140	139	138	138	137	136	134	134	133	133	133	131	130	128	127	126	124	120	117	116	118	120	122	124	125	126	127	127	127	127	126	125	124	121	118	116	113	111	109	108	106	104	102	101	100	97	94	91	89	87	85	84	83	82	80	78	75	73	71	69	67	65	62	60	58	56	54	51	48	46	43	43	42	42	41	41	40	42	43	39	35	33	32	31	28	27	27	26	25	24	24	24	24	24	24	24	24	23	23	24	24	25	26	27	28	28	29	30	30	31	32	33	34	34	34	34	35	37	38	40	41	42	43	43	43	44	44	44	43	42	42	41	40	39	37	35	33	32	30	28	26	24	23	21	19	18	16	15	13	11	9	7	6	5	5	8	12	13	13	13	13	13	13	13	13	13	13	13	12	13	12	12	12	12	12	11	11	11	11	11	11	11	11	11	11	12	12	13	15	17	18	19	21	22	24	25	27	28	29	29	30	30	30	30	30	30	28	26	24	22	20	18	16	15	14	13	13	12	12	12	11	11	10	10	10	9	9	9	9	9	9	9	9	9	9	9	9	9	9	9	9	9	9	9	9	9	10	11	13	15	17	20	22	24	24	24	24	24	24	24	24	23	22	21	21	20	20	20	19	19	19	18	18	18	18	17	17	16	15	15	15	16	16	17	19	20	21	21	21	21	21	21	22	22	22	22	20	16	14	11	8	7	7	7	7	6	6	6	6	6	6	6	6	6	6	6	6	6	6	6	6	6	6	6	6	6	6	6	6	6	6	6	6	6	6	6	6	6	6	6	6	6	6	6	6	6	6	6	6	6	6	6	6	6	6	5	5	5	5	5	5	5	5	5	5	5	5	5	4	1	0	0	0	0	0	0	0	0	0	0	0	0	0	0	0	0	0	0	0	0	0	0	0	0	0	0	0	0	0	0	0	0	0	0	0	0	0	0	0	0	0	0	0	0	0	0	0	0	0	0	0	0	0	0	0	0	0	0	0	0	0	0	0	0	0	0	0	0	0	0	0	0	3	6	6	6	6	6	6	7	7	7	7	7	7	6	6	6	5	5	5	4	4	4	3	3	3	3	4	4	4	4	4	4	4	5	5	5	4	4	5	5	5	5	5	5	5	5
0	0	0	0	0	0	0	0	0	0	0	0	0	0	0	0	0	0	0	0	0	0	0	0	0	0	0	0	0	0	0	0	0	0	0	0	0	0	0	0	0	0	0	0	0	0	0	0	0	0	0	0	0	0	0	0	0	0	0	0	0	0	0	0	0	0	0	0	0	0	0	0	0	0	0	0	0	0	0	0	0	0	0	0	0	0	0	0	0	0	0	0	0	0	0	0	0	0	0	0	0	0	0	0	0	0	0	0	0	0	0	0	0	0	0	0	0	0	0	0	0	0	0	0	0	0	0	0	0	0	0	0	0	0	0	0	0	0	0	0	0	0	0	0	0	0	0	0	0	0	0	0	0	0	0	0	0	0	0	0	0	0	0	0	0	0	0	0	0	0	0	0	0	0	0	0	0	0	0	1	2	8	13	17	11	14	16	20	25	39	48	59	68	70	72	72	72	73	73	73	73	73	73	73	73	73	73	73	73	73	73	73	73	73	73	73	73	73	73	73	72	72	72	72	70	66	61	55	45	40	40	35	31	25	19	14	11	5	0	0	0	0	0	0	0	0	0	0	0	0	0	0	0	0	0	0	0	0	0	0	0	0	0	0	0	0	0	0	1	1	2	2	1	2	2	3	4	4	5	5	5	5	5	5	5	5	6	7	7	7	7	7	7	7	7	7	7	7	7	7	7	7	7	7	7	7	7	7	7	7	7	7	7	6	6	6	6	6	6	6	6	6	6	6	6	6	6	6	6	6	6	6	6	6	6	6	6	6	6	6	6	6	6	7	7	7	7	7	7	11	16	21	26	31	36	40	43	46	48	50	52	54	56	58	61	63	64	65	66	66	64	62	61	60	60	60	61	61	61	61	61	61	61	61	61	61	61	61	61	61	61	61	61	61	62	62	64	64	64	65	68	72	76	81	85	88	90	93	97	99	103	106	109	112	116	119	122	125	128	129	131	133	136	138	142	145	149	152	154	157	159	162	164	166	168	171	173	174	176	178	180	181	183	184	185	185	186	187	187	187	187	187	187	187	187	186	186	186	185	184	183	181	178	176	174	172	170	169	167	165	163	161	159	158	156	155	153	152	152	152	153	152	151	150	148	147	144	142	140	138	134	130	125	122	119	117	117	120	124	128	133	137	141	143	144	145	145	144	143	143	142	140	137	136	135	135	133	132	131	131	130	130	130	130	129	128	127	126	123	120	117	115	116	118	120	121	122	123	123	123	123	123	122	121	120	118	115	113	111	109	106	105	103	102	101	100	99	97	94	92	89	87	85	84	82	80	78	76	74	72	70	68	66	64	62	60	58	56	53	51	48	46	44	43	42	41	41	39	38	39	40	38	35	33	31	29	27	27	26	25	24	24	24	24	24	24	24	24	24	25	26	26	27	28	29	29	30	30	31	32	32	34	35	36	36	36	36	36	37	38	40	42	43	44	44	44	45	45	45	45	44	44	43	42	41	40	38	36	35	33	31	29	27	26	24	22	20	18	17	16	14	12	10	8	7	6	6	8	11	12	13	13	13	13	13	13	13	13	13	12	13	12	12	12	12	12	11	11	11	11	11	11	11	11	11	11	11	11	11	12	14	15	17	18	19	20	21	22	24	25	26	26	27	27	27	27	27	26	24	23	21	19	17	16	15	13	12	12	11	11	11	10	10	10	9	9	9	9	9	9	9	9	9	9	9	9	9	9	9	9	9	9	9	9	9	9	9	9	9	9	11	13	15	17	19	21	22	23	23	23	23	22	21	20	19	18	18	18	18	18	17	17	17	17	17	16	16	16	15	14	14	13	13	13	14	15	16	18	20	21	21	21	21	21	21	22	21	19	16	13	11	9	8	7	7	7	6	6	6	6	6	6	6	6	6	6	6	6	6	6	6	6	6	6	6	6	6	6	6	6	6	6	6	6	6	6	6	6	6	6	6	6	6	6	6	6	6	6	6	6	6	6	6	6	6	6	6	5	5	5	5	5	5	5	5	5	5	5	5	5	4	1	0	0	0	0	0	0	0	0	0	0	0	0	0	0	0	0	0	0	0	0	0	0	0	0	0	0	0	0	0	0	0	0	0	0	0	0	0	0	0	0	0	0	0	0	0	0	0	0	0	0	0	0	0	0	0	0	0	0	0	0	0	0	0	0	0	0	0	0	0	0	0	1	4	6	6	6	6	6	6	7	7	7	7	7	6	6	6	6	5	5	5	4	4	3	3	3	3	3	3	4	4	4	4	4	4	4	5	5	4	4	4	4	4	5	5	5	5	5
0	0	0	0	0	0	0	0	0	0	0	0	0	0	0	0	0	0	0	0	0	0	0	0	0	0	0	0	0	0	0	0	0	0	0	0	0	0	0	0	0	0	0	0	0	0	0	0	0	0	0	0	0	0	0	0	0	0	0	0	0	0	0	0	0	0	0	0	0	0	0	0	0	0	0	0	0	0	0	0	0	0	0	0	0	0	0	0	0	0	0	0	0	0	0	0	0	0	0	0	0	0	0	0	0	0	0	0	0	0	0	0	0	0	0	0	0	0	0	0	0	0	0	0	0	0	0	0	0	0	0	0	0	0	0	0	0	0	0	0	0	0	0	0	0	0	0	0	0	0	0	0	0	0	0	0	0	0	0	0	0	0	0	0	0	0	0	0	0	0	0	0	0	0	0	0	0	0	0	0	0	0	1	2	6	12	17	15	13	16	19	24	32	44	54	63	68	71	72	72	73	73	73	73	73	72	72	73	73	73	73	73	73	73	73	73	73	73	73	73	73	73	72	72	72	72	71	70	67	62	57	49	45	41	37	31	28	21	16	11	8	3	0	0	0	0	0	0	0	0	0	0	0	0	0	0	0	0	0	0	0	0	0	0	1	1	1	1	2	3	4	3	3	3	3	4	5	5	5	5	5	5	5	5	5	5	6	7	7	7	7	7	7	7	7	7	7	7	7	7	7	7	7	7	7	7	7	7	7	7	7	7	7	7	7	7	7	7	7	6	6	6	6	6	6	6	6	6	6	6	7	7	7	6	6	6	6	6	6	6	6	6	6	7	7	7	7	7	8	13	18	24	29	34	38	42	46	48	50	52	54	55	57	59	62	63	65	66	66	64	62	61	60	60	60	60	61	61	61	61	61	61	61	61	61	61	61	61	61	61	61	61	61	61	62	63	64	64	64	66	69	73	77	82	85	88	91	94	97	99	102	105	108	112	115	118	121	124	126	128	130	132	135	137	141	145	148	152	154	156	159	161	164	166	168	170	172	174	176	178	180	181	183	184	184	185	186	187	187	187	187	187	187	187	187	187	187	187	187	186	185	184	182	179	176	174	172	170	168	166	164	162	161	159	157	156	153	150	150	149	149	149	148	146	144	143	141	140	138	135	132	128	124	120	117	115	114	117	121	125	130	134	139	141	143	143	143	142	141	139	138	136	134	132	131	130	129	128	128	127	127	127	127	128	127	127	126	124	122	119	116	114	114	116	117	118	118	119	119	119	119	119	118	117	116	115	113	111	109	106	104	102	100	99	99	99	98	96	94	91	89	87	85	83	81	79	77	75	73	71	69	67	65	63	61	59	57	55	53	51	48	46	44	43	42	41	39	38	36	36	36	36	34	32	29	27	27	26	25	24	24	24	24	24	24	24	25	25	26	27	28	29	29	30	31	32	32	33	33	34	35	36	37	38	39	39	39	39	39	40	42	43	44	45	46	46	46	47	47	46	45	44	43	42	41	40	39	37	35	34	32	30	28	27	24	22	21	19	17	16	15	13	11	10	8	7	8	10	12	12	13	13	13	13	13	13	13	13	13	13	12	12	12	12	12	11	11	11	11	11	11	11	11	11	11	11	11	11	11	12	13	14	15	16	17	18	19	20	21	22	23	23	23	24	24	23	23	21	20	19	18	16	15	14	13	12	11	10	10	10	10	9	9	9	9	9	9	9	9	9	9	9	9	9	9	9	9	9	9	9	9	9	9	9	9	9	9	9	9	9	9	11	13	15	17	18	19	20	20	20	19	18	17	17	17	16	16	16	16	16	16	16	16	16	15	15	15	15	14	13	12	11	11	11	11	12	13	15	18	20	21	21	21	21	21	20	18	16	13	11	9	8	7	7	7	6	6	6	6	6	6	6	6	6	6	6	6	6	6	6	6	6	6	6	6	6	6	6	6	6	6	6	6	6	6	6	6	6	6	6	6	6	6	6	6	6	6	6	6	6	6	6	6	6	6	6	6	5	5	5	5	5	5	5	5	5	5	5	5	5	4	1	0	0	0	0	0	0	0	0	0	0	0	0	0	0	0	0	0	0	0	0	0	0	0	0	0	0	0	0	0	0	0	0	0	0	0	0	0	0	0	0	0	0	0	0	0	0	0	0	0	0	0	0	0	0	0	0	0	0	0	0	0	0	0	0	0	0	0	0	0	0	0	2	5	6	6	6	6	6	7	7	7	7	7	7	6	6	6	5	5	5	4	4	3	3	3	3	3	3	3	3	4	4	4	4	4	4	4	5	4	4	4	4	4	4	4	4	5	5
0	0	0	0	0	0	0	0	0	0	0	0	0	0	0	0	0	0	0	0	0	0	0	0	0	0	0	0	0	0	0	0	0	0	0	0	0	0	0	0	0	0	0	0	0	0	0	0	0	0	0	0	0	0	0	0	0	0	0	0	0	0	0	0	0	0	0	0	0	0	0	0	0	0	0	0	0	0	0	0	0	0	0	0	0	0	0	0	0	0	0	0	0	0	0	0	0	0	0	0	0	0	0	0	0	0	0	0	0	0	0	0	0	0	0	0	0	0	0	0	0	0	0	0	0	0	0	0	0	0	0	0	0	0	0	0	0	0	0	0	0	0	0	0	0	0	0	0	0	0	0	0	0	0	0	0	0	0	0	0	0	0	0	0	0	0	0	0	0	0	0	0	0	0	0	0	0	0	0	0	0	0	0	0	0	0	2	4	9	15	20	12	15	17	21	25	39	47	59	68	71	72	72	72	72	72	72	72	72	73	73	73	73	73	73	73	73	73	73	73	72	72	73	73	73	72	72	72	72	72	71	69	64	59	54	43	43	38	33	28	24	18	12	7	4	0	0	0	0	0	0	0	0	0	0	0	0	0	0	0	0	0	0	0	1	1	1	2	3	4	4	4	4	4	4	5	5	5	5	5	5	5	5	5	5	5	6	7	7	7	7	7	7	7	7	7	7	7	7	7	7	7	7	7	7	7	7	7	7	8	8	7	7	7	7	7	7	7	7	7	7	7	7	7	7	7	7	7	7	7	7	7	7	7	7	7	6	6	6	6	6	6	7	7	7	7	7	7	9	15	20	26	31	36	41	45	48	50	53	55	56	57	58	60	62	64	65	66	65	63	61	60	60	60	60	61	61	61	61	61	61	61	61	61	61	61	61	61	61	61	61	61	61	62	62	63	64	65	65	66	70	74	78	83	86	88	91	94	97	100	102	105	108	111	114	117	119	122	125	127	129	131	134	137	140	144	148	151	154	156	159	161	163	166	168	170	172	174	176	178	180	182	183	184	185	185	186	187	188	187	187	187	187	187	187	187	187	187	187	187	186	186	184	181	179	176	174	171	169	167	166	164	162	160	158	156	153	151	149	148	146	145	144	143	141	139	138	137	136	133	129	125	122	118	115	113	113	115	119	123	127	132	136	139	141	142	141	139	137	136	134	132	130	129	128	126	125	124	124	123	123	124	124	124	125	125	124	122	119	117	114	112	112	113	114	114	114	115	115	115	115	114	114	114	113	112	111	109	107	105	102	100	98	97	97	96	95	94	92	90	89	87	85	83	81	79	77	75	73	71	69	67	65	63	60	58	55	53	52	50	48	46	45	43	42	41	39	37	36	36	34	31	31	30	29	27	27	27	27	27	27	27	27	27	27	27	27	27	27	27	28	30	31	32	33	34	34	35	36	37	38	39	40	41	42	42	41	41	41	42	43	45	46	47	47	47	48	48	48	47	46	44	43	43	42	41	40	38	36	34	32	31	29	27	25	23	21	19	18	16	14	13	12	11	10	10	11	12	12	12	12	13	13	12	12	12	12	13	13	12	12	12	12	12	11	11	11	11	11	11	11	11	11	11	11	11	11	11	11	11	12	13	14	15	15	16	17	18	18	19	20	20	20	20	20	19	19	18	17	16	15	14	13	12	11	10	10	9	9	9	9	9	9	9	9	9	9	9	9	9	9	9	9	9	9	9	9	9	9	9	9	9	9	9	9	9	9	9	9	9	9	9	10	12	14	16	16	17	17	16	16	16	15	15	15	15	14	14	14	14	14	14	14	14	14	13	13	13	12	11	10	10	9	9	9	9	10	12	15	17	20	20	21	20	19	17	15	13	11	9	8	7	7	7	6	6	6	6	6	6	6	6	6	6	6	6	6	6	6	6	6	6	6	6	6	6	6	6	6	6	6	6	6	6	6	6	6	6	6	6	6	6	5	6	6	6	6	6	6	6	6	6	6	6	6	6	5	5	5	5	5	5	5	5	5	5	5	5	5	5	3	1	0	0	0	0	0	0	0	0	0	0	0	0	0	0	0	0	0	0	0	0	0	0	0	0	0	0	0	0	0	0	0	0	0	0	0	0	0	0	0	0	0	0	0	0	0	0	0	0	0	0	0	0	0	0	0	0	0	0	0	0	0	0	0	0	0	0	0	0	0	0	0	3	6	6	6	6	6	6	7	7	7	7	7	6	6	6	6	5	5	4	4	4	3	3	2	3	3	3	3	3	3	4	4	4	4	4	4	4	4	4	4	4	4	4	4	4	4	4
0	0	0	0	0	0	0	0	0	0	0	0	0	0	0	0	0	0	0	0	0	0	0	0	0	0	0	0	0	0	0	0	0	0	0	0	0	0	0	0	0	0	0	0	0	0	0	0	0	0	0	0	0	0	0	0	0	0	0	0	0	0	0	0	0	0	0	0	0	0	0	0	0	0	0	0	0	0	0	0	0	0	0	0	0	0	0	0	0	0	0	0	0	0	0	0	0	0	0	0	0	0	0	0	0	0	0	0	0	0	0	0	0	0	0	0	0	0	0	0	0	0	0	0	0	0	0	0	0	0	0	0	0	0	0	0	0	0	0	0	0	0	0	0	0	0	0	0	0	0	0	0	0	0	0	0	0	0	0	0	0	0	0	0	0	0	0	0	0	0	0	0	0	0	0	0	0	0	0	0	0	0	0	0	0	0	0	0	0	1	4	7	13	17	16	14	16	19	23	35	51	61	66	69	71	71	71	72	72	72	72	72	73	73	73	73	73	73	73	73	73	73	73	73	73	72	73	73	72	72	72	72	72	71	69	65	61	54	47	42	40	35	29	24	20	15	9	4	2	0	0	0	0	0	0	0	0	0	0	0	1	1	0	0	1	2	3	3	4	4	5	4	4	5	5	5	5	5	5	5	5	5	5	5	5	5	6	7	7	7	7	7	7	7	7	7	7	7	7	7	7	7	7	7	7	7	7	7	7	8	7	7	7	7	7	7	7	7	7	7	7	7	7	7	7	7	7	7	7	7	7	7	7	7	7	7	7	7	7	7	7	7	7	7	7	7	7	7	11	17	22	28	33	38	43	47	50	53	55	57	58	59	61	62	63	64	65	65	63	62	60	60	60	60	60	61	61	61	61	61	61	61	61	61	61	61	61	61	61	61	61	61	61	62	63	64	65	65	65	67	71	75	79	83	87	89	92	94	97	100	103	105	108	110	113	115	118	121	124	126	129	131	133	136	140	144	148	152	154	156	159	161	163	166	168	170	172	174	176	178	180	182	183	184	185	186	186	187	187	187	187	187	187	187	187	187	187	187	187	187	187	186	185	183	181	178	175	173	171	169	167	165	163	161	159	157	154	152	149	147	145	144	142	140	138	136	135	134	132	130	127	123	120	116	114	112	112	113	117	121	125	130	134	137	139	139	138	136	134	132	130	128	127	125	124	122	121	120	120	119	119	120	120	121	121	121	121	119	117	114	111	109	108	109	110	110	110	111	111	111	111	111	111	111	111	110	109	107	105	103	100	98	96	95	94	93	92	91	90	89	88	86	84	82	80	78	76	74	72	70	68	66	64	62	59	56	53	52	51	50	48	46	45	44	43	43	41	38	36	36	34	31	30	30	29	27	27	29	30	30	30	30	30	30	30	29	28	28	28	28	29	31	32	34	35	36	36	37	38	39	40	41	43	44	45	45	45	44	43	44	45	47	48	48	48	48	48	48	48	47	46	45	44	43	42	41	40	38	36	34	32	30	29	27	24	23	21	20	18	16	15	13	12	12	12	12	12	12	12	12	12	13	13	13	13	13	13	13	12	12	12	12	12	11	11	11	11	11	11	11	11	11	11	11	10	11	11	11	11	11	11	11	12	12	13	14	14	15	16	16	17	17	17	17	17	17	16	16	15	14	13	12	11	10	10	9	9	9	9	9	9	9	9	9	9	9	9	9	9	9	9	9	9	9	8	9	9	9	9	9	9	9	9	9	9	9	9	9	9	9	9	9	9	10	12	13	14	14	14	14	14	13	13	13	12	12	11	11	11	11	11	11	11	11	11	11	11	11	10	10	9	9	8	8	8	8	8	10	12	15	17	19	19	18	17	15	13	11	9	8	7	7	7	7	6	6	6	6	6	6	6	6	6	6	6	6	6	6	6	6	6	6	6	6	6	6	6	6	6	6	6	6	6	6	6	6	6	6	6	6	6	5	5	5	5	5	6	6	6	6	6	6	6	6	6	6	5	5	5	5	5	5	5	5	5	5	5	5	5	5	3	1	0	0	0	0	0	0	0	0	0	0	0	0	0	0	0	0	0	0	0	0	0	0	0	0	0	0	0	0	0	0	0	0	0	0	0	0	0	0	0	0	0	0	0	0	0	0	0	0	0	0	0	0	0	0	0	0	0	0	0	0	0	0	0	0	0	0	0	0	0	0	1	4	6	6	6	6	6	6	7	7	7	7	7	6	6	6	5	5	5	4	4	3	3	2	2	2	3	3	3	3	3	3	4	4	4	4	4	4	4	4	4	4	4	4	4	4	4	4
0	0	0	0	0	0	0	0	0	0	0	0	0	0	0	0	0	0	0	0	0	0	0	0	0	0	0	0	0	0	0	0	0	0	0	0	0	0	0	0	0	0	0	0	0	0	0	0	0	0	0	0	0	0	0	0	0	0	0	0	0	0	0	0	0	0	0	0	0	0	0	0	0	0	0	0	0	0	0	0	0	0	0	0	0	0	0	0	0	0	0	0	0	0	0	0	0	0	0	0	0	0	0	0	0	0	0	0	0	0	0	0	0	0	0	0	0	0	0	0	0	0	0	0	0	0	0	0	0	0	0	0	0	0	0	0	0	0	0	0	0	0	0	0	0	0	0	0	0	0	0	0	0	0	0	0	0	0	0	0	0	0	0	0	0	0	0	0	0	0	0	0	0	0	0	0	0	0	0	0	0	0	0	0	0	0	0	0	0	0	0	0	0	2	6	10	16	21	13	17	32	42	48	54	59	64	69	70	71	72	72	72	72	72	73	73	73	73	72	72	73	73	73	73	73	73	73	73	73	73	73	72	72	72	72	72	71	70	67	62	57	48	40	41	36	31	26	21	17	12	5	2	0	0	0	0	0	0	0	1	4	4	1	1	2	3	4	4	4	5	5	5	5	5	5	5	5	5	5	5	5	5	5	5	5	5	6	7	7	7	7	7	7	7	7	7	7	7	7	7	6	6	6	6	7	7	7	7	7	7	7	7	7	7	7	7	7	7	7	7	7	7	7	7	7	7	7	7	7	7	7	7	7	7	7	7	7	7	7	7	7	7	7	7	7	7	7	8	13	19	25	30	35	40	45	48	52	55	57	59	60	62	63	64	64	65	65	64	62	61	60	60	60	60	61	61	61	61	61	61	61	61	61	61	61	61	61	61	61	61	61	61	61	62	64	65	65	65	66	68	71	75	80	84	87	90	92	94	97	100	102	104	106	109	111	114	117	120	123	126	129	131	133	136	140	144	148	152	154	157	159	161	164	166	169	171	173	175	177	179	181	182	183	184	185	186	187	187	187	187	187	187	187	187	187	187	186	186	187	187	187	186	186	184	182	179	177	174	172	170	168	166	164	161	159	157	155	152	150	148	146	144	142	139	137	135	133	131	129	128	125	122	118	115	113	111	110	112	115	120	124	128	131	134	136	136	135	133	131	129	127	125	123	121	120	118	117	116	116	115	116	116	116	117	117	117	117	116	114	111	108	105	105	105	106	106	106	107	107	108	108	108	109	109	109	108	107	106	104	102	99	97	95	93	92	90	89	88	88	87	86	84	82	81	79	77	75	73	71	69	67	65	63	61	58	54	52	50	50	49	48	46	45	45	44	44	43	40	38	37	36	33	32	31	30	28	28	29	30	30	30	30	30	30	30	30	29	28	29	31	32	33	35	36	37	37	38	39	40	41	42	43	45	46	48	48	48	48	47	47	48	48	48	48	48	48	48	48	48	47	46	45	44	42	41	40	39	37	35	33	32	30	28	26	24	23	21	20	19	17	15	13	13	12	12	12	12	12	12	12	13	13	13	13	13	13	13	12	12	12	12	12	11	11	11	11	11	11	11	11	11	11	11	11	11	11	11	11	11	11	11	11	11	11	11	11	12	12	13	14	14	15	15	15	15	14	14	13	12	11	10	10	9	9	9	9	9	9	9	9	9	9	9	9	9	9	9	9	9	9	9	9	9	9	9	9	9	9	9	9	9	9	9	9	9	9	9	9	9	9	9	9	9	9	9	10	11	12	12	11	11	11	11	11	10	9	9	9	9	9	9	9	9	9	9	9	9	9	9	8	8	8	8	8	8	8	8	8	10	12	15	16	17	16	15	13	11	9	8	7	7	7	7	6	6	6	6	6	6	6	6	6	6	6	6	6	6	6	6	6	6	6	6	6	6	6	6	6	6	6	6	6	6	6	6	6	6	6	6	6	5	5	5	5	5	5	6	6	6	6	6	6	6	6	6	6	5	5	5	5	5	5	5	5	5	5	5	5	5	5	3	0	0	0	0	0	0	0	0	0	0	0	0	0	0	0	0	0	0	0	0	0	0	0	0	0	0	0	0	0	0	0	0	0	0	0	0	0	0	0	0	0	0	0	0	0	0	0	0	0	0	0	0	0	0	0	0	0	0	0	0	0	0	0	0	0	0	0	0	0	0	0	2	5	6	6	6	6	6	6	7	7	7	7	6	6	6	5	5	5	4	4	4	3	3	2	2	2	3	3	3	3	3	3	3	3	4	4	4	4	4	4	4	4	4	4	4	4	4	4
0	0	0	0	0	0	0	0	0	0	0	0	0	0	0	0	0	0	0	0	0	0	0	0	0	0	0	0	0	0	0	0	0	0	0	0	0	0	0	0	0	0	0	0	0	0	0	0	0	0	0	0	0	0	0	0	0	0	0	0	0	0	0	0	0	0	0	0	0	0	0	0	0	0	0	0	0	0	0	0	0	0	0	0	0	0	0	0	0	0	0	0	0	0	0	0	0	0	0	0	0	0	0	0	0	0	0	0	0	0	0	0	0	0	0	0	0	0	0	0	0	0	0	0	0	0	0	0	0	0	0	0	0	0	0	0	0	0	0	0	0	0	0	0	0	0	0	0	0	0	0	0	0	0	0	0	0	0	0	0	0	0	0	0	0	0	0	0	0	0	0	0	0	0	0	0	0	0	0	0	0	0	0	0	0	0	0	0	0	0	0	0	0	0	0	0	1	5	9	13	18	25	32	38	43	48	53	58	62	67	70	71	72	72	72	72	72	72	72	72	73	73	73	73	74	74	74	74	74	74	73	73	73	73	73	72	72	72	72	71	70	68	63	58	50	45	40	38	34	28	22	18	14	8	3	2	0	0	3	5	5	5	2	4	4	4	4	5	5	5	5	5	5	5	5	5	5	5	5	5	5	5	5	5	5	5	6	7	7	7	7	7	7	7	7	7	6	6	6	6	6	6	6	6	7	7	7	7	7	7	7	7	8	8	7	7	7	7	7	7	7	7	7	7	7	7	7	7	7	7	7	7	7	7	7	7	7	7	7	7	7	7	7	7	7	7	7	10	16	22	28	33	39	43	46	49	53	56	59	61	62	64	65	65	65	65	64	62	61	60	60	60	60	60	61	61	61	61	61	61	61	61	61	61	61	61	61	61	61	61	61	61	62	63	65	66	66	66	66	68	72	76	81	85	88	90	92	94	97	99	102	103	105	107	110	113	116	120	123	126	129	131	133	137	140	145	149	152	154	157	159	162	164	167	169	171	173	175	177	179	181	183	184	184	185	186	187	187	187	187	187	187	187	187	186	186	186	186	186	186	186	186	186	185	183	180	178	176	174	172	169	167	164	162	159	157	155	152	150	148	147	146	143	140	138	135	133	131	129	128	125	121	117	115	113	110	109	111	114	118	122	126	129	131	133	133	132	130	128	126	124	121	119	117	116	114	113	112	112	111	111	112	112	113	113	113	113	112	109	106	104	102	101	101	101	102	102	103	103	104	105	106	106	107	107	106	106	104	103	101	98	96	93	91	89	87	86	85	85	84	83	82	80	78	77	75	74	72	69	67	66	64	62	60	57	53	51	50	49	48	47	46	46	45	44	44	43	42	40	39	38	36	33	31	31	29	28	29	30	30	30	30	30	30	30	30	30	30	32	33	35	36	37	38	38	39	40	41	42	43	44	45	47	49	50	50	50	49	49	48	49	49	48	48	48	48	48	47	47	46	45	44	43	42	41	40	38	36	35	33	31	29	28	26	24	23	22	21	19	18	16	14	12	12	12	12	12	12	12	12	12	12	12	12	12	13	12	12	12	12	12	12	11	11	11	11	11	11	11	11	11	11	11	11	11	11	11	11	11	11	11	11	11	11	11	11	11	11	11	11	12	12	13	13	12	12	11	11	10	10	9	9	9	9	9	9	9	9	9	9	9	9	9	9	9	9	9	9	9	9	9	9	9	9	9	9	9	9	9	9	9	9	9	9	9	8	8	8	8	8	8	8	8	8	8	9	9	9	9	9	9	9	9	9	8	8	8	8	8	9	9	9	8	8	8	8	8	8	8	8	8	8	8	8	8	8	7	7	8	11	13	14	14	13	12	11	9	8	7	7	7	7	7	6	6	6	6	6	7	7	7	7	7	7	7	6	6	6	6	5	6	6	6	6	6	6	6	6	6	6	6	6	6	6	6	6	6	6	6	5	5	5	5	5	5	6	6	6	6	6	6	6	6	6	6	5	5	5	5	5	5	5	5	5	5	5	5	5	5	5	2	0	0	0	0	0	0	0	0	0	0	0	0	0	0	0	0	0	0	0	0	0	0	0	0	0	0	0	0	0	0	0	0	0	0	0	0	0	0	0	0	0	0	0	0	0	0	0	0	0	0	0	0	0	0	0	0	0	0	0	0	0	0	0	0	0	0	0	0	0	0	1	3	6	6	6	6	6	6	6	7	7	7	6	6	6	5	5	5	4	4	4	3	3	2	2	1	2	2	2	2	3	3	3	3	3	3	3	3	3	3	4	4	4	4	5	5	5	4	4
0	0	0	0	0	0	0	0	0	0	0	0	0	0	0	0	0	0	0	0	0	0	0	0	0	0	0	0	0	0	0	0	0	0	0	0	0	0	0	0	0	0	0	0	0	0	0	0	0	0	0	0	0	0	0	0	0	0	0	0	0	0	0	0	0	0	0	0	0	0	0	0	0	0	0	0	0	0	0	0	0	0	0	0	0	0	0	0	0	0	0	0	0	0	0	0	0	0	0	0	0	0	0	0	0	0	0	0	0	0	0	0	0	0	0	0	0	0	0	0	0	0	0	0	0	0	0	0	0	0	0	0	0	0	0	0	0	0	0	0	0	0	0	0	0	0	0	0	0	0	0	0	0	0	0	0	0	0	0	0	0	0	0	0	0	0	0	0	0	0	0	0	0	0	0	0	0	0	0	0	0	0	0	0	0	0	0	0	0	0	0	0	0	0	0	0	0	0	0	1	2	7	12	17	21	31	36	41	46	51	56	61	65	69	71	72	72	72	72	72	73	73	73	73	73	73	74	74	74	74	74	73	73	73	73	73	73	72	72	72	72	71	71	71	69	65	61	56	41	44	39	35	30	25	20	16	11	5	11	13	8	5	5	5	5	5	5	5	5	5	5	5	5	5	5	5	5	5	5	5	5	5	5	5	5	5	6	6	6	6	6	6	6	6	6	6	6	6	6	6	6	8	10	11	13	14	14	14	13	13	13	14	14	15	14	13	12	12	11	11	11	12	11	11	11	11	11	10	10	10	10	11	11	11	10	10	10	10	10	11	11	12	12	12	12	13	13	14	19	26	32	38	42	45	48	51	54	58	61	63	64	65	65	65	65	65	63	61	60	60	60	60	60	61	61	61	61	61	61	61	61	61	61	61	61	61	61	61	61	61	61	61	62	64	65	66	66	66	67	69	73	78	82	86	89	91	93	95	97	99	101	103	105	107	109	113	116	120	123	126	129	131	134	137	141	145	149	152	155	157	160	162	165	167	170	172	174	176	178	180	182	183	184	184	185	186	187	187	187	187	187	187	187	187	186	186	185	185	185	185	186	186	186	185	184	182	179	177	175	173	170	167	165	162	159	157	155	153	151	149	148	147	145	142	139	136	134	132	130	128	126	122	118	115	112	109	108	110	113	116	120	123	126	128	130	130	129	127	125	123	120	118	115	114	112	111	110	109	108	107	107	108	108	109	109	110	109	108	105	102	100	98	98	98	98	98	99	99	100	101	102	103	104	105	105	104	104	103	102	100	97	94	91	89	86	84	83	82	81	81	80	79	77	76	75	73	71	69	67	66	64	62	60	58	55	52	50	49	48	47	46	46	45	45	44	43	43	43	42	41	40	38	34	32	32	31	29	29	30	30	30	30	30	30	30	30	31	32	34	36	38	39	39	40	40	40	41	43	44	45	46	48	49	50	50	50	50	50	49	49	49	48	48	48	48	47	47	47	47	46	45	44	43	42	40	39	37	35	33	32	30	29	28	26	24	23	22	21	20	18	16	14	12	12	12	12	12	12	12	12	12	12	12	12	12	12	12	12	12	12	12	11	11	11	11	11	11	11	11	11	11	11	11	11	11	11	11	11	11	11	11	11	11	11	11	11	11	10	10	10	10	11	11	11	11	10	10	10	10	10	10	10	10	10	9	9	9	9	9	9	9	9	9	9	9	9	9	9	9	9	9	9	9	9	9	9	9	9	9	9	9	9	8	8	8	8	8	8	8	8	8	8	8	8	8	8	8	8	8	8	8	8	8	8	8	8	8	8	8	9	9	9	8	8	8	8	8	8	8	8	8	8	8	8	7	7	7	7	8	9	11	12	11	11	10	8	7	7	7	7	7	7	7	7	7	7	7	7	7	7	7	7	7	7	7	6	6	6	6	5	5	6	6	6	6	6	6	6	6	6	6	6	6	6	6	6	6	6	5	5	5	5	5	5	5	6	6	6	6	6	6	6	6	6	6	5	5	5	5	5	5	5	5	5	5	5	5	5	5	4	2	0	0	0	0	0	0	0	0	0	0	0	0	0	0	0	0	0	0	0	0	0	0	0	0	0	0	0	0	0	0	0	0	0	0	0	0	0	0	0	0	0	0	0	0	0	0	0	0	0	0	0	0	0	0	0	0	0	0	0	0	0	0	0	0	0	0	0	0	0	1	3	5	6	6	6	6	6	6	6	7	7	6	6	6	6	5	5	4	4	4	3	3	2	2	2	1	1	2	2	2	2	2	2	3	3	3	3	3	3	3	3	4	4	4	4	5	5	4	4
0	0	0	0	0	0	0	0	0	0	0	0	0	0	0	0	0	0	0	0	0	0	0	0	0	0	0	0	0	0	0	0	0	0	0	0	0	0	0	0	0	0	0	0	0	0	0	0	0	0	0	0	0	0	0	0	0	0	0	0	0	0	0	0	0	0	0	0	0	0	0	0	0	0	0	0	0	0	0	0	0	0	0	0	0	0	0	0	0	0	0	0	0	0	0	0	0	0	0	0	0	0	0	0	0	0	0	0	0	0	0	0	0	0	0	0	0	0	0	0	0	0	0	0	0	0	0	0	0	0	0	0	0	0	0	0	0	0	0	0	0	0	0	0	0	0	0	0	0	0	0	0	0	0	0	0	0	0	0	0	0	0	0	0	0	0	0	0	0	0	0	0	0	0	0	0	0	0	0	0	0	0	0	0	0	0	0	0	0	0	0	0	0	0	0	0	0	0	0	0	0	0	1	2	5	10	15	19	26	33	40	44	49	54	59	64	68	70	72	72	72	72	73	73	73	73	73	73	74	74	74	74	73	73	74	74	73	73	73	73	73	72	72	72	71	71	71	69	65	60	56	34	37	36	37	33	27	24	22	20	14	7	10	9	7	6	6	6	6	6	6	6	6	5	5	6	6	6	6	6	6	5	5	6	6	6	6	6	6	6	6	6	6	6	6	6	6	6	6	6	7	8	11	14	18	20	23	24	24	23	23	24	24	24	23	21	21	20	19	19	19	19	19	19	19	19	19	19	19	19	19	19	20	19	17	18	18	17	17	18	19	20	20	21	21	21	21	22	25	31	36	41	45	47	50	53	56	59	62	65	66	66	65	65	65	64	62	61	60	60	60	60	61	61	61	61	61	61	61	61	61	61	61	61	61	61	61	61	61	61	61	62	63	65	66	67	67	67	67	70	74	79	83	87	90	92	94	96	99	100	102	103	105	107	110	113	116	120	123	126	129	131	134	137	141	145	149	152	155	158	161	163	166	168	171	172	174	176	178	180	182	183	184	185	185	186	186	186	187	187	187	187	187	187	186	186	185	185	185	185	186	186	186	185	184	182	180	178	176	174	171	168	166	163	160	158	157	155	153	151	150	149	146	144	141	138	136	134	132	129	127	123	119	115	112	108	106	109	112	115	118	121	123	125	126	127	126	124	122	119	117	115	112	111	109	108	106	105	104	103	103	104	104	105	105	105	105	103	101	99	97	96	95	95	95	95	96	96	97	98	99	101	102	103	103	102	102	101	100	98	95	92	89	86	83	81	80	79	78	77	76	75	74	73	71	70	68	67	65	63	62	60	57	54	52	50	49	48	47	46	46	46	45	45	44	43	43	43	42	41	40	39	35	32	32	31	29	29	30	30	30	30	30	30	30	30	31	33	36	38	39	40	40	40	41	42	43	45	46	47	49	50	50	50	50	50	50	49	49	49	49	48	48	48	47	47	47	47	47	46	45	44	43	41	40	38	36	34	33	31	29	28	27	26	25	24	23	22	21	19	17	15	13	12	12	12	12	12	12	12	12	12	12	12	12	12	12	12	12	12	11	11	11	11	11	11	11	11	11	11	11	11	11	11	11	11	11	11	11	11	11	11	11	11	11	11	11	11	10	10	10	10	10	10	10	10	10	10	10	10	10	10	10	10	10	10	10	10	10	10	10	9	9	9	9	9	9	9	9	9	9	9	9	9	9	9	9	8	8	8	8	8	8	8	8	8	8	8	8	8	8	8	8	8	8	8	8	7	8	8	8	8	8	8	8	8	8	8	8	9	9	8	8	8	8	8	8	8	8	8	8	8	7	7	7	7	7	7	7	8	9	9	9	8	8	7	7	7	7	7	7	7	7	7	7	7	7	7	7	7	7	7	7	7	7	6	6	6	6	6	5	6	6	6	6	6	6	6	6	6	6	6	6	6	6	6	6	6	5	5	5	5	5	5	5	5	6	6	6	6	6	6	6	5	5	5	5	5	5	5	5	5	5	5	5	5	5	5	5	4	2	0	0	0	0	0	0	0	0	0	0	0	0	0	0	0	0	0	0	0	0	0	0	0	0	0	0	0	0	0	0	0	0	0	0	0	0	0	0	0	0	0	0	0	0	0	0	0	0	0	0	0	0	0	0	0	0	0	0	0	0	0	0	0	0	0	0	0	0	1	3	5	5	5	6	6	6	6	6	6	6	6	6	6	6	5	5	5	4	4	3	3	3	2	2	1	1	1	2	2	2	2	2	2	2	3	3	3	3	3	3	3	3	4	4	4	4	4	4	4
0	0	0	0	0	0	0	0	0	0	0	0	0	0	0	0	0	0	0	0	0	0	0	0	0	0	0	0	0	0	0	0	0	0	0	0	0	0	0	0	0	0	0	0	0	0	0	0	0	0	0	0	0	0	0	0	0	0	0	0	0	0	0	0	0	0	0	0	0	0	0	0	0	0	0	0	0	0	0	0	0	0	0	0	0	0	0	0	0	0	0	0	0	0	0	0	0	0	0	0	0	0	0	0	0	0	0	0	0	0	0	0	0	0	0	0	0	0	0	0	0	0	0	0	0	0	0	0	0	0	0	0	0	0	0	0	0	0	0	0	0	0	0	0	0	0	0	0	0	0	0	0	0	0	0	0	0	0	0	0	0	0	0	0	0	0	0	0	0	0	0	0	0	0	0	0	0	0	0	0	0	0	0	0	0	0	0	0	0	0	0	0	0	0	0	0	0	0	0	0	0	0	0	0	0	0	1	2	8	12	18	22	32	37	43	47	52	57	62	66	70	72	72	72	73	73	73	73	73	73	74	74	74	74	74	74	74	74	74	74	73	73	73	72	72	72	72	71	71	71	70	67	60	49	36	28	44	40	38	33	27	22	23	21	18	15	11	9	6	6	6	6	6	6	6	6	6	6	6	6	6	6	6	6	6	6	6	6	6	6	6	6	6	5	5	6	6	6	6	6	6	8	11	14	17	20	23	25	27	29	31	33	33	33	32	30	29	28	27	27	27	27	27	27	27	27	27	27	27	28	28	28	27	25	25	25	25	24	24	25	26	27	29	29	30	30	30	30	33	37	42	45	47	50	52	55	58	61	64	66	67	66	65	65	65	63	62	60	60	60	60	60	61	61	62	61	61	61	61	61	61	61	61	61	61	61	61	61	61	61	61	62	64	65	67	67	67	67	68	71	75	80	85	88	91	94	96	98	101	103	104	105	106	107	110	113	116	120	123	125	128	131	133	137	141	145	149	153	156	158	161	164	167	169	171	173	174	176	178	180	182	183	184	184	184	185	185	185	186	186	187	187	187	187	187	186	186	186	186	186	186	186	185	184	182	180	178	176	174	173	171	169	167	164	162	160	158	157	155	153	152	150	148	145	142	139	137	135	133	130	127	123	119	115	111	107	105	107	110	113	116	119	121	123	124	124	123	121	119	116	114	112	110	108	107	105	103	102	100	99	99	100	100	101	101	101	101	100	98	96	95	93	93	92	92	92	93	94	95	96	97	99	100	101	101	100	100	99	99	97	94	91	88	84	81	79	77	76	75	73	72	71	70	68	67	65	64	63	62	61	59	56	53	50	49	48	47	46	46	46	45	45	45	44	44	43	43	43	42	41	41	40	37	33	32	32	29	30	32	32	32	32	31	31	31	31	31	34	38	39	40	40	40	41	42	44	45	46	48	49	50	51	51	50	50	50	49	49	49	49	49	48	48	48	47	47	47	47	47	46	45	44	43	41	39	38	36	34	32	30	29	28	27	26	25	24	24	23	22	20	19	17	14	13	12	12	12	12	12	12	12	12	12	12	12	12	12	12	12	12	11	11	11	11	11	11	11	11	11	11	11	11	11	11	11	11	11	11	11	11	11	11	11	11	11	11	11	11	11	11	10	10	10	10	10	10	10	10	10	10	10	10	10	10	10	10	10	10	10	10	9	9	9	9	9	9	9	9	9	9	9	9	9	8	8	8	8	8	8	8	8	8	8	8	8	8	8	8	8	8	8	8	8	8	7	7	7	7	7	7	8	8	8	8	8	8	8	8	8	9	8	8	8	8	8	8	8	8	8	7	7	7	7	7	7	7	7	7	7	7	7	7	7	7	7	7	7	7	7	7	7	7	7	7	7	7	7	7	7	7	7	7	7	7	7	6	6	6	6	6	5	5	5	6	6	6	6	6	6	6	6	6	6	6	6	6	6	5	5	5	5	5	5	5	5	5	5	6	6	6	6	6	5	5	5	5	5	5	5	5	5	5	5	5	5	5	5	5	5	4	1	0	0	0	0	0	0	0	0	0	0	0	0	0	0	0	0	0	0	0	0	0	0	0	0	0	0	0	0	0	0	0	0	0	0	0	0	0	0	0	0	0	0	0	0	0	0	0	0	0	0	0	0	0	0	0	0	0	0	0	0	0	0	0	0	0	0	0	0	0	3	5	5	5	6	6	6	6	6	6	6	6	6	6	5	5	5	4	4	4	3	3	2	2	1	1	1	1	2	2	2	2	2	2	2	2	2	3	3	3	3	3	3	3	4	4	4	4	4	4
0	0	0	0	0	0	0	0	0	0	0	0	0	0	0	0	0	0	0	0	0	0	0	0	0	0	0	0	0	0	0	0	0	0	0	0	0	0	0	0	0	0	0	0	0	0	0	0	0	0	0	0	0	0	0	0	0	0	0	0	0	0	0	0	0	0	0	0	0	0	0	0	0	0	0	0	0	0	0	0	0	0	0	0	0	0	0	0	0	0	0	0	0	0	0	0	0	0	0	0	0	0	0	0	0	0	0	0	0	0	0	0	0	0	0	0	0	0	0	0	0	0	0	0	0	0	0	0	0	0	0	0	0	0	0	0	0	0	0	0	0	0	0	0	0	0	0	0	0	0	0	0	0	0	0	0	0	0	0	0	0	0	0	0	0	0	0	0	0	0	0	0	0	0	0	0	0	0	0	0	0	0	0	0	0	0	0	0	0	0	0	0	0	0	0	0	0	0	0	0	0	0	0	0	0	0	0	0	0	1	4	5	11	16	21	28	33	41	45	50	55	60	64	67	69	71	72	73	73	73	73	74	74	74	74	71	74	74	74	74	74	74	74	73	73	73	73	72	72	72	71	71	71	70	68	62	54	43	32	39	42	38	39	34	31	28	24	22	20	17	13	9	7	6	6	6	6	6	6	6	6	6	6	6	6	6	6	6	6	6	6	6	6	6	6	6	6	6	6	6	6	8	11	14	17	20	23	26	28	31	33	37	38	38	38	37	36	35	34	35	35	35	35	35	35	35	35	35	35	35	35	34	34	33	32	32	32	31	30	31	33	35	37	38	38	38	39	39	40	43	46	49	51	53	55	57	60	63	66	68	67	66	64	64	64	63	61	60	60	60	60	61	61	62	62	61	61	61	61	61	61	61	61	61	61	61	61	61	61	61	62	63	65	66	67	67	67	67	69	72	76	81	86	89	93	96	99	101	103	105	106	107	107	108	111	113	116	119	122	125	127	130	133	136	140	145	149	152	156	159	162	165	168	170	172	173	175	177	178	180	181	182	183	183	184	184	184	184	185	185	186	186	187	187	187	186	186	186	186	186	185	185	184	182	181	179	177	175	173	172	171	169	167	165	163	162	160	158	157	155	153	151	149	147	143	140	138	136	133	130	127	123	119	115	110	106	103	105	108	111	114	117	119	120	121	120	120	118	116	114	112	110	108	106	105	103	101	99	97	96	96	96	97	97	98	98	98	97	95	94	92	91	90	90	89	90	90	91	92	94	95	97	98	99	99	99	99	98	97	95	93	90	87	83	79	77	75	73	72	71	69	67	66	64	62	61	60	59	58	56	54	51	48	46	45	44	43	43	43	43	44	44	44	44	44	44	43	43	42	42	41	40	38	34	32	32	31	35	38	38	38	38	38	37	37	37	34	36	39	40	39	40	41	42	43	45	46	48	50	51	51	51	51	50	50	50	50	49	49	49	48	48	48	48	47	47	47	47	46	46	46	44	43	41	40	38	36	34	32	30	29	29	28	27	26	25	24	24	23	22	20	18	16	13	12	12	12	12	12	12	12	12	12	12	12	12	12	12	12	11	11	11	11	10	11	11	11	11	11	11	11	11	11	11	11	11	11	11	11	11	11	11	11	11	11	11	11	11	11	11	10	10	10	10	10	10	10	10	10	10	10	10	10	10	10	10	10	10	10	9	9	9	9	9	9	9	9	9	9	9	9	8	8	8	8	8	8	8	8	8	8	8	8	8	8	8	8	8	8	8	7	7	7	7	7	7	7	7	7	7	7	7	8	8	8	8	8	8	8	9	8	8	8	8	8	8	8	8	7	7	7	7	7	7	7	7	7	7	7	7	7	7	7	7	7	7	7	7	7	7	7	7	7	7	7	7	7	7	7	7	7	7	7	7	7	7	6	6	6	6	6	5	5	6	6	6	6	6	6	6	6	6	6	6	6	6	6	5	5	5	5	5	5	5	5	5	5	5	5	5	5	5	5	5	5	5	5	5	5	5	5	5	5	5	5	5	5	5	5	4	1	0	0	0	0	0	0	0	0	0	0	0	0	0	0	0	0	0	0	0	0	0	0	0	0	0	0	0	0	0	0	0	0	0	0	0	0	0	0	0	0	0	0	0	0	0	0	0	0	0	0	0	0	0	0	0	0	0	0	0	0	0	0	0	0	0	0	0	0	0	2	5	5	5	6	6	6	6	6	6	6	6	6	5	5	5	5	4	4	3	3	3	2	2	1	1	0	1	2	2	2	2	2	2	2	2	2	2	3	3	3	3	3	3	4	4	4	4	4	3
0	0	0	0	0	0	0	0	0	0	0	0	0	0	0	0	0	0	0	0	0	0	0	0	0	0	0	0	0	0	0	0	0	0	0	0	0	0	0	0	0	0	0	0	0	0	0	0	0	0	0	0	0	0	0	0	0	0	0	0	0	0	0	0	0	0	0	0	0	0	0	0	0	0	0	0	0	0	0	0	0	0	0	0	0	0	0	0	0	0	0	0	0	0	0	0	0	0	0	0	0	0	0	0	0	0	0	0	0	0	0	0	0	0	0	0	0	0	0	0	0	0	0	0	0	0	0	0	0	0	0	0	0	0	0	0	0	0	0	0	0	0	0	0	0	0	0	0	0	0	0	0	0	0	0	0	0	0	0	0	0	0	0	0	0	0	0	0	0	0	0	0	0	0	0	0	0	0	0	0	0	0	0	0	0	0	0	0	0	0	0	0	0	0	0	0	0	0	0	0	0	0	0	0	0	0	0	0	0	0	0	0	0	1	5	8	14	19	23	30	37	42	46	49	44	46	54	62	71	72	73	74	74	74	74	70	71	72	73	74	74	74	74	74	74	74	74	73	73	73	73	72	72	71	71	71	70	69	66	61	59	51	46	48	44	42	38	35	35	33	29	25	19	15	10	7	6	6	6	6	6	6	6	6	6	6	6	6	6	6	6	6	6	6	6	6	6	6	6	6	7	8	11	14	17	20	23	26	29	31	34	38	39	40	39	39	39	39	39	39	40	40	40	40	40	40	40	40	40	40	39	38	39	39	39	39	38	37	37	38	40	42	43	44	45	45	46	46	47	49	51	53	55	56	58	60	62	65	68	68	67	65	64	64	63	62	61	60	60	60	60	61	61	62	62	61	61	61	61	61	61	61	61	61	61	61	61	61	61	61	62	64	66	67	67	67	67	67	69	73	77	83	87	91	94	97	100	103	105	107	108	109	110	111	113	115	117	119	122	124	126	129	132	135	139	144	148	152	155	158	162	165	168	171	172	174	175	176	177	178	179	180	181	182	182	183	183	184	184	184	185	186	186	187	187	187	186	186	186	185	185	184	182	180	178	177	176	174	172	170	169	168	166	165	164	162	161	159	158	156	154	152	150	147	144	141	138	135	132	130	126	122	118	114	110	105	102	103	107	109	112	115	117	118	118	117	116	115	113	112	110	108	106	104	102	100	98	96	94	93	92	93	93	94	94	94	94	94	93	91	90	89	87	87	87	87	88	89	90	92	93	95	95	96	97	98	97	97	95	94	91	89	86	82	78	76	73	72	71	69	67	65	63	60	58	57	55	54	53	52	50	47	44	42	41	41	41	40	40	41	41	41	42	42	43	43	43	43	43	42	42	41	40	36	32	32	33	38	40	40	40	40	40	40	40	39	34	36	39	40	40	41	43	44	44	46	47	49	51	51	51	51	51	51	50	50	50	49	49	49	48	48	48	48	47	47	47	46	46	46	46	44	43	42	40	38	36	34	32	30	29	29	28	27	26	26	26	25	24	23	21	19	17	15	13	12	12	12	12	12	12	12	12	12	12	12	12	12	11	11	11	11	11	11	11	11	11	11	11	11	11	11	11	11	11	11	11	11	11	11	11	11	11	11	11	11	11	11	11	11	10	10	10	10	10	10	10	10	10	10	10	10	10	10	10	10	10	10	9	9	9	9	9	9	9	9	9	9	9	9	8	8	8	8	8	8	8	8	8	8	8	8	8	8	8	8	8	8	8	7	7	7	7	7	7	7	7	7	7	7	7	7	7	8	8	8	8	8	8	8	8	8	8	8	8	8	8	7	7	7	7	7	7	7	7	7	7	7	7	7	7	7	7	7	7	7	7	7	7	7	7	7	7	7	7	7	7	7	7	7	7	7	7	7	7	7	6	6	6	6	6	5	5	6	6	6	6	6	6	6	6	6	6	6	6	6	6	5	5	5	5	5	5	5	5	5	5	5	5	5	5	5	5	5	5	5	5	5	5	5	5	5	5	5	5	5	5	5	5	3	1	0	0	0	0	0	0	0	0	0	0	0	0	0	0	0	0	0	0	0	0	0	0	0	0	0	0	0	0	0	0	0	0	0	0	0	0	0	0	0	0	0	0	0	0	0	0	0	0	0	0	0	0	0	0	0	0	0	0	0	0	0	0	0	0	0	0	0	0	0	1	4	5	5	6	6	6	6	6	6	6	6	5	5	5	5	4	4	4	3	3	2	2	1	1	1	0	1	1	1	1	2	2	2	2	2	2	2	2	3	3	3	3	3	3	4	4	4	3	3
0	0	0	0	0	0	0	0	0	0	0	0	0	0	0	0	0	0	0	0	0	0	0	0	0	0	0	0	0	0	0	0	0	0	0	0	0	0	0	0	0	0	0	0	0	0	0	0	0	0	0	0	0	0	0	0	0	0	0	0	0	0	0	0	0	0	0	0	0	0	0	0	0	0	0	0	0	0	0	0	0	0	0	0	0	0	0	0	0	0	0	0	0	0	0	0	0	0	0	0	0	0	0	0	0	0	0	0	0	0	0	0	0	0	0	0	0	0	0	0	0	0	0	0	0	0	0	0	0	0	0	0	0	0	0	0	0	0	0	0	0	0	0	0	0	0	0	0	0	0	0	0	0	0	0	0	0	0	0	0	0	0	0	0	0	0	0	0	0	0	0	0	0	0	0	0	0	0	0	0	0	0	0	0	0	0	0	0	0	0	0	0	0	0	0	0	0	0	0	0	0	0	0	0	0	0	0	0	0	0	0	0	0	0	0	0	1	4	6	10	14	18	25	29	27	27	32	34	38	41	43	67	74	74	74	70	71	71	72	73	73	74	74	74	74	75	74	74	74	74	74	73	73	73	72	72	71	71	71	70	70	68	65	62	58	55	52	50	51	50	48	42	37	30	25	20	16	12	9	7	6	6	6	6	6	6	6	6	6	6	6	6	6	6	6	6	6	6	6	7	7	8	11	14	17	20	23	27	29	32	34	38	40	40	40	41	41	41	42	42	42	43	43	43	42	43	43	42	42	42	42	42	42	43	43	44	43	42	42	43	45	47	49	50	50	50	51	53	54	55	56	57	59	60	61	63	65	68	69	68	66	64	63	63	62	61	60	60	60	60	61	61	62	62	61	61	61	61	61	61	61	61	61	61	61	61	61	61	61	62	63	65	67	67	67	67	67	68	70	74	79	84	88	92	95	99	102	105	108	110	111	112	113	115	116	118	119	121	123	124	126	129	132	135	138	142	147	151	154	158	161	165	168	171	172	173	174	175	176	176	177	178	179	180	180	181	182	183	183	184	184	185	186	187	187	186	186	186	185	184	183	181	180	178	177	176	175	173	171	169	167	165	163	162	162	161	160	158	157	155	153	151	149	146	144	140	137	134	132	130	127	122	117	113	109	105	101	102	104	107	110	112	114	115	115	114	113	112	111	109	107	105	104	102	100	98	96	94	92	90	89	90	90	91	91	91	91	91	90	89	87	86	85	84	84	84	85	87	89	90	91	92	93	94	95	95	95	94	93	92	90	87	85	82	78	76	73	71	70	68	65	63	61	58	56	54	52	51	50	49	46	43	41	40	40	40	40	40	40	40	40	40	40	40	41	41	42	42	42	42	42	41	41	39	34	35	37	39	40	40	40	40	40	40	40	39	34	36	39	40	41	43	44	44	45	46	48	50	51	52	52	51	51	51	51	50	50	50	49	49	48	48	48	48	47	47	46	46	46	46	45	45	43	42	40	38	36	34	32	31	29	29	28	27	27	28	28	27	26	24	23	21	18	16	14	12	12	12	12	12	12	12	12	12	12	12	12	11	11	11	11	11	11	11	11	11	11	11	11	11	11	11	11	11	11	11	11	11	11	11	11	11	11	11	11	11	11	11	11	11	11	10	10	10	10	10	10	10	10	10	10	10	10	10	10	10	10	10	9	9	9	9	9	9	9	9	9	9	9	8	8	8	8	8	8	8	8	8	8	8	8	8	8	8	8	8	8	8	8	8	7	7	7	7	7	7	7	7	7	7	7	7	7	8	8	8	8	8	8	8	8	8	8	8	8	8	8	7	7	7	7	7	7	7	7	7	7	7	7	7	7	7	7	7	7	7	7	7	7	7	7	7	7	7	7	7	7	7	7	7	7	7	7	7	7	7	6	6	6	6	6	6	5	6	6	6	6	6	6	6	6	6	6	6	6	6	6	5	5	5	5	5	5	5	5	5	5	5	5	5	5	5	5	5	5	5	5	5	5	5	5	5	5	5	5	5	5	5	5	3	1	0	0	0	0	0	0	0	0	0	0	0	0	0	0	0	0	0	0	0	0	0	0	0	0	0	0	0	0	0	0	0	0	0	0	0	0	0	0	0	0	0	0	0	0	0	0	0	0	0	0	0	0	0	0	0	0	0	0	0	0	0	0	0	0	0	0	0	0	0	1	3	5	6	6	6	6	6	6	6	6	5	5	5	5	5	4	4	3	3	2	2	2	1	1	1	0	1	1	1	1	1	1	1	2	2	2	2	2	2	3	3	3	3	3	3	4	4	3	3
0	0	0	0	0	0	0	0	0	0	0	0	0	0	0	0	0	0	0	0	0	0	0	0	0	0	0	0	0	0	0	0	0	0	0	0	0	0	0	0	0	0	0	0	0	0	0	0	0	0	0	0	0	0	0	0	0	0	0	0	0	0	0	0	0	0	0	0	0	0	0	0	0	0	0	0	0	0	0	0	0	0	0	0	0	0	0	0	0	0	0	0	0	0	0	0	0	0	0	0	0	0	0	0	0	0	0	0	0	0	0	0	0	0	0	0	0	0	0	0	0	0	0	0	0	0	0	0	0	0	0	0	0	0	0	0	0	0	0	0	0	0	0	0	0	0	0	0	0	0	0	0	0	0	0	0	0	0	0	0	0	0	0	0	0	0	0	0	0	0	0	0	0	0	0	0	0	0	0	0	0	0	0	0	0	0	0	0	0	0	0	0	0	0	0	0	0	0	0	0	0	0	0	0	0	0	0	0	0	0	0	0	0	0	0	0	0	0	0	0	1	6	10	10	13	6	6	26	30	32	36	34	48	60	74	72	71	72	73	73	73	73	73	74	74	74	74	75	75	75	75	74	74	74	73	73	73	72	71	71	71	71	70	70	69	67	64	63	65	68	67	60	52	45	38	33	29	25	21	17	14	11	8	6	6	6	6	6	6	6	6	6	6	6	6	6	6	6	6	7	7	8	11	14	17	20	23	27	30	32	34	38	40	41	42	42	43	43	44	44	45	45	45	45	45	45	45	45	45	45	44	44	44	45	45	46	46	46	46	47	49	51	53	55	55	55	56	57	58	58	59	60	62	64	65	66	68	70	69	68	66	64	63	62	62	61	60	60	60	60	61	62	62	62	61	61	61	61	61	61	61	61	61	61	61	61	61	61	61	62	64	66	67	68	68	68	68	68	71	75	80	85	89	93	96	100	104	107	110	112	113	115	117	118	120	122	123	124	125	127	128	130	132	135	138	141	146	149	153	157	160	164	167	170	172	172	173	173	174	174	175	176	177	177	178	179	180	181	182	183	183	184	185	186	187	186	186	185	184	182	181	179	178	177	176	175	174	172	170	168	165	163	161	160	159	159	158	156	154	152	150	148	146	144	142	139	136	133	131	129	126	121	116	111	108	105	101	100	102	104	107	109	111	111	111	111	110	109	108	107	105	103	101	100	98	95	93	92	90	88	87	86	87	87	88	88	89	88	87	86	85	84	83	82	82	82	84	85	87	88	90	90	91	91	92	92	92	91	90	89	88	86	84	81	79	76	74	71	70	67	65	63	61	58	56	53	51	50	49	46	43	40	40	40	40	40	40	40	40	40	40	40	40	40	40	40	40	41	41	41	41	41	41	40	38	39	40	40	40	40	40	40	40	40	40	39	35	36	39	40	41	43	44	45	46	47	49	51	52	52	52	51	51	51	51	51	50	50	49	49	48	48	48	49	49	49	47	46	46	45	45	45	44	42	41	39	37	35	33	31	30	29	28	29	29	29	29	29	28	26	24	22	20	17	15	13	12	12	12	12	12	12	12	12	12	12	12	11	11	11	11	11	11	11	11	11	11	11	11	11	11	11	11	11	11	11	11	11	11	11	11	11	11	11	11	11	11	11	11	11	11	10	10	10	10	10	10	10	10	10	10	10	10	10	10	10	10	9	9	9	9	9	9	9	9	9	9	9	9	9	8	8	8	8	8	8	8	8	8	8	8	8	8	8	8	8	8	8	8	8	8	8	7	7	7	7	7	7	7	7	7	7	8	8	8	8	8	8	8	8	8	8	8	8	8	8	8	7	7	7	7	7	7	7	7	7	7	7	7	7	7	7	7	7	7	7	7	7	7	7	7	7	7	7	7	7	7	7	7	7	7	7	7	7	7	7	7	6	6	6	6	6	5	5	6	6	6	6	6	6	6	6	6	6	6	6	5	5	5	5	5	5	5	5	5	5	5	5	5	5	5	5	5	5	5	5	5	5	5	5	5	5	5	5	5	5	5	5	5	3	0	0	0	0	0	0	0	0	0	0	0	0	0	0	0	0	0	0	0	0	0	0	0	0	0	0	0	0	0	0	0	0	0	0	0	0	0	0	0	0	0	0	0	0	0	0	0	0	0	0	0	0	0	0	0	0	0	0	0	0	0	0	0	0	0	0	0	0	0	0	0	2	4	6	6	5	6	6	6	6	6	5	5	5	5	4	4	4	3	3	2	2	1	1	1	1	1	1	1	1	1	1	1	1	1	2	2	2	2	2	2	3	3	3	3	3	4	3	3	3
0	0	0	0	0	0	0	0	0	0	0	0	0	0	0	0	0	0	0	0	0	0	0	0	0	0	0	0	0	0	0	0	0	0	0	0	0	0	0	0	0	0	0	0	0	0	0	0	0	0	0	0	0	0	0	0	0	0	0	0	0	0	0	0	0	0	0	0	0	0	0	0	0	0	0	0	0	0	0	0	0	0	0	0	0	0	0	0	0	0	0	0	0	0	0	0	0	0	0	0	0	0	0	0	0	0	0	0	0	0	0	0	0	0	0	0	0	0	0	0	0	0	0	0	0	0	0	0	0	0	0	0	0	0	0	0	0	0	0	0	0	0	0	0	0	0	0	0	0	0	0	0	0	0	0	0	0	0	0	0	0	0	0	0	0	0	0	0	0	0	0	0	0	0	0	0	0	0	0	0	0	0	0	0	0	0	0	0	0	0	0	0	0	0	0	0	0	0	0	0	0	0	0	0	0	0	0	0	0	0	0	0	0	0	0	0	0	0	0	0	0	0	1	0	0	1	3	4	6	10	17	24	26	30	31	38	42	53	65	72	72	73	73	73	73	73	74	74	74	74	75	75	75	74	73	73	73	72	72	73	73	72	72	71	71	70	70	70	70	70	70	69	66	59	51	46	41	36	33	29	25	22	19	16	13	10	8	7	6	6	6	6	6	6	6	6	6	6	7	7	7	9	12	14	17	20	23	27	30	32	34	38	41	42	44	45	45	45	45	46	47	47	47	48	48	48	48	48	48	47	46	46	46	47	48	48	49	48	49	51	53	55	57	58	59	59	59	59	59	60	60	62	64	66	68	69	70	70	69	67	65	63	62	62	61	60	60	60	60	61	61	62	62	61	61	61	61	61	61	61	61	61	61	61	61	61	61	61	61	62	64	65	66	67	68	68	68	69	71	76	81	86	91	94	97	101	104	108	111	114	116	118	120	122	123	125	126	128	129	131	132	134	135	136	139	141	145	148	152	155	159	162	166	168	170	171	171	172	172	173	173	174	175	175	176	177	178	179	180	181	182	183	185	186	187	186	185	184	183	181	179	178	176	176	175	174	173	171	169	167	164	162	159	158	157	157	156	153	151	149	147	145	144	142	141	138	136	133	132	129	125	120	115	110	107	103	100	98	99	101	103	106	107	107	107	107	107	106	105	104	102	101	99	97	95	93	91	90	88	86	84	84	84	84	85	85	85	85	84	84	82	81	80	80	79	80	82	84	85	86	88	88	88	89	89	89	89	89	88	87	86	84	83	81	79	77	74	72	70	68	66	64	62	60	57	54	51	50	48	44	41	40	40	40	40	40	40	40	40	40	40	40	40	40	40	40	40	40	40	40	40	40	40	40	40	40	40	40	40	40	40	40	40	40	40	37	34	35	38	40	41	42	43	44	46	47	49	50	52	52	52	51	51	51	51	51	50	50	49	49	48	49	50	52	52	52	49	47	45	45	45	45	44	42	41	39	37	36	34	32	30	30	30	30	31	31	31	30	30	28	26	23	21	18	16	14	12	12	12	12	12	12	12	12	12	12	11	11	11	11	11	11	11	11	11	11	11	11	11	11	11	11	11	11	10	10	10	10	10	11	11	11	11	11	11	11	11	11	11	11	11	10	10	10	10	10	10	10	10	10	10	10	10	10	10	10	10	9	9	9	9	9	9	9	9	9	9	9	9	9	9	9	9	9	8	8	8	8	8	8	8	8	8	8	8	8	8	8	8	8	8	8	8	8	7	7	7	7	7	7	7	8	8	8	8	8	8	8	8	8	8	8	8	8	8	8	7	7	7	7	7	7	7	7	7	7	7	7	7	7	7	7	7	7	7	7	7	7	7	7	7	7	7	7	7	7	7	7	7	7	7	7	7	7	7	7	7	6	6	6	6	6	6	5	6	6	6	6	6	6	6	6	6	6	6	6	5	5	5	5	5	5	5	5	5	5	5	5	5	5	5	5	5	5	5	5	5	5	5	5	5	5	5	5	5	5	5	5	5	3	0	0	0	0	0	0	0	0	0	0	0	0	0	0	0	0	0	0	0	0	0	0	0	0	0	0	0	0	0	0	0	0	0	0	0	0	0	0	0	0	0	0	0	0	0	0	0	0	0	0	0	0	0	0	0	0	0	0	0	0	0	0	0	0	0	0	0	0	0	0	0	1	3	5	6	6	6	6	6	6	5	5	5	5	5	4	4	4	3	3	2	2	1	1	1	1	1	1	1	1	1	1	1	1	1	1	2	2	2	2	2	2	3	3	3	3	3	3	3	3
0	0	0	0	0	0	0	0	0	0	0	0	0	0	0	0	0	0	0	0	0	0	0	0	0	0	0	0	0	0	0	0	0	0	0	0	0	0	0	0	0	0	0	0	0	0	0	0	0	0	0	0	0	0	0	0	0	0	0	0	0	0	0	0	0	0	0	0	0	0	0	0	0	0	0	0	0	0	0	0	0	0	0	0	0	0	0	0	0	0	0	0	0	0	0	0	0	0	0	0	0	0	0	0	0	0	0	0	0	0	0	0	0	0	0	0	0	0	0	0	0	0	0	0	0	0	0	0	0	0	0	0	0	0	0	0	0	0	0	0	0	0	0	0	0	0	0	0	0	0	0	0	0	0	0	0	0	0	0	0	0	0	0	0	0	0	0	0	0	0	0	0	0	0	0	0	0	0	0	0	0	0	0	0	0	0	0	0	0	0	0	0	0	0	0	0	0	0	0	0	0	0	0	0	0	0	0	0	0	0	0	0	0	0	0	0	0	0	0	0	0	0	0	0	0	0	1	2	4	3	4	0	0	0	23	25	30	34	37	39	51	68	72	72	72	73	73	73	73	74	74	74	74	73	73	73	73	73	73	73	73	73	73	73	72	72	71	71	71	71	70	70	69	68	62	57	52	48	44	40	36	33	30	26	23	20	18	15	12	9	7	6	6	6	6	6	6	6	7	7	7	9	12	15	18	20	23	27	30	33	35	38	41	43	46	47	46	46	46	47	48	49	50	50	51	51	52	52	51	50	48	48	48	49	50	51	51	51	52	54	56	57	58	59	59	59	59	59	60	60	61	62	64	66	67	69	69	70	69	67	64	63	62	61	60	60	60	60	60	61	62	62	62	61	61	61	61	61	61	61	61	61	61	61	61	61	61	61	61	62	64	65	66	67	68	68	68	69	72	77	82	87	92	96	99	102	105	108	112	115	118	120	123	125	127	128	130	131	133	134	136	137	138	139	141	143	145	148	151	154	157	161	164	166	168	169	169	170	170	170	171	172	172	173	174	175	176	177	178	180	181	182	183	185	186	186	185	184	182	180	178	176	175	174	174	173	172	170	168	166	163	160	158	156	155	154	153	151	148	146	144	143	141	140	138	137	136	134	131	128	124	119	114	110	106	103	99	98	97	98	100	102	103	103	103	104	103	103	102	101	100	98	97	95	94	92	90	88	87	85	83	82	81	82	82	82	82	81	81	81	80	79	78	77	77	79	81	83	84	85	85	86	86	86	87	87	86	86	85	84	83	82	81	80	79	77	75	73	71	69	67	65	63	61	59	57	53	50	48	44	41	40	40	40	40	40	40	40	40	40	40	40	40	40	40	40	40	40	40	40	40	40	40	40	40	40	40	40	40	40	40	40	40	40	40	36	32	34	36	39	41	41	42	43	44	46	47	49	50	52	52	52	51	51	51	51	51	50	49	49	49	51	53	54	55	54	51	48	45	45	45	45	44	43	41	40	38	36	34	33	32	31	32	32	33	33	33	32	31	29	27	24	22	20	17	15	13	12	12	12	12	12	12	12	12	12	11	11	11	11	11	11	11	11	11	11	11	11	11	11	11	11	11	10	10	10	10	10	10	10	10	10	11	11	11	11	11	11	11	11	11	11	10	10	10	10	10	10	10	10	10	10	10	10	10	10	10	9	9	9	9	9	9	9	9	9	9	9	9	9	9	9	9	9	9	9	9	9	9	8	8	8	8	8	8	8	8	8	8	8	8	8	8	8	8	8	7	7	7	7	8	8	8	8	8	8	8	8	8	8	8	8	8	8	8	8	7	7	7	7	7	7	7	7	7	7	7	7	7	7	7	7	7	7	7	7	7	7	7	7	7	7	7	7	7	7	7	7	7	7	7	7	7	7	7	7	7	6	6	6	6	6	6	6	6	6	6	6	6	6	6	6	6	6	6	6	5	5	5	5	5	5	5	5	5	5	5	5	5	5	5	5	5	5	5	5	5	5	5	5	5	5	5	5	5	5	5	4	4	2	0	0	0	0	0	0	0	0	0	0	0	0	0	0	0	0	0	0	0	0	0	0	0	0	0	0	0	0	0	0	0	0	0	0	0	0	0	0	0	0	0	0	0	0	0	0	0	0	0	0	0	0	0	0	0	0	0	0	0	0	0	0	0	0	0	0	0	0	0	0	0	0	1	3	5	6	6	6	5	5	5	5	5	5	5	4	4	4	3	3	2	2	1	0	0	1	1	1	1	1	1	1	1	1	1	1	1	2	2	2	2	2	3	3	3	3	3	3	3	2
0	0	0	0	0	0	0	0	0	0	0	0	0	0	0	0	0	0	0	0	0	0	0	0	0	0	0	0	0	0	0	0	0	0	0	0	0	0	0	0	0	0	0	0	0	0	0	0	0	0	0	0	0	0	0	0	0	0	0	0	0	0	0	0	0	0	0	0	0	0	0	0	0	0	0	0	0	0	0	0	0	0	0	0	0	0	0	0	0	0	0	0	0	0	0	0	0	0	0	0	0	0	0	0	0	0	0	0	0	0	0	0	0	0	0	0	0	0	0	0	0	0	0	0	0	0	0	0	0	0	0	0	0	0	0	0	0	0	0	0	0	0	0	0	0	0	0	0	0	0	0	0	0	0	0	0	0	0	0	0	0	0	0	0	0	0	0	0	0	0	0	0	0	0	0	0	0	0	0	0	0	0	0	0	0	0	0	0	0	0	0	0	0	0	0	0	0	0	0	0	0	0	0	0	0	0	0	0	0	0	0	0	0	0	0	0	0	0	0	0	0	0	0	0	0	0	0	0	1	1	2	0	0	0	0	0	0	12	25	30	32	35	39	51	65	71	72	72	72	73	73	73	73	73	73	73	73	73	73	73	73	74	74	74	74	73	73	73	73	73	72	72	71	70	69	67	64	59	55	51	47	43	40	37	33	30	28	25	22	19	17	14	11	9	7	7	6	6	7	7	8	11	13	16	18	21	23	27	30	34	35	37	41	44	47	48	49	49	49	49	50	51	52	53	54	55	55	55	53	52	51	50	50	51	52	53	54	55	56	57	58	58	59	59	58	59	59	59	59	60	60	61	62	64	66	68	69	69	69	66	64	62	61	61	60	60	60	60	61	61	62	62	61	61	61	61	61	61	61	61	61	61	61	61	61	61	61	61	62	63	64	65	66	67	68	68	68	70	73	78	84	89	94	98	101	104	107	110	113	117	120	123	125	127	129	131	132	134	136	137	139	140	141	142	143	145	147	149	151	153	155	158	161	164	165	165	166	166	166	166	167	168	169	170	172	173	174	175	177	178	180	181	182	183	185	186	185	184	181	179	177	176	174	173	173	172	171	169	167	164	162	159	157	155	153	152	151	149	147	144	142	140	139	137	135	134	133	131	128	125	122	117	113	110	106	103	99	98	97	97	98	99	100	100	100	100	100	100	99	98	97	96	95	93	92	90	89	87	85	84	82	80	79	79	79	78	78	78	78	78	78	77	75	74	75	77	79	81	83	83	83	83	84	84	84	84	83	83	82	81	81	81	80	79	78	77	75	74	72	70	69	67	65	63	62	60	56	51	48	44	40	40	40	40	40	40	40	40	40	40	40	40	40	40	40	40	40	40	40	40	40	40	40	40	40	40	40	40	40	40	40	40	40	40	40	35	32	32	33	36	38	40	41	41	42	44	45	47	49	51	52	52	51	51	51	51	51	50	49	50	51	53	55	55	56	55	53	49	46	45	45	45	44	43	42	40	38	37	35	34	33	33	33	34	34	34	34	33	32	30	28	26	23	21	19	16	14	13	12	12	12	12	12	12	12	12	11	11	11	11	11	11	11	11	11	11	11	11	11	11	11	11	11	10	10	10	10	10	10	10	10	10	10	10	10	10	11	11	11	11	11	11	11	10	10	10	10	10	10	10	10	10	10	10	10	10	10	9	9	9	9	9	9	9	9	9	9	9	9	9	9	9	9	9	9	9	9	9	9	9	9	8	8	8	8	8	8	8	8	8	8	8	8	8	8	8	8	8	8	8	8	8	8	8	8	8	8	8	8	8	8	8	8	8	8	7	7	7	7	7	7	7	7	7	7	7	7	7	7	7	7	7	7	7	7	7	7	7	7	7	7	7	7	7	7	7	7	7	7	7	7	7	7	7	7	7	7	6	6	6	6	6	6	6	6	6	6	6	6	6	6	6	6	6	6	6	6	5	5	5	5	5	5	5	5	5	5	5	5	5	5	5	5	5	5	5	5	5	5	5	5	5	5	5	5	5	5	3	1	1	0	0	0	0	0	0	0	0	0	0	0	0	0	0	0	0	0	0	0	0	0	0	0	0	0	0	0	0	0	0	0	0	0	0	0	0	0	0	0	0	0	0	0	0	0	0	0	0	0	0	0	0	0	0	0	0	0	0	0	0	0	0	0	0	0	0	0	0	0	0	0	0	0	2	4	5	6	5	5	5	5	5	5	5	5	4	4	3	3	2	2	2	1	0	0	0	0	1	1	1	1	1	1	1	1	1	1	1	2	2	2	2	2	3	3	3	3	3	3	2
