5	5	5	4	4	5	5	6	7	8	9	10	12	13	14	17	18	17	17	17	18	18	18	18	19	19	19	18	18	18	18	17	17	16	17	17	18	20	23	25	27	28	29	32	33	34	36	36	36	36	36	36	36	36	37	37	37	37	37	37	37	37	37	37	37	37	37	35	33	29	26	24	22	18	16	14	11	10	9	8	8	7	6	5	5	5	5	3	3	3	3	2	2	2	1	1	1	1	1	1	1	1	1	2	3	3	4	5	6	7	8	13	15	21	23	26	28	30	32	34	34	35	34	34	34	34	34	33	33	33	33	33	33	32	32	32	31	31	31	30	27	24	22	14	10	9	8	7	6	5	5	5	5	5	5	5	5	5	5	5	5	6	6	6	7	7	7	8	8	8	9	9	9	9	9	10	10	10	10	11	11	11	11	11	11	11	12	12	11	11	11	11	11	11	11	10	10	9	9	8	8	8	9	9	10	10	10	11	12	12	13	13	14	14	14	16	18	19	20	21	21	20	19	24	24	21	19	20	21	22	22	23	23	23	25	31	33	33	26	23	28	27	27	28	28	28	28	28	28	28	28	28	28	32	34	33	34	39	43	46	49	52	56	60	63	63	65	68	71	74	77	81	84	86	90	93	95	96	97	100	105	108	111	113	114	113	112	110	107	106	106	106	107	109	114	116	115	113	114	115	115	114	112	109	106	103	101	101	101	102	102	103	104	103	103	103	103	103	103	103	103	103	103	103	103	103	103	103	103	103	103	103	104	103	102	101	100	97	97	103	106	106	113	113	110	105	103	102	102	102	102	102	106	113	115	112	104	104	104	105	106	109	114	118	120	121	124	127	131	133	141	145	150	158	162	163	164	166	169	171	173	174	173	171	170	170	173	177	182	187	192	196	200	201	203	204	203	203	205	207	210	212	214	215	217	218	218	219	219	219	219	219	219	219	219	220	222	224	226	225	224	224	224	224	224	224	222	219	218	218	219	219	217	216	216	216	216	216	216	216	217	218	217	216	213	212	211	211	210	210	209	209	207	206	207	207	207	212	217	216	215	214	214	213	211	209	206	204	202	198	196	196	199	201	203	204	206	207	208	209	208	206	205	203	201	200	200	198	197	196	196	194	192	193	190	184	179	175	175	176	175	174	172	172	171	169	167	162	153	150	154	158	160	161	165	168	170	170	174	177	179	180	183	186	188	190	192	195	197	197	197	197	195	192	189	186	183	180	178	177	176	175	174	172	171	170	168	167	166	164	162	161	159	160	162	165	167	168	169	171	172	172	173	174	176	178	180	182	185	188	190	190	188	185	183	183	184	183	181	178	177	175	173	171	170	168	165	162	161	161	159	156	153	152	150	150	151	153	155	157	160	162	163	164	165	166	166	165	164	163	162	160	159	158	156	155	156	159	161	163	165	168	171	172	172	172	172	173	173	171	170	170	170	169	167	166	166	166	166	166	165	164	163	161	160	159	159	162	164	165	166	167	168	170	170	171	173	174	174	173	173	174	177	179	180	180	179	179	178	177	177	177	178	178	178	178	177	178	179	179	179	177	176	173	170	166	165	165	165	166	166	165	165	166	166	165	165	163	161	159	158	157	156	156	156	157	156	155	153	154	154	155	155	156	155	154	153	151	150	149	147	146	144	141	139	137	134	132	131	131	132	132	133	135	137	138	139	140	140	140	141	140	138	136	134	130	123	116	111	107	103	100	98	98	98	98	99	103	107	112	120	125	130	133	135	139	142	146	150	152	153	154	155	154	152	149	144	140	140	139	136	135	135	135	135	135	135	135	135	135	135	135	135	135	135	135	135	135	136	136	135	136	138	141	146	151	156	159	159	157	157	156	159	157	153	153	157	166	175	178	180	182	184	185	186	187	187	190	194	197	198	197	198	200	202	204	205	205	205	205	204	204	203	203	201	199	199	196	192	190	186	182	181	181	180	178	177	177	175	173	173	172	169	162	159	159	158	159	161	164	167	170	173	175	177	177	175	175	179	183	184	185	185	184	186	189	190	192	194	197	201	204	206	209	209	210	213	217	220	223	226	229	230	230	231	232	235	239	240	241	244	246	245	244	242	242	243	242	238	237	237	235	232	231	230	229	227	225	224	223	221	221	219	218	216	212	209	208	208	207	207	206	205	203	202	200	198	197	196	193	191	191	189	188	188	188	186	188	192	194	195	198	200	201	203	205	207	207	207	209	212	213	214	217	220	221	224	226	227	229	234	237	238	239	243	248	252	260	265	267	270	273	276	280	283	285	286	289	293	296
5	5	5	4	4	5	5	6	7	8	9	10	11	12	12	16	18	17	17	17	17	18	18	18	18	18	18	18	18	18	18	17	17	17	18	18	20	22	24	26	28	28	27	27	27	31	33	34	36	36	36	36	36	37	37	37	37	37	37	37	37	37	37	37	37	37	37	36	36	35	34	33	31	29	28	26	25	23	22	20	20	12	11	10	10	9	9	7	7	6	6	6	6	6	5	5	5	5	5	6	6	6	7	7	8	9	18	20	21	23	25	27	29	31	34	35	35	35	35	35	35	34	34	34	34	34	33	33	33	33	33	33	32	32	32	32	31	31	28	25	22	19	11	9	8	7	6	5	5	5	5	5	5	5	5	5	5	5	5	5	6	6	6	7	7	7	7	8	8	9	9	9	9	10	10	10	10	11	11	11	11	11	12	12	12	12	12	12	12	12	12	11	11	11	11	10	10	9	9	8	8	8	9	9	10	10	11	11	12	13	13	13	14	14	15	15	16	17	18	19	20	18	18	22	23	21	19	19	19	20	22	23	23	24	27	31	33	32	26	22	27	28	27	28	28	28	28	28	28	28	28	28	28	28	30	31	33	37	41	45	48	51	54	57	61	64	66	68	70	74	77	79	82	84	87	90	93	95	95	98	104	107	109	109	107	108	107	106	105	105	105	106	107	110	114	116	116	113	109	107	107	107	107	106	104	101	101	101	101	103	104	104	103	103	103	103	103	103	103	103	103	103	103	103	103	103	103	103	103	103	103	103	103	102	101	101	100	97	97	103	105	104	110	110	104	102	102	102	102	102	102	102	106	113	114	108	103	103	104	106	110	113	117	120	122	124	126	129	133	136	147	153	159	162	164	166	168	170	172	174	175	175	174	173	172	173	174	178	183	188	192	196	200	203	205	206	207	207	207	209	211	214	215	217	218	219	219	219	219	219	220	220	220	220	220	223	225	225	225	225	225	225	224	224	224	224	224	220	217	217	217	217	217	216	217	217	217	216	216	217	217	217	217	215	212	211	210	209	209	208	207	206	206	208	208	208	209	214	218	218	216	215	215	215	212	208	206	204	202	197	195	195	197	200	202	203	205	206	207	207	206	205	204	203	200	199	198	197	196	195	194	192	191	190	184	179	178	175	173	170	169	169	171	172	172	173	170	159	152	151	157	160	161	163	165	169	171	171	174	178	179	181	184	187	189	191	193	195	196	195	196	197	195	192	189	187	185	181	179	178	178	176	175	174	173	172	170	168	167	164	162	161	160	161	164	167	168	169	171	172	173	174	175	176	178	180	182	184	187	190	188	187	186	185	184	183	183	181	179	177	175	173	172	170	168	166	163	161	160	160	158	155	152	152	152	152	153	154	156	158	160	162	164	165	166	167	167	166	165	165	163	162	161	159	158	157	158	159	160	162	165	167	169	171	171	172	173	173	174	173	171	172	172	171	169	169	168	168	168	168	167	166	164	162	159	158	158	163	165	165	166	167	169	171	172	173	175	175	175	175	174	174	176	179	180	180	181	183	182	181	179	177	177	177	177	177	177	178	178	179	178	178	177	175	172	169	167	167	168	169	169	168	168	167	167	167	166	164	161	159	158	158	157	157	158	158	158	156	155	155	156	157	157	158	157	155	154	152	151	150	148	147	145	143	141	140	137	134	132	132	133	134	135	136	139	140	141	141	141	141	142	141	140	137	135	132	124	117	112	107	103	101	99	98	98	98	99	102	106	110	118	123	129	133	135	139	142	145	149	151	152	153	154	152	150	146	141	140	140	139	136	135	136	135	135	135	135	135	135	135	135	135	135	135	135	135	135	136	136	135	136	137	140	143	147	152	156	156	155	154	157	159	164	159	153	153	154	161	174	177	178	181	183	183	183	184	187	191	195	197	197	197	197	198	200	203	204	205	205	205	205	204	204	204	201	199	199	197	192	188	183	179	179	179	178	176	176	176	175	174	173	171	164	157	155	155	155	157	160	163	166	168	171	172	175	176	176	177	181	183	184	185	185	186	190	194	195	195	197	199	201	204	207	209	209	211	215	219	221	224	228	231	231	232	233	236	238	239	241	242	245	246	245	244	242	241	239	237	236	236	235	232	230	228	227	227	226	225	224	223	221	220	219	218	217	214	210	209	208	208	207	205	203	202	200	198	196	195	194	192	192	192	189	186	187	187	186	188	191	193	194	196	198	199	200	202	205	206	206	209	211	212	213	217	221	223	225	227	228	230	233	236	239	241	247	253	256	262	265	268	271	275	278	281	284	286	289	292	295	298
5	5	5	4	4	5	5	6	7	7	8	9	10	11	11	15	19	17	16	17	17	17	18	18	18	18	18	18	18	18	18	18	18	18	19	20	21	23	26	27	28	28	27	25	25	25	25	29	32	34	35	36	37	37	37	37	37	37	37	37	37	37	37	37	37	37	37	36	36	36	36	36	36	36	35	35	34	33	31	30	29	28	27	26	25	24	23	22	21	20	20	20	20	20	20	20	20	20	21	21	22	22	23	25	27	28	29	31	32	33	34	35	35	36	36	35	35	35	35	35	34	34	34	34	34	33	33	33	33	33	33	32	32	32	32	31	30	26	23	20	17	10	8	6	5	5	5	5	5	5	5	5	5	5	5	5	5	5	5	5	6	6	6	7	7	7	8	8	8	9	9	9	10	10	10	11	11	11	11	12	12	12	12	12	12	13	13	13	12	12	12	12	12	11	11	10	10	10	9	8	8	8	9	10	10	11	11	12	12	13	13	14	14	14	15	15	16	16	16	17	16	14	13	15	18	18	18	18	18	18	19	20	21	22	25	25	26	26	25	27	27	29	27	28	28	28	28	28	28	28	28	28	28	28	28	30	32	35	39	43	46	49	52	56	60	63	66	67	69	72	75	78	80	82	84	87	90	93	94	98	103	107	108	106	104	104	104	104	104	105	106	107	108	112	112	110	107	107	107	107	107	107	107	106	102	101	102	102	103	104	104	103	103	103	103	103	103	103	103	103	103	103	103	103	103	103	103	103	103	103	104	103	102	101	101	101	100	97	96	102	105	106	109	107	103	101	101	101	102	102	102	102	104	110	107	104	103	104	106	110	113	116	119	122	124	126	128	133	142	148	154	158	162	163	166	168	170	173	175	177	178	178	177	176	176	175	176	179	184	188	191	196	200	205	209	209	209	209	210	212	213	215	217	219	220	220	221	221	221	221	221	221	221	221	223	225	226	225	225	225	225	224	224	224	224	224	221	218	217	217	217	217	217	217	217	217	217	216	216	217	217	218	217	215	212	211	211	210	211	210	209	209	210	211	211	211	212	216	218	218	216	216	217	216	212	208	205	204	201	197	194	194	196	199	200	202	203	204	204	204	204	204	204	203	201	198	196	196	195	194	193	191	190	188	181	178	178	177	173	167	166	167	171	174	176	177	175	163	154	154	158	160	160	162	164	169	171	172	174	177	180	182	185	188	190	192	193	195	195	194	195	196	195	193	191	188	186	183	181	180	179	178	176	175	175	173	171	169	168	165	163	161	161	163	165	167	169	172	174	174	176	177	178	180	181	183	184	186	189	190	187	187	187	187	186	183	181	179	177	175	172	171	169	168	166	163	162	161	160	159	158	156	154	154	155	155	156	156	158	159	161	162	164	165	166	167	167	167	167	166	164	163	162	160	159	158	158	159	160	162	164	166	168	170	171	172	173	174	175	174	173	173	173	172	171	171	170	171	171	170	169	168	166	164	161	158	157	161	165	166	167	168	169	171	173	174	176	177	177	177	176	175	175	179	180	181	181	183	184	185	183	180	179	178	177	178	178	179	179	179	179	178	177	176	173	172	171	170	171	172	172	171	170	169	169	168	167	164	161	160	159	159	159	159	159	159	159	158	158	158	158	159	160	160	159	157	155	153	153	152	150	149	147	144	143	142	139	136	134	133	135	136	137	138	140	141	142	143	143	143	143	142	140	138	136	132	125	120	115	109	105	102	99	98	98	98	99	101	104	108	111	116	125	132	134	139	143	144	146	149	150	151	152	151	148	143	140	140	140	138	136	135	135	135	135	135	135	135	135	135	135	135	135	135	135	135	136	136	135	136	137	140	143	146	149	153	155	155	153	156	163	165	164	161	156	153	153	155	168	176	179	181	182	182	181	182	186	191	195	197	197	199	200	199	198	203	206	205	206	206	206	205	204	203	201	199	199	196	191	187	184	181	179	177	176	175	175	175	174	174	174	170	161	157	155	155	154	156	160	163	165	168	171	173	175	177	178	179	181	183	184	186	187	189	193	197	196	197	199	200	203	207	210	211	211	214	218	221	223	226	230	232	233	234	236	238	239	241	243	244	245	245	244	242	239	237	235	234	235	234	231	228	227	225	225	225	225	224	224	223	221	220	220	219	217	214	211	210	209	208	206	204	201	200	199	196	194	193	192	192	192	191	188	185	185	186	186	187	190	192	193	194	194	194	195	198	201	203	205	207	209	211	212	215	219	223	226	228	229	231	233	237	241	245	253	256	257	261	265	268	272	275	279	282	285	287	291	295	297	301
5	5	5	5	5	5	5	6	6	7	8	9	10	10	11	14	19	17	16	16	17	17	17	18	18	18	18	18	17	17	18	18	18	19	20	21	23	25	27	28	29	28	27	26	24	24	23	24	25	30	31	33	35	36	37	37	37	37	37	37	37	37	37	37	37	37	37	37	36	36	36	36	36	36	36	36	36	36	36	36	36	36	35	35	35	34	33	32	31	31	31	31	31	31	31	32	32	32	32	33	33	33	34	35	35	36	36	36	36	36	36	36	36	36	36	36	36	36	35	35	35	34	34	34	34	33	33	33	33	33	32	32	32	32	31	27	24	20	17	14	8	6	5	4	4	5	5	5	5	5	5	5	5	5	5	5	5	5	5	6	6	6	7	7	7	8	8	8	9	9	9	10	10	10	11	11	11	11	12	12	12	12	13	13	13	13	13	13	13	13	13	12	12	12	11	11	10	10	9	9	9	9	9	10	10	11	11	12	13	13	13	14	14	14	15	16	16	16	15	14	12	10	10	12	13	14	15	16	16	17	18	19	19	19	20	21	23	23	26	29	30	33	28	28	28	28	28	28	28	28	28	28	29	28	27	28	30	33	37	41	44	47	50	55	60	63	66	67	68	70	73	76	78	79	81	84	87	90	94	97	102	107	107	104	103	103	103	104	106	106	107	111	109	108	107	107	107	107	107	107	107	107	107	106	101	101	103	104	104	103	103	103	103	103	103	103	103	103	103	103	103	103	103	103	104	104	104	109	108	108	108	105	103	103	103	103	102	96	97	101	101	101	109	112	111	104	101	101	101	102	102	102	103	105	102	103	103	106	111	114	116	118	120	123	125	128	132	139	148	153	156	160	163	165	168	171	173	175	177	179	180	180	180	179	179	179	179	182	186	187	191	195	200	206	209	210	211	211	212	214	215	217	219	220	221	222	223	223	223	223	223	222	221	222	226	226	226	225	225	225	225	224	224	224	223	221	218	217	217	217	217	217	217	217	217	217	217	216	216	217	218	218	217	213	211	211	213	213	213	214	213	212	212	213	213	213	214	215	217	217	216	216	217	216	211	207	204	202	200	197	193	193	195	198	200	200	200	201	201	202	203	203	203	202	200	197	195	195	194	193	191	191	191	188	180	179	179	177	171	168	168	170	175	178	180	182	178	170	157	155	157	155	156	159	161	167	173	174	175	177	181	183	185	188	190	192	194	196	195	194	195	197	196	195	192	189	187	185	183	181	180	180	178	177	176	174	172	170	168	166	163	161	161	163	166	167	170	175	176	176	178	180	181	184	185	185	186	188	190	189	188	188	188	188	186	183	181	178	175	173	170	169	167	165	163	161	161	161	160	159	157	155	155	156	157	158	159	159	160	161	161	162	164	166	167	168	168	168	168	168	165	163	162	161	160	158	158	159	160	161	163	166	168	170	171	172	173	175	177	176	176	175	174	173	173	173	173	174	174	173	172	170	168	166	163	161	159	161	164	166	168	169	171	172	174	176	177	179	179	179	178	176	175	178	180	181	182	183	184	186	184	182	180	179	179	179	179	179	179	179	179	178	178	177	175	174	174	173	173	174	173	173	172	171	170	169	167	164	162	162	161	161	162	162	160	159	159	160	160	161	161	161	162	162	160	159	157	155	154	153	152	151	149	145	144	143	141	137	135	136	138	139	139	139	141	143	145	145	145	145	144	143	141	139	137	132	126	121	116	111	106	103	100	98	98	98	98	99	102	106	108	111	119	129	132	137	142	144	146	147	148	149	149	148	144	140	140	140	140	137	136	135	135	135	135	135	135	135	135	135	135	135	135	135	135	135	136	135	135	136	139	143	146	148	151	153	154	154	154	159	166	167	166	164	159	154	152	153	161	174	178	181	181	181	181	181	184	188	192	195	197	199	202	202	201	205	207	206	206	206	206	206	204	203	202	200	199	196	192	188	186	185	182	178	177	176	175	174	174	173	171	167	160	157	155	154	155	158	161	164	167	170	172	175	177	179	180	181	182	184	186	188	190	191	195	197	197	198	201	203	206	210	212	212	214	218	221	223	225	228	230	233	234	236	238	239	240	241	242	243	243	243	242	239	236	234	232	232	232	229	226	224	223	222	221	222	222	223	224	223	221	220	219	218	216	213	211	210	209	208	206	203	200	199	197	194	192	192	191	190	190	188	186	185	185	184	183	184	187	190	191	190	189	189	191	197	200	202	205	206	207	209	212	215	219	222	226	228	229	231	233	239	245	249	255	256	258	264	267	269	272	276	281	285	287	288	292	297	300	303
4	4	5	5	5	5	5	6	6	7	7	8	9	10	10	13	19	17	16	16	16	17	17	17	17	18	18	17	17	17	17	18	19	20	21	22	24	26	28	29	29	28	27	26	25	24	24	23	23	23	23	26	30	32	34	35	37	37	37	37	37	37	37	37	37	37	37	37	36	36	36	36	36	36	36	36	36	36	36	36	36	36	36	36	36	36	36	36	36	36	36	36	36	36	36	36	36	36	36	36	36	36	36	36	36	36	36	36	36	36	36	36	36	36	36	36	36	36	35	35	35	34	34	34	34	33	33	33	33	32	32	32	31	28	24	21	17	13	7	6	5	4	4	4	5	5	5	5	5	5	5	5	5	5	5	5	5	6	6	6	6	6	7	7	7	8	8	8	9	9	10	10	10	11	11	11	12	12	12	13	13	13	13	13	13	14	14	14	13	13	13	13	13	12	11	11	11	10	10	9	9	9	10	10	11	11	12	12	13	13	14	14	14	15	15	16	16	16	18	18	14	9	9	11	11	12	13	13	13	15	18	19	18	18	18	19	22	27	29	30	33	34	34	28	28	28	28	28	28	28	28	28	29	29	28	28	29	31	35	39	43	45	48	54	60	62	66	67	67	68	71	73	75	77	80	83	86	89	92	94	98	103	104	103	103	103	103	109	115	114	111	107	107	107	107	107	107	107	107	107	107	107	107	106	102	103	105	103	103	103	103	103	103	103	103	103	103	103	103	103	103	103	106	109	110	110	110	110	110	110	110	108	106	105	106	108	106	98	97	98	96	98	106	112	112	106	102	102	101	102	102	101	102	102	102	103	105	109	114	116	117	118	120	124	126	131	138	145	151	155	159	161	164	167	170	173	175	178	180	181	182	182	182	182	182	183	184	186	187	188	191	194	198	203	207	210	212	213	214	216	218	219	220	221	222	223	224	223	224	225	224	223	222	225	226	227	226	226	225	225	224	224	224	224	221	218	217	217	217	217	217	217	217	217	217	217	218	218	217	218	219	218	215	210	211	214	215	215	215	215	213	212	213	213	213	214	214	215	215	214	214	215	215	214	210	205	203	202	199	196	193	191	192	196	198	198	199	199	200	200	200	201	201	199	198	196	195	195	193	191	190	191	192	187	182	181	179	176	170	169	170	171	177	180	183	184	182	171	157	155	153	151	155	160	162	167	173	175	175	178	181	184	186	188	191	193	195	196	195	194	195	197	197	195	193	190	188	186	184	183	182	181	179	178	176	174	172	170	169	166	163	161	161	163	165	168	171	176	177	177	180	182	183	186	188	187	188	189	190	189	188	188	188	188	186	182	180	177	174	172	169	167	166	163	161	161	163	162	160	158	156	154	156	158	159	160	161	161	161	162	163	164	166	167	168	169	169	169	169	168	166	164	162	161	160	158	157	158	159	160	163	165	167	169	171	172	174	176	177	177	178	177	176	174	174	175	176	176	177	177	175	172	169	168	166	164	162	161	163	166	168	170	172	173	175	177	179	180	180	180	180	178	176	175	175	176	177	178	180	181	180	179	180	180	180	180	179	178	178	179	178	178	178	178	177	176	176	175	175	175	175	174	174	174	172	170	168	165	163	163	163	164	166	166	164	161	160	161	162	162	163	163	164	162	160	160	158	156	155	154	154	153	150	147	145	144	142	139	137	139	141	142	142	142	143	146	147	147	146	146	145	143	140	138	136	131	126	120	115	111	107	104	100	99	98	98	98	99	101	104	106	110	117	125	129	134	140	143	146	147	147	146	146	143	141	140	140	140	138	136	135	136	135	135	135	135	135	135	135	135	135	135	135	135	135	136	136	135	136	139	142	145	148	151	153	154	155	154	155	161	167	167	167	165	158	153	152	153	158	171	176	179	181	182	180	180	182	186	189	192	195	197	201	201	202	205	207	207	206	206	207	207	206	205	203	200	198	196	193	191	188	186	183	181	179	177	176	175	174	172	166	164	161	158	154	153	157	160	163	167	171	174	176	179	181	183	184	184	184	186	188	190	191	192	193	195	197	200	203	206	209	212	214	215	217	220	222	225	227	229	231	233	235	237	238	239	240	241	241	241	240	240	239	236	234	233	231	229	228	225	223	221	220	220	220	220	221	222	223	223	222	221	219	217	216	214	212	212	210	208	207	204	201	199	196	192	190	190	189	188	187	185	183	183	182	181	180	180	182	185	187	186	186	188	191	196	199	201	204	206	207	208	212	215	219	222	225	228	229	230	232	239	246	250	255	255	258	267	270	270	273	276	281	286	289	291	294	299	302	306
4	4	4	4	5	5	5	5	6	6	7	8	8	9	10	13	19	19	15	16	16	16	17	17	17	17	17	17	17	17	17	18	19	20	22	23	25	27	29	29	29	28	27	26	26	25	25	24	24	23	22	22	22	23	28	31	33	35	36	37	37	37	37	37	37	37	37	37	37	37	37	37	37	37	37	37	37	36	36	36	36	36	36	36	36	36	36	36	36	36	36	36	36	36	36	36	36	36	36	36	36	36	36	36	36	36	36	36	36	36	36	36	36	36	36	36	36	36	36	35	35	34	34	34	33	33	33	33	32	32	32	29	25	21	17	13	8	5	4	4	4	4	4	4	5	5	5	5	5	5	5	5	5	5	5	5	6	6	6	6	6	6	7	7	8	8	8	9	9	9	10	10	10	11	11	12	12	12	13	13	13	13	14	14	14	14	14	14	14	14	13	13	13	12	12	11	11	10	10	10	10	10	10	10	11	11	12	12	13	14	14	14	14	15	15	15	16	16	17	23	14	10	9	9	10	10	11	11	11	13	15	16	15	16	17	19	21	25	29	30	32	34	35	28	28	28	28	28	28	28	28	29	29	29	29	28	28	31	34	37	41	44	46	52	58	60	63	65	65	66	69	71	73	75	78	82	84	87	90	93	96	100	102	102	102	103	105	113	111	107	107	107	107	107	107	107	107	107	107	107	107	107	107	105	104	104	103	103	103	103	103	103	103	103	103	103	103	103	103	103	102	103	107	110	110	110	110	110	110	109	109	108	108	107	107	108	109	101	95	95	97	102	107	112	110	105	103	102	101	101	101	101	101	101	102	104	107	111	114	116	117	119	121	125	129	134	143	149	155	159	161	163	165	168	172	175	178	180	183	183	183	184	184	185	185	187	188	190	190	191	194	196	199	203	206	209	212	214	216	218	219	220	221	223	224	225	227	227	225	225	224	223	224	226	226	226	226	226	226	225	225	224	224	222	219	218	217	217	217	217	218	218	217	217	218	219	222	222	220	219	218	216	211	210	215	218	217	217	216	214	211	211	213	213	213	214	214	213	212	212	213	213	212	210	206	203	203	202	199	195	193	190	188	191	194	196	198	199	199	199	199	198	198	196	195	195	194	193	192	190	190	192	191	187	183	180	178	176	173	171	170	172	174	177	182	183	182	175	159	155	153	151	159	165	165	169	172	174	176	179	182	184	186	189	191	193	195	196	195	195	195	197	197	195	193	191	189	187	186	184	183	182	180	178	176	174	172	171	169	167	164	162	161	162	165	169	172	175	177	180	183	184	184	186	188	189	189	190	190	190	189	189	188	187	184	181	179	177	175	172	169	167	164	163	162	164	165	164	160	158	156	156	157	159	159	160	162	162	162	163	165	167	168	169	170	170	170	170	169	168	166	164	163	162	161	159	158	158	159	160	162	164	166	168	170	171	174	176	178	178	179	178	178	176	176	177	178	179	180	180	179	176	172	170	168	167	165	163	163	165	168	171	173	174	175	177	180	180	180	180	180	178	176	174	173	172	172	173	175	176	177	178	179	180	180	180	179	178	179	179	179	178	178	179	179	178	177	177	178	178	177	176	176	175	174	171	168	167	165	164	166	168	169	169	169	166	164	164	165	165	165	165	165	163	161	159	158	157	156	155	155	154	151	149	147	145	143	141	141	143	144	145	145	145	147	148	149	148	147	147	145	143	140	138	135	131	127	121	115	111	108	105	101	99	98	98	98	99	101	103	106	109	113	122	128	132	138	141	144	145	145	144	142	140	140	139	139	138	136	136	135	136	135	135	135	135	135	135	135	135	135	135	135	135	136	136	135	136	138	142	146	147	150	153	156	154	154	155	157	161	164	165	165	161	154	152	154	157	163	170	173	175	179	180	179	178	182	185	186	189	193	195	199	201	203	205	207	208	207	207	207	208	207	206	202	199	197	196	194	193	190	187	184	182	180	178	176	176	175	171	166	164	162	160	156	154	157	161	165	169	173	176	179	182	184	185	187	187	187	188	189	191	193	193	193	194	197	200	204	209	212	214	216	218	219	221	223	225	229	231	232	234	236	237	237	239	240	241	241	240	239	237	236	234	232	231	228	226	225	223	220	219	218	219	221	222	221	222	222	222	222	221	220	218	216	215	213	213	211	209	208	206	202	198	195	191	189	188	187	186	184	183	181	180	179	179	180	180	180	181	183	184	186	189	192	195	197	199	202	205	206	207	209	212	216	220	224	226	228	228	231	238	245	248	253	255	259	267	270	271	274	277	280	285	290	294	297	300	304	308
4	4	4	4	4	5	5	5	6	6	7	7	8	9	9	12	19	19	15	15	16	16	16	17	17	17	17	17	17	17	17	18	19	21	22	24	26	27	29	29	29	28	27	27	26	26	26	25	25	25	23	22	21	21	21	22	26	29	32	34	35	36	37	37	37	37	37	37	37	37	37	37	37	37	37	37	37	37	37	37	37	37	37	37	37	37	37	37	37	37	36	36	36	36	36	36	36	36	36	36	36	36	36	36	36	36	37	37	37	37	37	37	37	37	37	37	37	37	36	36	35	34	34	33	33	33	33	32	31	28	24	20	17	12	6	5	4	4	4	4	4	4	4	4	5	5	5	5	5	5	5	5	5	5	6	6	6	6	6	6	6	7	7	7	8	8	8	9	9	10	10	10	11	11	11	12	12	13	13	13	13	14	14	14	14	15	15	14	14	14	14	14	13	13	12	11	11	10	10	10	10	10	10	11	11	12	12	13	14	15	15	15	14	14	11	12	16	16	19	20	12	11	11	11	11	10	9	9	9	10	11	12	12	14	16	20	23	22	25	27	30	33	36	32	28	28	28	28	28	28	29	29	29	29	29	29	28	29	32	35	39	42	45	51	56	58	60	62	62	64	66	69	71	74	77	80	83	86	89	92	96	100	101	102	102	104	107	107	107	107	107	107	107	107	107	107	107	107	107	107	107	107	107	106	104	103	103	103	103	103	103	103	103	103	103	103	103	102	102	101	100	99	106	113	114	111	111	110	107	107	107	107	107	107	108	110	108	103	99	99	101	104	107	111	108	104	102	101	101	101	101	101	101	101	102	105	109	112	115	116	118	120	122	125	129	136	146	152	157	161	163	165	167	169	173	178	180	182	184	185	185	186	187	188	189	189	191	193	194	195	196	198	202	204	207	210	213	215	218	219	221	221	223	224	225	226	227	227	226	225	223	223	226	227	227	227	226	226	226	226	225	224	223	220	218	218	218	218	218	219	219	219	219	218	220	223	224	222	220	217	214	211	211	214	217	219	218	217	216	212	211	213	214	214	214	214	213	212	212	212	212	211	209	205	202	202	203	201	198	195	192	188	186	186	190	193	194	194	194	195	195	195	195	194	193	192	193	192	191	189	191	193	190	184	181	181	179	177	178	177	174	173	173	173	175	177	177	170	161	156	154	154	160	165	166	169	172	174	177	180	183	185	186	189	191	193	195	196	197	196	195	196	196	195	194	192	190	188	187	186	185	183	181	179	177	175	174	172	170	168	165	162	161	163	165	169	173	175	177	180	185	188	187	187	188	189	191	192	192	191	190	190	189	187	184	180	178	176	175	172	169	166	163	162	163	164	165	163	160	157	155	156	158	159	160	161	162	163	164	165	167	169	170	171	171	171	171	170	169	168	166	164	163	163	162	160	161	161	159	159	160	162	165	167	169	171	173	176	178	179	179	179	179	178	178	179	179	179	181	181	180	178	175	172	170	169	168	166	164	164	167	170	173	174	176	178	180	181	180	180	180	179	177	176	175	173	173	173	175	177	178	180	180	180	181	181	181	181	181	181	180	180	180	180	180	180	179	179	180	180	179	178	177	177	175	172	170	169	168	167	169	170	171	171	171	172	171	168	166	167	167	167	167	166	163	162	160	158	156	156	155	155	152	150	149	147	144	145	147	147	147	147	147	148	149	149	150	149	148	148	146	144	142	139	136	132	129	124	119	113	109	105	102	99	98	98	98	100	102	105	107	109	112	119	127	132	136	140	142	144	143	142	140	139	139	139	138	136	136	135	136	136	135	135	135	135	135	135	135	135	135	135	135	135	136	135	136	137	142	150	151	150	152	155	156	153	153	155	159	163	164	160	158	156	155	155	159	164	169	166	164	171	175	178	177	177	182	184	183	183	186	192	198	201	203	204	207	208	207	207	207	208	207	206	203	200	199	198	196	195	192	189	186	184	182	179	176	176	174	169	165	164	163	161	156	154	156	161	166	171	175	178	182	184	185	186	187	189	189	189	190	192	195	197	197	197	198	202	206	211	214	216	217	219	221	222	223	225	229	231	233	236	236	236	237	238	240	241	242	240	238	236	234	232	230	227	224	223	222	220	218	217	216	216	221	222	222	221	220	220	221	221	220	218	216	215	214	214	213	211	209	207	204	199	195	191	188	187	186	185	184	181	180	179	178	179	180	181	180	180	183	186	189	190	191	193	195	197	200	204	205	205	207	210	212	217	221	223	223	224	229	236	242	245	250	257	261	267	269	271	275	278	282	286	291	296	298	300	305	310
4	4	4	4	4	4	5	5	5	6	6	7	8	8	9	10	18	18	15	15	16	16	16	17	17	17	17	17	17	17	17	18	19	21	22	24	26	28	29	29	29	28	27	27	26	26	26	26	27	26	25	23	22	21	20	21	22	23	25	26	31	33	34	35	36	37	37	37	37	37	37	37	37	37	37	37	37	37	37	37	37	37	37	37	37	37	37	37	37	37	37	37	37	37	37	37	37	37	37	37	37	37	37	37	37	37	37	37	37	37	37	37	37	37	37	37	37	37	37	36	34	34	33	33	33	33	32	28	24	20	15	11	6	4	3	3	4	4	4	4	4	4	4	5	5	5	5	5	5	5	5	5	6	6	6	6	6	6	6	6	7	7	7	7	8	8	9	9	9	10	10	11	11	11	12	12	12	13	13	13	14	14	14	15	15	15	15	15	15	14	14	14	14	13	12	11	11	10	10	10	10	10	10	11	11	12	13	14	15	16	16	16	14	13	9	11	16	16	18	20	17	14	13	12	12	10	10	8	7	8	8	9	10	12	15	20	24	26	26	27	28	31	35	37	28	28	28	28	28	29	29	29	29	29	29	29	29	28	29	33	37	41	44	48	52	56	59	60	61	63	65	67	70	74	77	80	83	87	89	92	98	101	101	101	101	103	107	107	107	107	107	107	107	107	107	107	107	107	107	107	107	107	107	106	104	103	103	103	103	103	103	103	103	103	100	98	97	98	97	97	96	95	99	106	111	112	110	102	99	101	102	102	102	102	101	103	103	103	103	104	105	106	107	108	106	104	102	101	101	101	101	101	101	102	103	107	111	114	116	117	119	121	122	125	131	142	150	154	158	161	164	167	169	171	176	180	181	182	184	185	186	188	190	192	193	193	194	196	197	198	199	202	204	206	209	212	215	217	219	220	221	223	224	225	226	227	228	227	226	225	223	224	227	227	227	227	227	227	226	226	226	224	220	219	218	218	218	218	219	220	220	221	220	220	220	222	221	218	217	215	212	213	216	218	218	219	219	218	216	212	212	216	216	215	215	214	212	212	213	213	211	209	206	202	199	200	201	199	197	195	191	187	185	185	186	189	191	191	191	189	190	192	192	192	190	187	189	191	190	189	191	193	189	180	180	180	179	177	178	180	179	175	173	173	172	170	169	167	161	157	156	157	160	164	166	170	172	174	176	180	182	184	186	188	190	192	194	197	197	197	196	196	196	196	195	193	191	189	187	187	186	184	182	180	179	177	175	172	170	169	166	162	161	163	166	169	172	175	177	181	185	188	188	188	189	190	192	193	192	191	191	190	189	187	183	179	177	175	174	172	168	165	162	161	161	161	161	160	158	156	155	156	158	160	161	162	163	164	166	168	169	171	172	172	172	172	172	171	169	167	165	163	162	162	161	161	163	163	160	159	159	161	163	166	169	171	173	176	178	180	180	180	180	180	180	180	180	180	180	180	180	179	177	174	171	171	170	167	166	165	166	169	172	174	177	179	181	181	181	180	181	180	179	177	177	175	174	174	175	178	180	180	180	180	182	182	182	183	183	182	181	180	181	181	181	181	181	181	182	182	181	180	179	178	177	174	172	171	171	171	172	173	174	173	173	174	174	171	169	169	169	169	169	167	166	165	163	160	157	156	156	156	154	151	149	147	145	147	150	150	150	150	150	150	151	151	151	150	150	149	148	145	143	140	137	133	130	127	122	117	111	107	103	99	98	98	99	101	104	106	108	111	114	121	129	133	136	140	144	144	142	140	139	139	139	138	137	136	135	135	136	135	135	135	135	135	135	135	135	135	135	135	136	135	135	136	137	140	148	153	153	153	154	157	155	153	153	154	159	162	159	153	152	156	158	159	162	164	167	162	155	165	172	175	176	176	177	179	178	178	181	188	195	200	202	203	205	207	207	207	207	207	207	205	203	202	202	201	198	196	194	191	188	186	184	181	176	173	172	168	165	165	164	161	157	154	155	160	166	171	175	178	182	185	185	186	188	189	190	191	192	194	197	199	200	200	200	203	207	212	215	216	218	221	222	223	224	226	229	231	233	235	235	234	236	238	240	241	241	240	237	235	233	231	228	225	223	221	221	219	217	216	214	213	217	220	221	221	220	220	220	221	220	218	216	215	215	214	214	212	209	207	204	200	196	193	190	188	187	185	183	181	179	178	177	177	179	181	181	180	183	188	190	189	189	192	194	197	200	203	205	205	207	209	212	217	220	221	222	224	229	234	239	244	250	257	261	265	269	272	276	280	284	287	292	296	299	301	306	312
4	3	3	4	4	4	4	5	5	6	6	7	7	8	9	9	18	19	15	15	16	16	16	17	17	17	17	17	17	17	17	18	19	21	22	24	26	27	28	29	28	28	27	27	27	27	27	27	27	27	26	24	23	22	22	22	22	23	24	24	25	26	28	29	32	33	34	35	36	37	37	37	37	37	37	37	37	37	37	37	37	37	37	37	37	37	37	37	37	37	37	37	37	37	37	37	37	37	37	37	37	37	37	37	37	37	37	37	37	37	37	37	37	37	37	37	37	37	36	35	34	33	33	33	31	27	22	19	15	10	5	4	3	3	3	3	4	4	4	4	4	4	4	5	5	5	5	5	5	5	5	6	6	6	6	6	6	6	6	7	7	7	7	8	8	8	9	9	10	10	10	11	11	12	12	12	13	13	13	14	14	14	15	15	15	15	16	15	15	15	15	14	14	13	13	12	11	10	10	9	9	10	10	11	11	13	14	15	17	17	17	16	14	12	7	8	13	16	17	15	14	14	14	14	13	12	11	8	7	7	7	8	9	10	13	18	23	27	27	27	28	30	34	37	28	28	28	28	29	29	29	29	29	29	29	30	30	29	28	30	34	37	41	44	46	48	53	57	59	62	65	67	70	74	78	81	84	87	89	93	99	102	101	101	101	101	104	107	107	107	107	107	107	107	107	107	107	107	107	107	107	108	108	106	104	103	104	103	103	103	103	101	98	95	93	92	91	92	92	91	90	89	89	92	97	99	95	91	90	91	92	93	94	93	92	95	98	100	102	105	106	107	108	107	106	106	104	101	101	101	101	101	101	102	104	108	112	115	116	117	119	121	122	125	132	144	150	156	159	162	165	168	170	173	178	181	182	183	184	185	187	189	192	194	196	197	198	199	201	201	203	204	206	209	211	214	216	219	220	221	222	223	225	226	227	229	229	228	227	225	224	227	227	227	227	227	227	227	227	226	226	222	219	219	219	219	220	219	219	220	220	220	221	220	220	221	219	218	217	216	215	217	218	219	219	220	221	220	218	215	215	217	217	215	215	213	212	213	214	212	211	209	204	200	198	198	199	197	196	193	189	186	185	185	185	189	193	194	195	194	193	193	192	191	188	183	184	187	186	188	190	191	185	177	177	178	178	178	178	180	178	175	174	173	172	171	169	167	162	159	159	159	161	164	167	169	171	173	175	178	181	182	183	186	188	190	192	195	197	198	198	197	197	196	194	193	191	189	187	186	185	183	182	181	180	178	176	172	170	170	167	163	162	163	166	169	173	175	178	181	185	186	187	189	191	192	192	193	193	192	191	190	188	186	183	179	176	174	173	171	168	165	162	160	159	158	158	157	156	156	156	158	160	162	163	164	165	167	168	170	171	173	174	174	173	173	172	171	169	167	165	163	162	160	160	161	164	162	160	159	159	160	162	166	169	172	174	175	176	179	181	182	182	181	181	181	181	180	180	180	180	180	179	175	173	172	171	169	168	166	166	168	171	174	176	178	180	181	181	181	181	181	180	179	178	178	176	175	177	179	180	181	181	182	183	183	183	183	183	182	181	181	181	182	182	183	184	185	185	184	183	182	181	180	179	177	175	175	175	175	174	174	175	174	174	174	174	172	171	171	171	171	169	167	166	166	165	162	159	158	157	157	155	152	149	147	145	146	148	150	151	152	153	153	152	151	151	151	151	151	149	146	143	139	137	135	132	128	124	119	114	109	104	100	98	98	99	102	105	108	110	114	120	126	130	134	137	141	143	142	141	139	139	140	140	138	136	135	136	136	135	135	135	135	135	135	135	135	135	135	135	135	136	135	136	137	139	142	150	154	154	154	155	158	157	154	153	153	154	155	153	153	156	157	156	157	161	164	165	163	157	156	168	171	173	175	174	173	175	178	181	187	193	197	200	202	204	206	207	207	207	206	206	205	204	204	203	202	199	197	194	192	189	186	184	181	174	172	172	170	166	165	165	164	160	156	156	159	165	170	174	177	181	185	186	187	189	190	192	193	194	196	198	200	201	201	200	201	205	212	216	217	219	223	224	224	225	227	229	231	232	233	233	233	235	237	239	239	239	238	237	234	231	228	227	226	223	220	219	217	215	213	210	209	211	215	218	220	220	220	220	220	219	218	216	215	215	214	213	211	208	206	204	201	198	194	191	189	187	185	181	178	177	176	175	175	178	182	182	180	183	188	189	188	190	193	195	198	201	204	206	207	209	210	215	221	223	223	224	226	230	234	239	244	250	256	260	264	268	273	277	281	285	288	292	296	300	303	308	312
3	3	3	3	3	4	4	4	5	5	6	6	7	8	9	9	18	19	15	15	16	16	16	17	17	17	17	17	17	17	17	18	19	21	22	24	26	27	28	28	28	28	28	27	27	27	27	28	28	28	27	26	25	24	23	24	24	24	25	25	25	25	25	25	25	26	27	32	33	34	35	36	35	34	36	37	37	37	37	37	37	37	37	37	37	37	37	37	37	37	37	37	37	37	37	37	37	37	37	37	37	37	37	37	37	37	37	38	37	37	37	36	35	34	34	35	36	35	35	34	33	33	31	27	22	17	13	6	4	3	3	3	3	3	3	3	3	4	4	4	4	4	4	5	5	5	5	5	5	5	5	6	6	6	6	6	6	6	7	7	7	7	7	8	8	9	9	9	10	10	11	11	11	12	12	12	13	13	14	14	14	15	15	15	15	16	16	16	15	15	15	14	14	14	13	12	11	10	10	9	9	9	10	11	12	13	14	16	18	19	19	17	15	11	6	6	10	16	16	16	15	14	14	13	12	12	10	10	9	8	7	7	8	8	9	13	18	23	23	26	29	29	33	37	39	28	29	29	29	29	29	29	29	29	29	30	30	29	28	29	30	34	38	42	44	45	52	58	59	61	64	68	71	74	78	81	84	87	89	91	96	99	100	100	100	101	103	107	107	107	107	107	107	107	107	107	107	107	107	107	107	106	106	102	101	101	101	100	101	100	95	92	90	88	87	87	88	87	87	86	86	86	86	87	87	87	87	88	88	87	87	87	87	89	91	92	94	98	101	103	104	106	106	106	107	108	106	102	101	101	101	101	101	103	106	109	112	115	116	117	119	120	121	126	132	141	150	156	159	163	166	169	172	175	179	182	184	185	186	187	188	190	192	195	198	200	201	202	204	205	206	207	210	212	214	216	218	220	221	222	223	224	226	227	228	230	230	229	227	226	227	228	227	227	227	227	227	227	227	226	223	220	219	219	220	221	221	220	220	221	221	221	221	221	222	222	222	221	220	219	219	218	219	220	220	220	221	220	219	219	218	218	216	215	214	213	212	214	214	212	211	208	203	199	198	199	199	196	194	190	187	185	185	185	185	190	195	197	198	197	196	195	194	192	188	183	182	182	182	184	185	184	182	178	175	176	178	179	179	179	177	175	174	174	174	173	171	168	165	162	161	161	163	165	167	169	170	171	173	176	177	177	180	183	186	188	190	193	196	198	199	198	197	196	194	192	190	188	187	185	184	183	182	181	180	178	176	172	170	169	167	164	163	164	167	170	173	175	178	181	184	186	188	190	192	194	194	193	193	193	192	190	187	185	182	179	176	173	171	169	167	165	163	161	159	158	158	156	155	156	158	160	161	162	164	166	167	169	170	171	173	174	175	175	174	173	172	170	168	166	165	163	162	160	159	161	164	163	162	161	160	160	163	166	169	171	173	173	174	178	182	184	184	184	183	183	182	183	183	183	181	181	180	178	175	174	173	171	170	168	166	168	171	173	176	178	180	181	181	181	181	182	181	180	179	179	177	176	178	180	181	181	183	184	185	185	185	184	183	182	182	182	182	183	184	185	186	187	186	185	184	183	183	182	180	179	178	177	177	176	175	175	175	175	175	175	174	174	174	173	173	172	170	168	167	166	166	164	162	160	159	157	155	152	149	147	146	146	148	150	152	154	155	155	153	151	150	151	151	151	149	146	142	139	137	136	134	130	126	121	115	110	105	101	99	99	100	103	106	109	112	117	125	129	132	135	139	140	141	141	139	139	140	141	140	137	136	135	136	135	135	135	135	135	135	135	135	135	135	135	135	135	136	135	136	138	141	144	148	153	154	154	155	159	160	157	154	153	152	152	152	155	160	157	154	155	159	164	165	164	160	152	159	169	169	170	169	171	175	178	183	189	193	196	199	201	202	203	205	206	206	205	205	204	205	205	203	201	199	196	195	192	189	186	184	180	173	171	172	170	166	165	165	165	161	157	156	158	163	168	173	175	179	183	186	187	189	190	192	194	196	197	199	201	203	203	202	203	207	212	215	217	221	224	225	226	226	227	229	231	231	232	232	232	232	234	235	236	236	236	234	232	229	227	226	225	222	219	217	214	212	210	209	209	210	211	214	217	219	219	218	219	219	217	216	215	213	211	210	209	207	204	203	200	197	194	191	189	186	183	180	176	175	174	174	173	176	180	180	179	183	188	188	189	192	196	197	199	203	206	208	209	210	212	220	226	227	226	225	228	230	233	238	244	250	255	260	264	268	273	277	281	285	288	291	296	301	306	310	312
3	3	3	3	3	3	4	4	5	5	6	6	7	8	9	9	17	19	15	15	16	16	16	17	17	17	17	17	17	17	17	18	19	21	22	24	25	27	27	28	28	28	28	28	28	28	28	28	28	28	28	27	26	26	25	25	26	26	26	26	26	26	26	25	25	25	25	25	26	27	30	30	33	30	31	33	35	36	36	37	37	37	37	37	37	37	37	37	37	37	37	37	37	37	37	37	37	37	37	37	37	37	37	37	37	37	36	35	34	33	32	31	31	32	33	34	34	34	34	33	31	26	21	13	7	5	3	3	3	3	3	3	3	3	3	3	3	4	4	4	4	4	5	5	5	5	5	5	5	5	6	6	6	6	6	6	6	7	7	7	7	7	8	8	8	9	9	10	10	10	11	11	12	12	12	13	13	13	14	14	15	15	15	16	16	16	16	16	16	15	15	15	15	14	13	12	11	10	9	9	9	9	10	11	12	13	15	18	19	20	20	19	16	11	5	5	8	15	17	17	16	15	14	13	13	12	11	10	10	10	9	8	7	7	7	8	13	18	19	25	28	29	30	33	37	30	29	29	29	29	29	29	29	29	29	29	30	30	29	28	29	31	35	40	45	47	52	58	61	62	65	69	72	75	78	81	83	86	88	91	95	99	100	100	99	100	103	107	107	107	107	107	107	107	107	107	107	107	107	106	104	102	100	98	95	93	92	93	96	95	90	88	86	85	86	86	86	85	85	85	85	86	87	87	87	87	87	87	87	85	83	83	83	86	88	88	90	94	99	101	102	104	105	106	108	109	108	102	100	101	101	101	101	103	106	111	114	117	117	117	118	119	121	127	133	139	150	155	159	163	166	169	172	175	178	182	185	186	187	188	189	191	193	195	198	201	203	204	206	208	209	211	215	216	217	218	220	220	221	222	223	224	226	228	229	231	230	228	226	226	228	228	228	227	227	227	227	227	227	224	221	220	219	220	221	221	221	221	223	224	225	224	223	223	224	224	224	224	224	223	222	220	221	221	221	220	220	220	220	220	220	219	217	216	214	213	213	215	214	212	211	211	206	200	198	199	198	195	192	189	186	186	185	185	185	190	195	197	197	197	197	197	197	194	188	185	184	183	182	182	182	181	181	181	179	180	183	183	181	178	176	175	175	174	173	173	171	169	166	164	162	161	163	165	166	167	168	169	169	171	173	175	178	181	184	187	190	193	195	197	198	197	197	195	193	191	189	187	186	185	184	183	182	181	179	177	175	172	170	168	166	164	164	166	168	171	173	175	178	181	184	186	188	191	194	196	196	194	193	194	193	190	187	185	182	179	176	174	171	168	166	165	163	161	159	159	157	154	155	158	159	161	162	163	164	166	169	170	171	173	174	176	176	176	176	174	173	170	168	166	164	163	162	160	159	161	164	164	163	163	162	161	163	166	168	170	172	172	174	178	182	185	186	185	185	184	184	185	185	184	182	182	181	179	177	176	175	173	172	169	167	168	171	173	176	178	180	182	182	181	181	182	183	182	179	179	178	178	180	182	183	183	185	186	187	187	186	186	185	184	183	183	183	184	185	186	187	187	187	187	185	185	184	183	181	180	179	177	177	177	176	176	176	176	176	176	176	175	175	175	174	173	172	170	168	167	166	165	163	162	159	157	154	152	149	147	145	146	148	151	153	155	155	155	153	151	150	151	151	150	147	144	141	139	137	136	134	132	129	123	116	111	106	102	100	99	100	104	107	110	113	120	125	130	133	136	139	140	141	140	139	139	139	139	138	136	135	136	136	135	135	135	135	135	135	135	135	135	135	135	135	135	136	135	136	138	142	144	146	150	153	153	154	159	162	159	155	153	152	153	154	156	158	155	153	153	156	161	163	163	159	151	152	161	165	165	167	172	176	180	185	190	194	196	198	200	201	202	204	206	206	205	204	204	205	204	202	200	197	195	194	190	187	184	182	179	174	171	170	168	164	164	164	163	160	157	156	158	161	166	172	175	177	181	184	186	188	190	193	196	197	198	201	203	205	205	205	207	209	212	215	218	223	225	227	228	227	227	228	230	231	231	231	231	230	230	231	232	233	233	231	229	227	226	226	224	221	218	215	213	210	208	207	208	208	208	211	214	217	216	216	217	218	217	215	213	212	210	208	207	205	203	201	198	194	191	189	187	184	182	179	176	175	173	172	171	173	177	178	178	182	188	189	190	194	198	199	201	205	208	210	211	211	214	220	224	226	226	227	229	231	233	237	244	250	255	260	264	268	273	276	281	285	288	290	296	303	308	311	313
3	3	3	3	3	3	3	4	4	5	6	7	7	8	8	10	17	19	15	15	16	16	16	17	17	17	17	17	17	17	17	18	19	20	22	24	25	26	27	28	28	28	28	28	28	28	28	28	28	28	28	28	28	27	27	27	27	27	28	28	27	27	27	27	26	26	26	25	25	26	27	28	27	26	25	25	31	33	34	35	35	36	36	36	36	36	37	37	37	37	37	37	37	37	37	37	37	37	37	37	36	36	35	35	34	33	32	31	31	24	17	16	16	17	18	18	18	18	16	14	11	8	6	3	2	2	3	3	3	3	3	3	3	3	3	3	3	4	4	4	4	4	5	5	5	5	5	5	5	5	6	6	6	6	6	6	7	7	7	7	7	7	8	8	9	9	9	10	10	11	11	12	12	12	12	13	13	14	14	14	15	15	15	16	16	16	17	16	16	16	15	15	15	14	13	12	11	10	9	9	9	9	10	11	12	13	15	19	21	22	22	20	18	12	5	5	7	13	18	17	16	14	13	13	12	12	11	10	10	9	9	9	8	7	7	8	10	16	22	25	27	28	29	31	36	36	29	29	29	29	29	29	29	29	29	29	30	30	29	28	28	29	31	37	44	47	50	53	61	65	67	71	74	76	79	81	84	86	89	92	96	99	100	99	99	100	103	107	107	107	107	107	107	107	107	108	107	106	103	101	99	98	96	94	92	91	91	91	90	89	86	85	85	85	86	86	85	85	85	86	86	87	87	87	87	86	86	82	81	80	79	78	79	81	83	84	87	92	97	98	100	103	105	107	109	110	108	102	100	100	101	100	101	103	108	114	119	121	120	118	117	119	123	128	132	138	151	155	159	163	167	169	172	174	177	180	183	185	186	187	189	191	193	194	197	200	203	205	207	210	212	215	217	217	218	219	220	221	222	223	224	225	226	228	229	230	229	228	226	225	227	227	227	227	227	227	227	227	225	222	220	220	220	220	221	221	221	222	225	228	230	229	227	227	227	226	226	227	228	228	225	223	222	222	221	220	221	222	221	221	221	219	218	216	214	212	213	215	214	212	211	211	208	203	200	199	198	195	193	191	190	189	185	185	185	189	195	196	196	197	198	198	198	195	191	188	187	186	185	183	182	182	181	182	181	183	185	186	183	177	176	176	175	173	171	171	170	169	167	164	162	161	162	163	164	165	166	167	168	169	171	175	179	181	183	186	189	191	194	196	197	197	196	195	193	190	188	186	185	185	184	183	181	180	178	176	174	171	169	167	165	164	165	167	169	172	174	176	179	182	185	187	190	192	195	197	196	194	194	194	193	190	187	184	181	179	176	174	171	167	165	164	163	161	160	159	157	152	156	160	162	163	163	164	165	167	169	171	172	174	176	177	178	177	176	175	174	171	168	165	164	163	161	160	159	160	162	163	163	164	164	162	163	165	167	170	172	173	175	178	182	185	186	186	185	185	185	185	185	184	183	183	182	180	179	178	178	176	173	170	168	169	171	173	176	178	180	182	183	182	182	183	186	186	182	180	179	179	181	183	184	186	187	187	188	188	188	188	187	186	185	184	184	185	186	187	187	187	188	188	187	186	185	184	183	181	180	178	178	177	177	177	177	177	177	177	177	176	176	175	175	174	173	171	169	168	167	166	164	162	160	157	154	151	148	146	145	145	147	152	154	155	155	155	154	153	151	151	149	148	146	143	141	139	138	136	134	132	129	124	117	112	108	104	100	99	100	104	108	111	115	121	126	130	133	136	138	139	140	139	139	139	138	137	136	135	135	136	135	135	135	135	135	135	135	135	135	135	135	135	135	135	136	135	136	138	141	143	146	148	150	152	153	157	160	160	158	155	155	156	157	156	155	153	150	148	152	158	161	163	163	153	150	153	160	163	168	172	175	180	186	190	193	196	197	199	200	201	203	205	205	205	203	203	203	203	201	198	195	193	191	187	184	181	180	178	174	172	170	167	163	163	163	160	157	155	156	158	159	163	171	175	178	181	182	184	187	190	193	197	198	199	201	204	206	207	207	209	211	213	217	222	225	225	227	228	227	227	228	230	230	230	229	229	228	229	230	230	230	229	228	227	227	226	225	223	220	217	214	212	209	206	204	205	206	206	208	212	214	214	214	215	216	215	214	212	211	209	208	206	204	202	199	196	192	190	188	185	183	180	178	176	174	173	171	171	173	175	177	178	181	186	189	191	195	199	200	203	206	207	210	212	212	213	217	221	224	226	228	231	232	234	236	244	251	256	260	264	268	272	275	280	285	287	289	296	303	308	310	314
3	3	2	2	3	3	3	3	4	5	6	6	7	8	9	9	16	19	17	15	16	16	16	17	17	17	17	17	17	17	17	18	19	20	22	23	25	26	27	27	28	28	28	28	28	28	28	28	29	29	29	29	28	28	28	28	28	28	29	29	28	28	28	28	28	27	27	27	26	27	27	28	28	27	26	25	25	24	24	24	24	23	23	25	28	28	28	28	28	32	35	35	35	36	35	35	27	27	27	26	26	26	25	17	16	16	16	15	15	15	16	16	16	17	17	17	15	12	10	7	5	2	2	2	2	2	2	2	3	3	3	3	3	3	3	3	3	4	4	4	4	4	4	5	5	5	5	5	5	5	6	6	6	6	6	7	7	7	7	7	7	8	8	8	9	9	9	10	10	10	11	11	12	12	12	13	13	14	14	14	15	15	16	16	16	16	17	17	16	16	16	15	15	14	13	12	11	10	9	8	8	9	10	11	12	13	15	19	22	24	24	23	21	17	8	5	6	9	17	17	15	13	14	13	12	12	11	10	10	9	9	9	9	8	7	8	9	12	21	25	27	28	29	32	35	37	29	29	29	29	29	29	29	29	29	29	30	30	30	29	28	29	29	33	39	47	55	57	63	68	70	72	74	76	79	82	85	88	90	93	96	99	99	99	98	100	103	107	107	107	107	107	107	108	108	106	103	101	99	97	96	94	92	90	88	87	87	87	86	85	85	85	85	85	86	86	86	86	86	86	87	87	87	86	85	82	79	74	70	71	72	73	75	77	78	79	85	93	95	97	100	103	105	107	109	111	108	101	100	100	100	100	101	104	112	115	120	121	120	119	118	118	122	128	131	138	149	157	159	162	165	168	171	174	176	179	181	182	184	186	188	190	192	194	196	199	202	204	206	210	213	216	217	218	219	220	221	222	223	223	224	225	227	228	230	231	229	227	225	225	226	225	226	227	227	227	227	225	222	221	221	220	220	221	221	221	222	223	226	230	232	232	231	231	230	228	227	228	231	231	229	224	222	221	221	220	222	223	222	222	221	219	217	216	214	213	212	214	215	213	211	210	208	206	203	200	199	197	195	194	193	191	186	185	185	189	195	195	196	198	199	200	199	197	194	190	188	188	187	185	184	184	183	183	183	183	184	184	181	177	176	175	174	172	170	170	169	168	166	164	162	161	161	162	163	164	166	167	168	170	172	177	180	181	183	186	188	190	193	195	196	195	195	195	192	189	186	184	183	183	182	181	179	178	176	175	173	170	167	166	165	165	166	168	170	173	175	178	180	183	186	189	191	193	196	197	196	194	194	195	193	190	186	183	180	177	175	173	171	167	165	164	162	161	159	159	157	153	157	162	164	165	165	165	167	168	170	171	173	176	178	178	178	178	176	175	173	171	168	165	163	162	161	160	159	159	160	161	162	164	164	161	162	165	168	171	173	175	177	180	182	185	186	186	186	186	186	186	185	184	184	184	183	181	180	179	179	177	174	172	170	169	170	173	176	179	180	182	184	184	183	184	186	187	184	181	180	180	182	184	185	187	188	189	189	190	190	189	189	188	187	185	184	185	186	187	188	188	189	189	188	187	187	186	184	183	182	180	178	177	177	177	177	178	178	178	177	177	177	176	175	174	173	171	170	168	167	166	164	162	160	157	154	151	148	147	145	145	148	152	154	155	154	154	154	153	151	149	148	147	146	144	141	139	138	136	133	131	128	124	119	114	110	106	102	99	100	103	107	111	116	122	127	130	133	135	137	138	138	138	139	139	138	136	136	135	136	135	135	135	135	135	135	135	135	135	135	135	135	135	135	135	136	135	136	137	139	140	142	144	145	148	150	152	156	158	158	155	155	156	156	153	150	147	142	140	147	154	160	163	164	158	152	151	157	163	168	170	173	179	185	189	192	194	196	198	199	199	199	201	202	201	200	201	201	200	198	196	194	192	188	185	183	181	180	176	172	171	171	167	164	163	160	158	157	157	159	160	160	165	172	174	177	180	181	183	186	188	191	196	199	200	202	205	207	208	209	211	213	214	219	225	226	226	227	227	226	226	227	228	230	229	227	226	226	227	227	226	226	225	225	225	226	225	224	222	219	216	213	211	209	205	202	203	205	205	204	207	211	212	213	214	214	214	212	210	209	208	207	205	202	200	197	194	191	190	188	185	182	179	176	174	173	172	171	171	173	175	177	179	181	185	190	193	196	199	202	203	205	206	208	211	212	214	218	221	223	226	229	232	234	237	239	246	252	256	260	264	268	271	273	278	283	286	288	295	302	306	309	313
3	2	2	2	2	3	3	3	4	4	5	6	7	8	8	9	13	19	18	15	15	16	16	16	16	17	17	16	16	17	17	18	19	21	22	23	24	25	27	27	28	28	28	28	28	29	29	29	29	29	29	29	29	29	29	29	29	29	29	29	29	29	29	29	29	28	28	28	28	28	28	28	28	27	27	26	25	25	24	24	23	23	22	21	21	20	20	20	19	19	19	19	18	18	18	17	17	17	17	16	16	16	16	16	16	15	15	15	14	15	16	16	16	16	14	11	7	5	3	1	1	1	1	1	2	2	2	2	2	3	3	3	3	3	3	3	3	3	4	4	4	4	4	5	5	5	5	5	5	5	6	6	6	6	7	7	7	7	7	7	7	8	8	8	9	9	9	10	10	10	10	10	11	11	12	12	13	13	14	15	15	15	16	16	16	17	17	17	17	16	16	16	15	15	13	12	11	10	9	8	8	9	9	10	11	12	14	18	21	23	25	25	23	21	15	7	5	6	11	15	13	13	12	12	11	11	10	10	10	10	10	9	9	9	8	8	10	12	13	23	26	27	28	31	33	38	35	29	29	29	29	29	29	29	30	29	30	30	30	30	28	28	29	30	34	42	54	59	65	69	70	71	73	77	79	82	87	90	92	94	97	99	99	98	98	101	103	107	108	108	107	108	108	105	103	101	99	97	95	93	91	89	88	86	86	85	86	86	85	85	86	86	86	86	86	86	86	86	85	85	86	87	87	86	83	77	72	69	66	67	68	70	71	72	74	76	79	85	92	96	100	103	105	107	109	110	107	101	100	100	100	100	102	109	114	113	117	118	118	121	121	120	124	130	133	136	145	155	158	160	163	166	170	173	176	177	178	179	181	184	187	189	192	193	195	198	200	201	204	208	212	215	217	218	219	220	221	222	222	223	224	225	226	227	229	229	227	226	225	226	226	225	225	226	227	228	226	223	222	221	221	221	221	222	223	223	223	225	229	231	232	233	233	234	233	231	229	229	232	233	230	225	223	221	221	220	221	223	222	222	222	219	217	218	218	217	213	213	214	214	212	210	209	207	204	203	201	199	196	195	194	192	188	185	185	187	193	195	196	198	200	202	200	198	196	191	189	188	188	187	186	185	184	184	184	183	182	180	179	178	176	176	174	171	170	170	169	167	165	163	162	161	162	162	163	164	166	168	170	171	174	179	181	182	184	187	189	191	193	194	194	193	194	193	191	187	184	183	181	180	179	178	178	177	175	173	171	168	166	165	165	165	167	169	172	174	177	179	181	184	188	191	192	194	197	198	197	195	195	195	193	189	186	183	179	176	173	172	170	167	165	163	161	160	159	157	157	157	160	163	165	165	165	167	168	170	170	172	175	177	179	179	179	178	176	174	172	170	168	165	163	161	160	159	158	158	159	160	162	163	162	160	162	165	168	172	174	176	179	181	183	185	186	186	187	187	187	187	186	186	186	186	185	184	182	181	180	178	175	173	170	168	169	173	176	179	181	182	184	185	185	186	187	186	185	184	183	182	184	186	187	188	189	190	191	191	191	191	190	190	188	186	184	185	186	188	189	189	189	190	189	188	188	186	185	184	183	182	180	178	177	177	177	179	179	179	178	178	177	176	175	174	172	171	169	168	166	165	163	160	158	156	153	151	150	149	147	146	149	152	153	153	153	153	152	151	149	148	147	146	146	144	141	140	139	136	133	130	127	124	120	115	111	108	103	100	99	101	105	109	114	121	127	131	132	134	135	136	136	137	139	138	137	136	135	136	135	135	135	135	135	135	135	135	135	135	135	135	135	135	135	135	136	135	135	136	136	136	137	138	140	143	146	147	149	152	153	153	153	152	151	147	144	140	136	136	142	151	156	160	160	159	156	151	151	160	167	170	173	178	182	187	190	192	194	196	198	198	197	197	198	198	198	198	198	197	196	195	193	191	188	185	184	182	178	174	171	170	170	167	165	162	158	158	160	160	162	163	164	169	173	174	177	179	181	183	186	187	190	195	199	201	203	205	207	209	211	213	214	215	220	224	224	225	225	225	225	225	224	225	227	227	225	223	222	222	222	222	222	222	223	224	225	224	221	219	217	214	212	210	208	204	201	200	202	201	198	200	205	208	211	212	212	211	208	206	206	205	204	201	198	196	194	192	191	189	187	184	182	177	173	172	171	170	170	172	174	176	179	181	183	188	193	195	197	200	202	203	204	206	207	209	211	214	218	221	224	227	230	233	235	239	243	249	253	255	258	262	266	269	271	276	281	285	288	294	300	304	307	310
2	2	2	2	2	2	3	3	4	4	5	6	7	8	8	9	12	19	18	15	15	16	16	16	16	16	16	16	16	17	17	18	19	21	22	23	24	25	26	27	28	28	28	28	29	29	29	29	29	29	29	29	29	29	29	29	29	29	29	30	30	29	29	29	29	29	29	29	29	28	28	28	28	28	27	27	26	25	25	24	24	23	22	21	21	20	20	19	19	19	19	18	18	18	17	17	17	17	16	16	16	16	16	15	15	15	15	14	14	15	16	15	12	9	6	3	1	1	1	1	1	1	1	1	1	1	2	2	2	3	3	3	3	3	3	3	3	3	4	4	4	4	4	4	5	5	5	5	5	5	6	6	6	6	7	7	7	7	7	7	7	8	8	8	9	9	9	10	10	10	11	11	11	11	12	12	13	14	14	15	15	15	16	16	16	17	17	17	17	16	16	16	16	15	14	12	11	10	9	8	8	8	9	10	10	11	13	16	18	21	23	24	24	23	21	12	6	5	7	11	13	12	12	12	11	10	10	10	11	10	10	10	10	9	8	8	11	12	13	15	23	25	27	29	33	36	37	29	29	29	29	29	29	30	30	29	29	30	30	31	30	28	29	29	31	39	50	57	64	68	69	70	72	77	81	83	87	92	94	96	99	99	98	97	98	102	107	111	111	109	105	104	103	101	99	97	95	93	90	88	87	86	86	87	86	87	88	88	87	86	86	86	86	86	86	86	85	85	86	86	86	85	85	84	78	73	69	66	65	65	66	66	66	67	70	73	75	77	83	89	98	102	106	108	110	111	109	102	100	100	100	100	105	112	112	112	114	119	120	123	125	128	129	131	135	136	140	148	155	158	161	162	165	170	173	174	175	176	179	182	184	187	190	192	194	196	199	200	204	210	214	216	217	218	219	220	221	221	222	223	224	225	225	227	227	227	226	224	225	226	225	225	225	226	227	226	224	222	222	222	222	222	222	224	225	226	228	230	233	235	234	235	236	236	236	235	233	232	233	233	230	226	223	222	221	220	221	221	221	221	221	220	219	220	221	221	217	213	212	213	213	212	210	207	206	205	203	201	198	196	194	192	189	187	185	185	189	193	195	197	199	200	199	198	195	192	191	190	189	188	187	186	185	184	184	183	181	179	179	178	176	177	177	173	171	172	171	168	166	164	163	163	164	164	164	163	164	168	172	174	177	181	184	185	186	189	190	192	193	193	192	192	193	191	189	186	183	182	180	178	176	176	176	175	173	171	169	168	168	168	167	167	168	170	173	175	177	180	182	185	189	192	193	195	198	200	197	195	195	195	193	189	186	182	179	175	172	171	168	166	164	162	161	160	159	157	157	157	161	164	165	165	166	168	170	171	172	174	176	178	180	180	180	179	178	175	172	171	169	166	163	161	160	159	158	157	158	160	161	162	160	160	163	165	168	172	174	177	180	181	183	184	185	186	187	187	187	187	187	187	187	188	187	186	184	182	181	179	176	173	171	169	168	172	176	179	181	183	185	186	187	187	187	187	187	187	186	185	187	189	189	190	191	192	193	193	192	192	191	190	188	187	186	186	188	189	190	190	191	190	190	190	188	187	185	183	182	182	180	178	177	177	178	179	179	178	177	177	177	176	176	174	172	171	169	168	165	163	161	159	156	155	153	151	150	151	149	147	149	152	152	152	152	151	150	149	147	146	146	145	144	143	142	142	139	135	132	131	128	126	121	115	112	109	105	101	99	100	102	107	111	117	124	130	132	132	133	135	136	137	139	138	136	135	135	136	135	135	135	135	135	135	135	135	135	135	135	135	135	135	135	135	135	136	136	135	135	135	136	136	136	139	142	143	144	146	149	150	150	148	146	143	140	137	136	136	141	148	152	155	157	159	156	150	149	155	166	171	175	178	179	183	187	189	192	194	196	197	196	196	196	196	196	196	195	194	194	192	191	189	187	185	183	180	175	172	170	170	170	169	167	162	159	162	163	163	164	166	170	173	175	176	178	180	183	184	187	188	191	196	200	203	205	206	208	210	212	214	215	216	218	220	222	223	223	223	223	222	221	220	222	223	222	220	218	217	216	217	218	220	221	221	221	220	218	217	214	212	212	210	208	203	199	198	196	196	196	198	201	203	206	208	208	207	205	203	202	201	199	196	193	191	189	188	188	187	184	183	182	177	171	171	170	170	171	174	177	179	182	183	186	192	195	196	197	200	201	202	204	206	208	210	212	215	217	220	225	229	231	233	235	240	245	250	252	253	256	259	263	267	270	274	279	284	288	292	298	302	305	309
2	2	2	2	2	2	3	3	3	4	5	6	7	8	9	9	12	18	18	15	16	16	16	16	16	16	16	16	16	17	17	18	19	20	22	23	24	25	26	27	28	28	28	29	29	29	29	29	30	30	30	30	30	30	29	29	29	30	30	30	30	30	30	30	30	30	30	30	30	29	29	28	28	28	27	27	26	26	25	25	24	23	22	22	21	20	20	19	19	19	18	18	18	17	17	17	17	16	16	16	16	16	15	15	15	15	15	13	13	13	11	8	4	1	0	0	0	0	0	0	0	1	1	1	1	1	1	1	2	3	3	3	3	3	3	3	3	3	4	4	4	4	4	4	5	5	5	5	5	5	6	6	6	6	7	7	7	7	7	7	7	8	8	8	9	9	9	10	10	10	11	11	11	11	12	12	13	14	14	15	15	15	16	16	16	17	17	17	17	17	16	16	16	15	14	12	11	10	9	8	8	8	9	9	10	11	12	14	16	18	19	21	22	22	22	20	10	6	6	12	11	11	11	11	12	11	11	11	11	11	11	10	10	9	8	7	11	12	13	14	16	24	26	28	32	33	34	32	29	29	29	30	30	30	30	30	29	30	31	32	31	29	29	29	30	37	47	53	62	67	69	71	73	79	83	84	87	92	95	97	98	98	97	97	99	104	110	114	114	110	103	102	100	97	94	91	89	88	88	87	87	87	88	88	88	88	88	89	87	86	86	86	86	86	86	86	85	85	86	87	86	83	80	78	76	72	68	66	65	65	65	65	65	65	66	69	73	75	79	82	93	102	107	110	110	110	109	103	100	100	100	100	106	112	114	113	116	123	124	124	127	130	128	130	134	137	140	146	153	155	158	159	160	164	169	171	173	174	176	179	181	183	187	189	191	193	197	202	210	213	219	218	218	219	220	220	221	221	222	223	224	225	225	226	226	226	225	224	225	226	225	225	225	225	226	225	223	222	222	222	222	222	223	225	227	229	231	234	237	239	239	239	239	239	240	239	238	237	236	235	231	226	224	223	222	221	221	220	220	221	221	220	220	220	221	221	220	215	211	212	213	212	210	208	207	206	204	202	199	196	194	192	191	190	188	188	189	192	195	197	198	198	198	198	195	192	192	191	190	189	188	187	185	184	183	183	182	181	180	178	177	178	178	174	174	175	173	170	167	165	164	164	165	166	165	163	164	168	172	176	179	184	186	187	189	190	191	192	194	193	193	193	192	191	188	186	183	181	179	176	175	174	173	173	172	170	169	170	171	170	168	168	169	171	174	176	178	180	183	186	189	192	195	198	201	201	197	196	196	195	192	189	185	182	178	176	173	170	167	165	163	161	160	160	159	158	157	157	161	164	165	166	167	169	171	172	173	175	178	180	181	181	181	180	179	177	173	172	170	167	165	163	161	160	159	158	159	160	160	161	161	162	165	166	168	171	174	178	181	182	182	183	184	185	185	186	186	187	188	188	188	188	188	187	185	183	182	180	177	174	172	170	169	172	175	177	180	183	186	187	188	188	188	189	189	189	188	188	189	190	191	191	193	194	195	195	194	193	192	191	189	188	188	188	189	189	190	191	191	191	191	190	189	187	186	183	181	181	180	179	179	178	178	178	178	177	177	177	176	176	176	174	173	171	169	167	165	162	161	158	155	153	153	151	150	150	149	147	149	151	151	151	151	150	148	147	146	145	143	142	141	142	142	141	138	134	131	130	128	126	123	118	114	110	106	102	100	100	100	104	108	114	122	128	130	130	132	134	135	137	139	138	136	135	135	136	135	135	135	135	135	135	135	135	135	135	135	135	135	135	135	135	135	135	135	136	136	136	135	135	136	136	137	138	138	139	144	146	147	146	143	138	136	135	136	136	139	146	150	152	156	159	155	150	149	151	162	170	174	176	177	180	184	187	190	191	193	194	193	193	193	194	194	194	193	192	191	190	188	188	187	184	181	178	173	169	168	169	170	170	168	162	160	161	162	164	165	167	172	175	176	177	179	182	185	186	189	191	194	197	201	204	206	207	209	210	212	213	214	216	218	219	220	221	221	220	220	219	218	217	217	219	218	216	214	214	213	212	213	216	217	217	217	216	215	215	213	213	212	211	209	204	199	196	194	193	194	196	198	200	202	203	203	203	202	201	199	197	195	193	190	187	186	185	185	184	182	181	180	174	168	168	169	171	173	178	181	182	183	185	189	193	194	196	197	199	201	203	204	207	210	212	214	216	217	220	225	230	232	233	235	238	243	248	250	252	254	256	260	266	270	274	277	282	287	292	297	301	305	309
2	2	2	2	2	2	3	3	4	4	5	6	7	8	9	10	12	18	18	16	16	16	16	16	15	15	16	16	16	17	17	18	19	20	22	23	24	25	26	27	28	28	28	29	29	29	29	30	30	30	30	30	30	30	30	30	30	30	30	30	30	30	30	30	30	30	30	30	30	30	29	28	28	27	27	27	26	26	25	25	24	23	23	22	21	21	20	20	19	19	19	18	18	18	17	17	16	16	16	16	15	15	15	15	15	15	13	10	9	6	2	0	-1	-1	-1	-1	0	0	0	0	0	0	0	0	1	1	1	1	2	3	3	3	3	3	3	3	3	3	3	4	4	4	4	5	5	5	5	5	5	5	6	6	6	7	7	7	7	7	7	7	7	8	8	8	9	9	9	10	10	10	11	11	11	11	12	12	13	13	14	14	15	15	16	16	17	17	17	17	17	17	16	16	16	15	14	12	11	10	9	8	7	8	8	9	9	10	11	11	13	14	15	17	18	20	22	22	16	7	5	6	9	10	10	11	11	11	11	10	10	11	11	10	10	9	9	8	11	12	13	14	14	23	27	28	29	28	25	30	30	30	30	30	30	30	30	30	30	30	31	33	32	29	29	29	30	33	44	49	56	65	69	75	77	81	84	85	87	91	94	97	98	98	97	97	101	105	108	112	113	110	105	101	98	94	91	89	88	89	92	94	94	93	90	87	87	87	87	87	86	86	86	86	86	86	86	86	85	85	86	86	85	81	76	75	75	70	68	67	66	65	65	65	65	65	65	67	71	73	75	79	92	102	106	109	110	110	111	104	100	100	100	100	103	112	117	118	120	124	124	125	128	128	128	131	135	138	141	147	151	153	155	158	159	162	165	168	171	173	174	176	177	179	183	186	188	189	192	197	205	212	214	215	216	218	220	220	221	221	222	223	224	225	225	225	226	226	224	224	226	225	225	225	225	226	225	224	223	223	223	223	222	223	224	226	229	230	231	234	240	243	244	244	243	243	243	243	242	241	239	236	232	228	225	223	222	222	222	221	220	220	220	220	220	221	221	222	222	219	214	211	212	212	211	209	207	206	205	202	199	196	194	194	193	192	191	191	190	191	193	196	198	198	199	198	195	192	191	190	189	188	188	187	185	183	182	183	184	183	182	180	178	177	177	175	175	175	173	170	167	165	163	163	165	166	166	165	166	169	173	176	180	185	188	189	190	190	191	193	194	195	194	194	192	190	188	185	182	179	177	175	174	173	172	172	171	171	171	173	173	171	170	169	170	171	174	176	179	181	184	187	190	193	197	202	203	202	198	197	198	196	193	188	185	182	179	176	173	170	167	165	163	161	160	159	158	158	157	158	161	164	165	167	168	169	171	172	174	177	179	181	182	182	182	181	180	178	175	172	170	168	165	163	162	160	159	159	160	160	160	161	162	165	167	167	168	171	175	179	182	182	182	183	184	184	184	185	186	188	188	188	188	188	187	187	186	184	183	182	179	176	175	174	172	171	173	176	179	183	186	187	188	188	188	189	190	190	190	190	191	191	192	194	196	197	197	197	196	195	194	192	191	190	189	188	189	190	191	191	192	192	191	190	188	187	186	184	181	181	181	180	180	179	178	178	178	177	177	176	175	175	175	173	172	170	168	166	163	162	160	157	152	151	151	150	148	148	148	148	148	149	150	151	151	149	146	144	143	142	140	139	139	139	140	138	134	131	130	129	127	126	124	122	118	113	108	104	101	100	100	102	106	112	120	126	127	128	131	134	135	137	139	137	136	135	135	135	135	135	135	135	135	135	135	135	135	135	135	135	135	135	135	135	135	135	135	135	135	135	136	136	136	135	135	136	136	135	138	141	143	142	138	136	135	136	136	135	138	145	150	152	156	160	156	150	149	149	154	164	170	172	174	177	181	184	188	189	188	188	189	189	190	191	191	191	190	189	188	187	186	186	185	183	180	176	171	168	168	169	168	166	165	163	161	160	160	164	167	169	172	175	177	178	181	183	185	187	190	193	196	199	202	204	206	208	209	210	212	213	215	216	217	219	220	220	219	218	217	216	214	213	213	214	213	211	211	212	211	208	208	210	212	213	213	213	213	213	213	213	213	211	208	204	199	194	191	190	191	193	196	198	199	200	200	199	198	197	195	193	192	190	187	184	183	183	182	181	179	178	175	169	166	167	170	172	175	180	183	184	184	186	190	192	193	195	197	199	201	203	206	209	212	214	215	216	218	220	224	228	231	233	234	237	243	248	248	250	252	254	259	265	270	273	277	283	288	292	297	301	305	309
2	2	2	2	2	2	3	3	4	4	5	6	7	8	9	10	12	18	18	16	16	16	17	16	15	15	16	16	16	17	18	18	19	20	22	23	24	25	26	27	27	28	28	29	29	29	29	29	30	30	30	30	30	30	30	30	30	30	30	30	30	30	30	30	30	30	30	30	30	30	29	29	28	27	26	26	26	26	25	25	24	24	23	22	22	21	20	20	20	19	19	18	18	18	17	17	16	16	16	16	15	15	15	15	15	12	6	3	0	-1	-1	-1	-1	-1	-1	-1	-1	-1	0	0	0	0	0	0	0	0	0	0	2	3	3	3	3	3	3	3	3	3	3	4	4	4	4	4	5	5	5	5	5	6	6	6	6	7	7	7	7	7	7	7	7	8	8	8	9	9	9	10	10	10	10	11	11	11	11	12	13	13	14	14	15	15	16	16	17	17	17	18	17	17	17	16	16	15	14	12	11	10	9	8	7	8	8	8	9	10	10	10	10	10	11	12	14	16	21	22	20	13	6	5	6	9	11	12	12	12	11	11	11	12	12	11	11	10	10	8	8	12	13	14	14	17	26	28	28	23	19	26	30	30	30	30	30	30	31	32	33	35	34	33	32	30	29	29	29	32	40	46	50	55	62	75	79	82	85	86	87	90	93	94	95	97	97	97	99	103	106	108	109	108	105	102	97	91	90	89	90	92	106	113	114	112	99	87	86	87	89	89	87	86	86	86	86	86	86	86	85	85	85	85	84	78	73	72	71	68	68	68	67	66	66	66	66	66	65	67	71	73	74	78	91	101	104	107	108	111	114	107	100	99	99	99	101	109	116	117	119	121	123	126	129	128	127	132	136	138	141	144	148	151	154	156	158	160	162	165	168	170	172	172	174	176	180	184	187	188	190	193	197	202	208	212	215	218	220	221	221	222	222	223	224	224	225	225	226	226	224	225	226	225	225	225	225	226	225	224	223	223	223	223	222	223	225	227	229	231	232	236	244	246	248	247	247	246	246	244	243	242	241	236	232	230	226	224	222	222	222	221	220	219	219	219	220	220	220	221	220	218	215	212	211	212	212	211	208	205	204	202	200	198	197	196	194	193	193	193	192	191	191	193	196	198	198	198	195	191	190	189	187	186	186	186	185	184	183	184	184	183	182	182	180	178	177	176	176	175	173	170	167	164	162	162	164	166	166	165	167	170	174	177	180	185	188	191	192	192	192	194	195	195	195	194	192	189	187	184	181	178	175	173	173	173	172	172	172	172	173	174	173	172	171	171	172	172	174	177	180	182	185	188	191	194	199	203	205	203	199	199	200	197	193	189	185	183	180	177	174	171	168	166	164	162	160	159	158	158	157	159	162	165	166	168	169	170	171	173	176	179	181	182	183	183	183	182	181	179	176	173	171	168	166	164	162	160	159	160	160	160	160	161	164	167	168	168	169	171	175	178	181	181	181	182	183	183	183	185	186	187	188	188	188	187	186	186	186	185	183	182	180	178	176	176	174	170	171	176	180	182	185	187	188	189	189	190	192	192	192	192	192	192	194	196	198	199	198	197	196	196	195	193	192	191	190	189	189	191	191	192	192	191	190	189	187	186	186	184	183	182	181	180	180	179	178	178	178	177	176	175	173	173	172	171	170	168	166	163	162	161	159	155	151	150	150	149	147	146	147	148	148	149	149	150	150	148	145	142	140	139	137	137	137	137	137	135	132	130	129	129	128	127	125	124	123	118	113	108	104	103	102	101	103	109	116	124	125	127	129	133	134	137	139	137	135	135	136	135	135	135	135	135	135	135	135	135	135	135	135	135	135	135	135	135	135	135	135	135	135	136	135	136	136	136	135	136	135	135	136	137	137	137	136	135	136	136	135	136	139	146	149	151	154	157	156	151	149	149	149	156	164	169	171	173	176	179	184	186	184	184	186	187	188	188	189	188	187	186	185	183	182	182	182	180	178	174	170	169	170	170	167	162	161	163	162	160	160	164	168	170	171	173	175	178	180	182	184	187	189	193	197	200	203	205	207	208	210	211	212	214	215	216	216	217	218	219	218	217	216	215	212	209	208	207	207	207	208	208	207	205	205	207	209	211	211	210	211	212	213	213	213	210	207	204	199	194	191	189	190	191	193	195	196	196	196	195	193	190	188	186	184	183	181	180	179	179	179	177	176	175	172	167	166	167	171	173	175	180	183	184	184	186	190	192	193	195	197	199	202	204	207	211	214	215	215	217	218	221	223	226	230	232	234	237	243	248	248	249	252	255	259	264	268	272	279	285	289	292	296	302	304	306
2	2	2	2	2	2	3	3	4	4	5	6	7	9	10	11	13	18	18	17	17	17	17	16	15	16	16	16	17	17	18	18	19	20	22	23	24	25	26	27	27	28	28	28	29	29	29	29	29	30	30	30	30	30	30	30	30	30	30	30	30	31	31	31	31	31	31	31	31	31	30	29	28	27	26	25	25	25	25	25	25	24	23	23	22	22	21	21	20	20	19	19	18	18	17	17	17	16	16	15	15	15	15	15	11	3	-1	-2	-2	-1	-1	-1	-1	-1	-1	-1	-1	-1	-1	-1	-1	-1	0	0	0	0	0	0	1	2	2	3	3	3	3	3	3	3	4	4	4	4	4	4	5	5	5	5	5	6	6	6	6	7	7	7	7	7	7	7	7	8	8	8	9	9	9	9	10	10	10	10	11	11	11	12	12	13	14	14	15	15	16	16	16	17	17	17	17	17	17	16	16	15	14	13	11	10	9	8	7	8	8	8	9	9	9	9	8	8	8	9	10	11	17	21	21	19	9	5	5	7	9	12	12	12	12	12	12	11	12	11	11	10	9	8	7	12	13	14	14	15	23	27	29	26	23	26	30	30	30	30	30	31	34	36	39	39	35	33	31	30	29	29	29	31	37	44	46	45	55	71	79	84	85	83	86	90	91	90	90	92	94	96	96	98	103	107	107	106	103	100	95	91	90	93	98	107	116	117	117	117	109	90	88	94	105	106	93	87	87	86	86	86	86	86	85	85	86	86	82	74	70	68	66	67	68	68	68	67	67	66	66	66	65	66	70	72	73	79	87	97	101	104	108	112	116	108	100	99	99	99	101	106	112	114	115	118	120	124	127	128	127	128	134	139	142	144	145	149	151	153	155	158	160	162	164	166	168	169	171	174	177	181	184	187	189	192	195	200	205	210	215	218	220	221	221	222	222	223	224	224	225	225	226	226	225	225	226	225	225	225	225	225	224	224	226	226	224	223	222	224	226	228	230	232	234	239	246	248	249	249	248	247	247	246	245	243	243	238	231	229	227	224	223	221	220	220	218	217	217	218	218	217	217	217	217	216	215	213	211	210	211	211	208	205	204	203	201	200	200	198	196	194	195	195	194	192	190	191	193	196	197	196	194	192	190	187	185	185	185	185	185	185	185	183	181	181	182	182	182	179	178	177	176	174	172	169	167	164	162	162	165	166	166	167	168	171	174	177	181	185	189	191	193	194	194	195	195	195	194	192	190	188	185	182	179	176	174	173	173	173	174	173	173	173	173	174	174	173	173	174	173	174	175	178	180	183	186	189	191	194	198	201	204	204	201	201	200	197	194	190	187	184	181	178	175	172	169	167	165	163	160	158	158	157	157	159	164	166	167	168	169	170	172	175	177	179	181	183	184	184	183	183	182	180	177	174	171	168	166	165	163	161	159	159	160	161	161	163	165	168	169	167	167	169	173	176	178	179	179	180	182	183	183	184	185	186	186	187	188	187	186	185	186	185	184	182	181	179	178	176	174	171	171	176	181	183	185	187	189	190	191	192	193	193	194	194	194	195	197	199	199	199	199	198	197	197	195	194	193	192	191	191	192	192	193	193	192	191	190	189	188	186	185	184	183	183	182	181	180	180	179	179	178	176	175	173	171	170	169	169	168	166	164	163	162	160	157	155	152	151	150	149	147	146	147	148	149	149	149	150	149	146	142	140	138	137	136	135	135	135	134	133	131	130	130	130	130	130	129	128	126	123	119	114	110	107	106	105	104	105	109	118	123	125	126	127	129	137	139	137	135	135	136	135	135	135	135	135	135	135	135	135	135	135	135	135	135	135	135	135	135	135	136	136	136	135	135	135	136	136	136	136	136	136	135	135	135	135	135	136	136	136	135	136	140	146	149	150	152	155	155	153	149	148	148	150	158	166	169	171	172	174	179	181	182	183	185	185	185	185	186	185	184	183	181	178	177	178	178	177	175	172	170	170	171	170	166	161	159	161	161	160	160	165	170	171	171	172	173	177	180	181	183	186	188	191	195	200	203	205	207	209	210	211	212	214	215	215	215	216	217	218	218	217	216	214	212	207	205	204	203	203	202	202	202	202	203	204	206	209	210	209	210	211	213	213	211	209	207	204	199	194	190	187	187	189	190	191	191	191	191	189	187	184	182	180	178	177	176	175	175	175	175	174	174	173	170	167	166	168	171	173	175	177	179	182	184	186	190	192	194	196	198	200	202	205	207	210	213	214	215	217	219	221	225	228	231	233	234	237	241	246	248	250	253	256	259	263	266	272	280	286	289	292	297	303	304	304
2	2	2	2	2	3	3	3	4	4	5	7	8	9	11	12	13	18	18	18	17	17	17	17	16	16	16	16	17	17	18	18	19	20	22	23	24	25	26	26	27	28	28	28	28	29	29	29	29	29	29	29	30	30	30	30	30	30	31	31	31	31	31	31	32	32	32	32	32	31	31	30	29	28	27	26	25	24	23	23	23	23	23	23	23	22	22	21	21	20	20	19	19	18	17	17	16	16	16	15	14	13	12	7	2	-2	-2	-2	-2	-2	-2	-1	-1	-1	-1	-1	-1	-1	-1	-1	-1	-1	-1	-1	0	0	0	1	1	1	2	2	3	3	3	3	3	4	4	4	4	4	4	4	5	5	5	5	5	6	6	6	6	7	7	7	7	7	7	7	7	8	8	8	9	9	9	9	9	10	10	10	10	11	11	12	12	13	14	14	15	15	16	16	16	17	17	17	17	17	16	16	16	15	14	13	11	10	9	8	7	7	8	8	9	9	9	8	8	7	7	7	8	9	11	18	21	20	13	6	5	5	7	10	13	13	12	12	12	12	13	12	12	11	10	9	7	12	13	13	14	15	16	26	29	28	23	19	27	30	30	30	31	35	39	39	39	39	36	33	31	30	29	29	29	31	34	41	46	48	55	64	74	79	79	79	80	87	88	87	87	88	92	95	95	96	97	102	103	100	96	93	92	91	90	102	114	117	118	118	117	118	116	104	99	109	113	113	104	90	88	87	87	86	86	86	85	86	88	88	84	71	67	66	65	66	68	68	68	67	66	65	65	65	65	65	67	71	74	82	91	96	100	102	106	113	115	108	100	99	99	99	103	109	112	113	114	117	120	122	124	126	126	126	131	139	143	143	144	146	149	150	152	156	158	160	161	163	165	167	170	172	174	178	182	185	187	190	194	198	204	209	214	218	220	221	222	222	223	223	224	224	225	225	226	226	226	226	227	226	226	226	226	226	226	228	232	230	225	224	223	225	227	228	231	234	237	242	248	249	250	250	249	248	248	248	247	246	245	238	231	229	228	226	223	221	220	219	218	217	217	216	215	214	214	214	214	214	213	213	212	210	209	210	209	207	206	204	203	202	202	201	198	197	197	197	196	193	192	190	187	189	190	191	192	192	189	188	186	185	185	185	184	184	183	179	176	178	181	182	181	178	177	176	174	173	172	169	166	164	161	162	165	167	168	169	170	172	176	178	182	186	190	192	193	193	194	195	195	195	193	191	188	186	184	181	178	175	173	172	173	174	175	175	175	175	174	175	175	175	175	175	174	174	176	178	180	183	185	189	192	194	197	200	204	206	205	203	201	198	195	192	189	186	183	180	177	174	171	168	166	164	161	158	157	156	157	159	163	165	167	168	168	170	173	176	178	180	182	184	185	185	184	184	183	181	179	176	173	170	167	165	163	160	159	159	161	162	163	164	165	168	168	167	166	168	172	174	177	178	179	179	180	182	182	182	183	184	186	187	188	188	186	186	186	186	185	184	182	181	179	178	175	172	172	176	181	184	186	188	190	192	194	194	195	195	195	196	196	198	200	200	200	200	200	199	198	197	195	195	194	193	193	194	194	194	194	193	193	192	191	190	189	187	185	184	183	183	182	181	180	180	179	179	178	175	172	171	169	167	166	166	165	164	163	162	161	159	157	155	153	152	150	149	148	148	149	149	149	149	149	149	147	143	140	138	137	135	134	133	134	133	132	131	130	130	130	132	132	132	132	131	129	127	124	120	116	112	110	109	107	106	107	110	117	122	123	123	127	137	139	137	136	135	135	135	135	135	135	135	135	135	135	135	135	135	135	135	135	135	135	135	135	136	136	135	135	135	136	135	135	135	136	135	135	136	136	136	136	136	136	136	136	136	135	136	139	145	148	150	153	153	152	152	150	148	148	148	150	158	167	169	169	171	175	177	179	181	182	181	181	183	184	182	181	180	177	174	173	174	174	172	171	170	170	170	170	168	162	158	155	154	154	157	160	166	172	173	172	172	172	176	180	181	182	186	189	190	194	199	202	204	206	208	210	211	211	213	214	215	215	216	217	217	217	216	216	215	212	208	205	203	200	199	199	198	198	198	199	200	203	207	209	209	209	210	211	210	209	208	206	203	198	193	189	186	185	188	189	188	187	187	187	185	182	180	177	176	174	174	173	172	172	172	172	171	170	169	167	166	166	171	174	175	177	177	178	180	183	186	189	192	195	198	199	200	203	205	206	208	210	212	214	216	218	222	227	231	232	233	235	237	240	244	247	250	253	256	260	263	266	272	280	285	288	291	297	303	303	303
3	3	3	3	3	3	3	4	4	5	6	7	9	10	11	13	14	17	19	18	17	17	17	17	17	16	17	17	17	17	18	19	20	20	21	23	24	25	26	26	27	27	28	28	28	28	28	28	29	29	29	29	29	30	30	30	30	31	31	32	32	32	32	32	33	33	33	33	33	32	32	31	30	29	28	27	26	25	24	23	22	22	22	21	20	20	20	19	19	18	17	17	16	16	15	13	11	9	8	4	3	0	-1	-2	-2	-2	-2	-2	-2	-2	-2	-2	-2	-1	-1	-1	-1	-2	-2	-1	-1	-1	-1	-1	-1	0	0	0	1	1	2	2	2	3	3	3	3	4	4	4	4	4	4	4	5	5	5	5	5	6	6	6	6	7	7	7	7	7	7	7	7	8	8	8	9	9	9	9	9	9	10	10	10	10	11	12	12	13	13	14	15	15	16	16	16	16	17	17	17	16	16	16	16	15	14	13	11	10	9	8	7	8	8	8	9	9	9	8	7	7	7	7	7	8	7	12	19	20	18	9	6	5	6	8	11	13	13	13	13	12	13	12	12	11	10	9	7	12	13	13	13	14	16	23	27	28	26	17	20	28	29	29	33	39	41	41	40	39	37	33	32	31	30	29	29	31	35	41	45	48	53	60	68	73	79	80	79	84	86	86	89	90	94	94	94	95	95	96	96	95	92	91	90	89	90	111	118	118	117	117	117	118	118	116	113	113	114	113	111	99	90	88	88	86	86	85	84	86	87	87	86	72	66	65	65	65	66	67	67	67	66	65	65	65	65	65	66	73	80	88	94	98	101	102	104	110	114	110	101	99	99	99	104	110	113	115	117	120	123	124	125	125	125	126	131	140	142	143	143	145	147	150	152	155	158	159	160	162	164	167	171	173	174	178	182	184	187	190	193	198	203	209	214	218	221	221	222	223	223	224	224	225	225	226	227	228	228	229	229	229	229	229	229	229	232	235	236	233	228	226	226	227	228	230	233	237	241	247	250	251	253	252	251	250	250	250	248	247	246	240	232	231	230	227	224	221	219	219	218	217	217	216	214	213	212	211	211	210	210	211	212	211	209	208	208	208	208	207	205	204	204	203	201	199	198	198	196	193	192	188	184	183	183	183	186	190	190	189	186	184	183	182	182	181	180	177	175	175	178	179	176	173	173	173	172	172	172	168	164	161	159	162	165	167	170	171	173	175	178	181	184	188	191	194	194	193	193	193	194	194	192	189	187	184	182	179	176	175	173	174	175	176	177	176	176	176	176	176	176	176	176	177	176	177	178	179	181	182	185	188	191	195	197	201	205	207	207	205	202	199	196	194	191	188	185	182	178	175	172	169	167	165	162	158	156	155	157	159	162	164	166	167	169	171	174	176	178	180	183	184	185	185	185	184	183	182	180	177	174	171	168	166	163	160	159	160	162	162	163	164	166	168	169	168	166	168	171	174	176	178	178	178	179	179	180	181	182	183	185	186	188	189	188	186	186	187	186	185	184	183	181	179	178	175	174	177	181	185	187	188	191	193	195	195	196	197	197	197	198	200	201	201	201	201	202	201	200	198	197	196	196	195	195	196	196	196	195	194	193	192	191	190	189	187	185	184	184	184	182	181	181	180	180	179	178	175	172	171	168	165	164	163	163	162	161	160	160	160	159	156	154	151	150	149	149	150	150	150	150	149	148	148	145	142	139	137	136	133	131	132	133	132	132	131	131	131	133	134	134	134	134	133	132	130	128	124	123	119	115	113	111	109	108	110	114	117	120	121	131	138	139	137	136	135	135	135	135	135	135	135	135	135	135	135	135	135	135	135	135	135	135	135	136	136	136	136	136	137	137	137	136	135	135	136	135	135	135	135	135	135	135	135	136	136	135	136	141	147	150	153	155	152	149	149	149	148	148	147	147	151	163	165	165	168	173	175	177	178	178	177	178	180	181	180	180	178	174	170	170	172	171	170	169	169	168	168	166	162	158	156	154	151	153	162	163	166	172	173	172	172	172	175	179	181	183	186	188	191	193	197	199	201	204	206	208	209	210	211	213	213	214	214	216	216	216	216	216	215	213	210	207	204	201	198	197	196	196	195	195	197	200	203	206	207	207	207	207	207	206	205	203	201	197	193	189	185	183	184	185	185	185	186	186	184	181	178	175	173	171	170	170	169	168	167	167	166	166	166	166	165	166	173	178	178	178	178	179	180	184	186	188	190	193	197	199	202	204	205	207	208	210	213	215	217	219	222	226	231	233	234	236	238	240	243	246	250	253	256	260	263	268	274	280	283	287	291	295	299	301	302
3	3	3	3	3	4	4	4	5	6	7	8	9	11	12	13	14	17	19	18	17	18	17	17	17	17	17	17	17	18	18	19	20	21	22	23	24	24	25	26	27	27	28	28	28	28	28	28	28	28	29	29	29	30	30	31	31	32	32	33	33	33	33	33	34	34	34	34	34	33	33	32	31	30	29	28	27	26	25	24	22	21	20	19	18	17	16	16	15	14	13	12	12	10	9	5	4	2	1	0	0	-1	-1	-2	-2	-2	-2	-2	-2	-2	-2	-2	-2	-2	-2	-2	-2	-2	-2	-2	-2	-2	-1	-1	-1	-1	0	0	1	1	1	2	2	3	3	3	3	4	4	4	4	4	4	4	5	5	5	5	5	6	6	6	7	7	7	7	7	7	7	7	7	8	8	8	8	9	9	9	9	9	10	10	10	10	11	11	12	13	13	14	14	15	15	16	16	16	16	16	16	16	16	16	16	15	14	13	12	10	9	8	8	8	8	8	9	9	9	8	7	7	6	6	6	7	7	8	13	20	20	16	8	5	5	6	8	11	13	13	12	14	17	13	13	12	11	10	7	12	12	13	13	14	15	17	26	26	26	20	16	20	25	29	35	40	42	42	41	40	39	35	32	31	30	29	30	32	36	41	44	46	50	58	66	71	79	80	82	85	86	87	93	96	96	95	91	90	92	92	94	92	90	89	89	89	92	112	118	118	117	117	117	117	118	118	115	114	114	114	113	110	95	88	87	86	85	85	83	83	81	85	87	77	66	65	65	65	65	66	67	67	66	66	65	65	65	65	69	75	82	90	95	99	101	103	106	110	113	110	101	99	99	99	102	108	113	119	123	125	126	127	127	127	128	129	136	142	143	144	145	147	149	151	154	156	158	160	162	163	166	170	173	175	177	180	183	186	189	191	194	198	204	209	214	219	221	221	222	222	223	223	224	224	225	225	226	227	228	229	230	230	231	232	232	232	237	239	238	235	230	228	228	228	229	232	236	239	245	250	253	254	255	254	253	252	251	250	250	248	246	243	238	235	232	228	224	221	220	219	218	217	216	215	214	212	210	210	209	208	208	209	210	210	209	207	207	207	208	207	206	205	204	203	202	200	198	197	194	192	190	187	183	182	182	183	187	191	191	189	184	180	180	181	184	184	182	178	176	175	175	174	172	170	170	169	169	170	170	165	160	157	158	162	165	168	171	173	175	178	180	182	186	189	193	197	198	196	193	192	193	193	190	188	186	183	181	178	175	174	174	175	177	178	178	178	178	178	178	177	177	177	178	179	179	180	180	181	181	183	185	188	191	195	198	202	206	209	208	206	203	199	196	194	192	189	186	183	179	176	173	169	167	165	162	159	156	155	157	159	161	164	166	167	169	172	174	176	179	181	183	185	185	185	185	184	184	182	180	178	175	172	169	167	165	162	159	160	162	163	163	163	166	170	170	168	167	167	170	172	174	176	176	176	176	176	177	179	180	182	183	184	187	188	188	187	186	187	187	187	186	184	182	181	180	178	177	179	183	185	187	189	191	193	195	196	197	198	199	199	199	200	202	202	201	202	203	204	202	200	199	199	198	197	197	197	197	196	196	196	195	193	191	189	188	187	185	185	184	183	182	181	182	181	180	180	179	177	174	170	167	165	163	162	162	161	160	160	161	161	160	158	155	152	151	150	150	151	150	150	150	149	148	146	143	140	138	136	134	132	131	132	132	132	132	132	132	134	136	137	136	135	135	134	133	133	131	128	127	125	124	122	119	116	113	113	114	116	118	123	134	139	138	137	136	136	135	135	135	135	135	135	135	135	135	135	135	135	135	135	135	135	135	136	136	135	135	137	140	141	141	140	137	136	135	135	136	135	135	135	135	135	135	136	136	136	136	139	145	149	151	154	156	152	148	148	148	148	148	148	147	148	155	158	161	164	170	172	174	175	175	175	175	175	175	176	176	174	171	169	169	171	171	170	169	168	166	164	162	158	155	156	155	155	157	165	166	165	171	172	172	173	174	175	178	181	183	185	187	189	192	194	195	197	200	204	206	207	209	210	210	211	211	211	213	215	215	216	216	215	214	212	209	207	203	199	197	196	195	193	192	193	196	199	201	202	202	203	203	202	202	202	201	198	195	192	187	183	180	178	177	179	181	183	184	182	179	175	172	170	168	167	167	166	164	163	162	162	162	162	163	165	170	176	180	181	181	180	179	181	185	187	188	188	190	194	198	202	205	206	207	209	212	215	216	217	219	221	225	230	234	236	238	240	241	244	247	251	254	257	260	265	271	276	280	283	287	291	294	296	298	299
1	2	2	4	4	4	5	5	5	6	7	9	10	12	13	14	15	17	18	18	18	18	17	17	17	17	17	17	18	18	18	19	20	21	22	23	24	24	25	26	27	27	27	28	28	27	28	28	28	28	28	29	29	30	31	31	32	33	33	34	34	34	34	34	35	35	35	35	34	34	34	33	32	31	30	29	28	27	26	24	23	22	21	19	18	17	16	15	14	13	12	10	9	8	6	5	4	3	2	1	0	-1	-1	-2	-2	-2	-2	-2	-2	-2	-2	-2	-2	-2	-1	-1	-1	-2	-2	-2	-2	-2	-1	-1	-1	-1	-1	0	0	1	1	2	2	2	3	3	3	4	4	4	4	4	4	5	5	5	5	5	6	6	6	6	7	7	7	7	7	7	7	7	7	8	8	8	8	9	9	9	9	9	9	10	10	10	11	11	12	12	13	13	14	15	15	16	16	16	16	16	16	17	16	16	16	15	14	13	12	11	9	8	8	8	8	9	9	9	9	8	8	7	7	6	6	7	7	7	9	15	20	19	16	8	5	5	6	9	11	12	12	13	11	12	12	12	13	13	11	14	15	16	16	17	18	19	24	25	26	22	15	15	24	29	33	37	41	41	41	40	40	37	32	32	31	29	29	30	34	39	43	44	47	54	61	70	77	81	86	89	91	89	91	92	92	92	90	89	89	89	89	89	88	88	88	88	89	97	102	103	102	102	102	102	103	102	101	100	100	100	100	100	95	88	87	86	86	85	82	81	78	82	87	80	67	65	65	66	65	66	66	66	65	65	65	65	66	68	74	77	83	90	95	98	101	103	108	111	112	110	101	99	99	99	101	106	113	121	126	126	127	128	129	133	136	138	141	143	145	146	149	151	153	155	156	158	160	161	163	165	168	172	175	177	179	182	185	188	191	193	195	199	205	211	217	225	231	235	238	239	240	240	240	239	233	228	228	228	228	229	229	229	229	229	228	231	241	243	240	237	232	229	227	228	230	237	243	242	250	255	257	258	257	256	255	254	252	251	251	249	246	245	243	239	235	231	226	222	220	219	218	217	216	215	213	211	210	209	208	207	207	207	208	208	208	208	207	207	207	206	205	204	204	203	201	199	198	197	194	191	188	185	183	182	182	184	192	195	194	191	185	181	181	186	192	191	188	182	179	178	176	174	173	171	169	168	168	167	165	161	157	155	158	163	165	168	172	173	174	177	179	182	186	189	192	197	199	199	195	193	193	192	190	188	186	183	179	176	175	175	176	177	178	179	180	180	180	179	179	178	177	178	180	181	181	181	182	182	182	184	186	189	192	196	199	202	206	209	209	206	203	199	196	195	193	190	186	182	178	176	173	169	166	164	162	159	156	156	158	160	161	164	166	168	170	172	174	176	179	182	184	185	185	186	186	185	184	183	181	179	176	173	170	168	167	163	159	159	162	163	162	161	165	170	169	168	167	167	168	170	172	173	173	173	174	174	175	177	179	180	181	183	186	188	188	188	187	187	187	188	187	185	183	182	181	180	179	182	184	185	187	189	192	193	196	197	197	199	201	201	201	202	202	202	202	203	205	206	205	203	202	201	201	200	199	199	198	197	197	198	197	196	192	189	187	186	185	184	184	183	181	181	182	182	181	180	179	177	174	170	167	165	163	163	163	163	162	162	162	162	162	160	158	154	153	152	151	151	150	150	149	148	146	144	141	139	137	136	133	132	134	134	133	132	132	132	134	137	138	138	137	137	137	136	136	135	133	130	129	128	128	128	126	123	120	117	117	117	119	127	138	140	139	136	135	136	135	135	135	135	135	135	135	135	135	135	135	135	135	135	135	135	135	136	135	136	137	142	146	146	145	144	140	137	136	135	136	136	135	135	135	136	136	136	136	136	138	144	148	150	151	154	155	152	150	148	147	148	148	148	147	147	147	148	153	160	166	168	169	170	171	172	171	169	169	169	171	171	170	169	169	169	169	168	167	165	163	162	160	159	156	156	157	160	162	165	169	168	170	171	171	173	174	173	176	181	184	185	185	186	189	192	193	194	197	201	204	205	207	207	206	206	207	208	211	213	215	216	216	216	215	213	211	208	204	201	199	198	195	193	191	190	193	196	197	198	200	201	201	199	199	198	198	195	192	188	184	180	176	174	173	174	176	178	179	176	173	171	167	166	165	164	164	162	161	161	159	158	157	156	160	167	174	180	181	181	181	180	179	182	186	188	189	191	191	194	198	201	204	205	205	207	212	214	215	217	220	222	227	232	235	236	238	240	242	245	248	253	256	258	261	266	271	276	280	284	287	290	292	294	294	296
0	0	0	5	5	5	5	5	5	5	7	9	10	12	13	14	16	17	17	18	18	18	17	17	18	18	18	18	18	18	18	19	20	21	22	23	24	24	25	26	26	27	27	27	27	27	27	27	28	28	29	29	30	31	32	32	33	34	34	35	35	35	35	36	36	36	36	36	35	35	35	34	33	32	31	30	29	28	26	25	24	23	22	20	19	18	17	16	15	14	13	11	10	9	7	6	4	3	2	1	0	0	-1	-1	-2	-2	-2	-2	-1	-1	-1	-1	-1	-1	-1	-1	-1	-1	-1	-1	-1	-1	-1	-2	-1	-1	-1	0	0	0	1	1	2	2	3	3	3	4	4	4	4	4	4	5	5	5	5	5	6	6	6	6	7	7	7	7	7	7	7	7	7	7	8	8	8	9	9	9	9	9	9	10	10	10	10	11	12	12	13	13	14	14	15	15	16	16	16	16	16	16	16	16	16	15	14	13	12	11	10	9	8	9	9	9	9	9	9	9	8	8	7	7	7	7	7	7	7	10	17	20	19	15	8	5	6	7	9	11	11	11	11	11	12	13	13	14	15	16	17	17	18	19	20	21	22	23	24	18	14	14	21	22	21	26	36	37	39	39	40	38	32	32	31	30	29	29	31	37	42	44	48	52	59	70	76	80	87	90	89	87	87	87	87	87	87	87	87	87	87	87	87	87	87	87	87	87	87	87	87	87	87	87	87	87	87	87	87	87	87	87	87	87	87	87	85	82	81	77	75	77	77	70	68	67	67	67	67	67	66	66	65	65	65	66	69	73	75	76	82	90	94	98	101	103	107	110	112	110	100	99	99	98	100	105	113	120	125	127	128	129	133	138	141	142	143	145	147	149	152	154	157	158	159	160	161	162	165	167	170	173	175	178	181	184	188	191	194	195	196	199	206	214	222	228	228	228	228	228	228	228	228	228	228	229	229	229	229	230	231	232	231	229	228	230	242	246	243	239	233	230	228	228	231	243	248	247	254	259	261	260	258	258	258	257	255	253	252	251	248	246	244	241	238	235	230	225	223	222	221	219	217	215	215	213	211	209	208	206	206	206	207	207	207	207	208	208	207	205	204	204	203	202	200	199	198	197	194	190	188	185	183	182	182	184	191	195	195	193	190	187	186	189	193	193	190	183	180	179	177	175	174	172	170	169	168	165	162	158	155	154	160	165	166	169	171	172	173	176	178	182	185	188	190	194	197	198	196	194	194	193	191	188	186	182	178	176	175	176	177	178	180	181	181	181	181	181	180	179	178	179	181	182	183	183	184	184	185	186	188	191	194	197	200	203	206	210	210	207	203	199	196	195	193	190	186	181	177	175	172	168	165	163	161	159	157	157	159	161	162	164	166	168	170	172	175	177	179	182	184	185	186	186	186	186	185	183	182	179	176	173	171	169	167	163	159	160	163	164	163	162	165	169	169	168	168	168	168	169	171	171	170	171	173	174	175	176	178	179	179	183	186	187	188	189	188	187	187	188	188	186	185	184	183	181	181	183	185	186	188	191	193	195	196	197	198	200	202	203	203	203	204	204	204	205	207	207	207	206	204	204	203	202	201	200	199	198	198	198	199	198	196	192	189	187	185	184	184	183	182	181	182	182	181	178	177	175	172	169	168	167	166	165	166	165	165	164	164	164	167	167	166	162	158	155	153	153	151	150	149	147	145	143	141	139	138	137	134	135	138	137	135	132	132	134	136	139	141	140	138	137	138	137	137	136	135	132	131	130	130	129	128	126	125	123	122	121	124	134	140	142	139	136	135	136	135	135	135	135	135	135	135	135	135	135	135	135	135	135	135	135	136	135	136	137	140	147	149	148	150	147	143	140	137	136	135	135	136	135	136	136	136	135	136	137	142	149	151	152	153	155	157	156	154	149	147	147	147	148	147	147	147	146	147	152	161	164	165	167	169	169	169	168	167	165	167	169	169	168	167	166	165	164	162	160	159	159	160	162	161	158	158	163	165	166	169	169	170	170	170	172	172	171	175	180	183	184	183	182	186	191	193	194	196	200	202	204	204	203	202	202	203	206	209	211	212	215	216	215	214	212	211	208	205	202	201	198	195	193	190	189	192	196	196	198	200	201	199	197	196	195	193	191	188	184	180	177	174	172	171	171	172	175	175	171	167	162	158	160	161	162	160	160	160	159	156	155	154	152	157	168	175	180	180	179	178	178	180	182	185	187	190	193	193	194	198	200	202	203	204	207	211	214	215	217	219	224	230	233	233	234	237	240	243	246	250	254	258	261	263	267	271	275	280	284	287	290	292	293	292	293
0	0	0	5	5	5	5	5	5	5	7	8	10	12	13	14	15	17	17	18	18	18	18	18	18	18	18	18	18	18	19	19	20	21	22	23	24	24	25	26	26	27	27	27	27	27	27	27	28	28	29	30	31	32	33	34	34	35	35	36	36	36	36	36	37	36	36	36	36	36	36	35	34	33	32	31	29	28	27	26	25	24	22	21	20	19	18	17	16	15	14	12	11	10	8	7	5	4	3	2	1	0	-1	-1	-2	-2	-2	-1	-1	-1	-1	-1	-1	-1	-1	-1	-1	-1	-1	-1	-1	-1	-1	-2	-2	-1	-1	-1	0	0	0	1	1	2	3	3	3	4	4	4	4	4	4	5	5	5	5	5	6	6	6	6	7	7	7	7	7	7	7	7	7	7	8	8	8	8	9	9	9	9	9	9	10	10	10	11	11	12	12	13	14	14	14	15	15	16	16	16	16	16	16	16	15	15	15	13	12	11	10	9	9	9	9	9	9	10	10	10	9	8	8	7	7	7	7	7	7	8	11	17	19	19	15	8	5	6	7	10	11	11	11	11	13	14	15	15	16	17	16	15	16	18	19	20	20	21	22	20	15	13	15	18	20	26	34	36	38	39	40	41	34	32	31	30	30	30	31	35	40	43	46	50	56	63	70	79	86	89	88	87	87	87	87	87	87	87	87	87	87	87	87	87	87	87	87	87	87	87	87	87	87	87	87	87	87	87	87	87	87	87	87	87	87	84	81	81	78	74	75	71	68	68	68	68	68	68	68	68	68	67	67	67	66	66	67	70	72	73	81	89	93	98	101	103	106	109	111	109	100	98	98	98	100	105	113	118	123	128	130	132	137	140	142	143	144	145	148	151	153	156	158	159	160	162	163	164	167	169	171	174	177	180	183	186	189	193	196	197	199	202	207	215	224	228	228	228	228	228	228	228	228	228	228	229	229	230	231	232	234	236	235	231	228	228	236	246	246	241	234	231	230	230	234	245	248	249	255	259	261	260	260	261	261	260	258	256	254	252	251	248	246	243	240	238	235	230	227	225	223	223	221	217	217	216	213	210	208	206	205	205	206	206	206	206	207	208	208	207	205	205	204	202	201	200	198	196	194	191	189	187	185	183	182	183	188	192	192	192	190	189	189	189	189	190	189	183	181	179	176	175	174	173	171	170	169	167	163	158	154	153	160	166	168	169	170	171	173	176	178	181	184	187	190	193	195	197	197	196	196	194	190	187	184	181	178	176	175	177	178	180	181	182	182	183	183	182	181	180	180	180	182	184	185	186	186	187	187	188	190	193	195	198	203	207	209	211	210	208	204	201	197	195	192	189	185	180	176	173	170	167	164	163	161	159	157	157	159	161	163	165	167	169	170	173	175	177	179	182	185	186	186	186	186	186	185	184	181	179	176	174	171	169	167	163	160	161	164	164	163	163	164	167	168	168	168	168	168	168	169	169	168	170	173	175	175	176	178	179	180	183	186	187	188	189	189	188	188	189	189	187	186	185	184	182	182	184	185	187	189	192	194	196	197	198	200	202	203	204	204	204	205	206	206	208	209	209	208	207	207	206	205	204	203	202	201	200	198	198	198	197	196	194	192	189	187	185	184	184	183	183	183	181	179	177	176	174	172	170	169	169	168	168	169	168	167	167	166	166	169	171	170	168	166	160	155	154	152	150	149	146	144	142	141	141	140	139	138	140	141	140	138	135	134	135	138	140	142	140	138	137	138	138	138	137	135	133	132	131	131	131	130	129	126	126	126	125	131	138	141	141	139	136	135	136	135	135	135	135	135	135	135	135	135	135	135	135	135	135	135	135	136	135	136	138	141	145	149	150	150	148	144	142	139	137	136	135	136	136	136	135	135	136	138	142	148	151	153	155	156	158	159	159	158	154	149	147	147	147	147	147	147	146	146	147	150	152	156	160	164	165	166	168	167	164	165	167	167	167	165	163	162	161	160	156	155	157	159	162	162	159	158	163	167	167	168	168	169	171	170	170	170	169	172	179	181	180	180	181	185	189	193	195	197	199	201	202	201	199	199	199	201	203	206	208	209	212	213	212	211	211	209	207	205	203	200	197	194	192	193	192	192	194	196	198	199	198	197	195	194	192	189	188	184	179	175	174	174	172	169	169	170	171	171	167	160	155	151	151	153	154	155	157	158	156	152	153	154	154	160	169	174	177	177	176	175	176	179	181	183	186	189	192	194	195	198	200	201	204	206	208	211	214	216	217	219	225	231	232	232	233	238	242	244	247	251	257	261	263	265	268	271	275	279	283	287	290	292	292	292	292
0	0	0	5	5	5	5	5	5	5	6	8	10	11	13	14	15	16	17	18	19	19	18	18	18	18	18	18	19	19	19	20	21	21	22	23	24	24	25	25	26	26	26	26	26	27	27	27	28	29	30	31	32	33	34	35	36	36	37	37	37	37	37	37	37	37	37	37	37	37	36	35	35	34	33	31	30	28	27	26	25	24	23	22	21	20	19	18	17	16	15	13	12	11	9	8	6	5	4	3	2	1	0	-1	-1	-1	-1	-1	-1	-1	-1	-1	-1	0	-1	-1	-1	-1	-1	-1	-1	-1	-1	-2	-1	-1	-1	-1	-1	0	0	1	1	1	2	3	3	3	4	4	4	4	4	5	5	5	5	5	6	6	6	6	7	7	7	7	7	7	7	7	7	7	8	8	8	8	8	9	9	9	9	9	9	10	10	10	11	11	12	13	13	14	14	14	15	15	15	15	16	16	16	16	15	15	14	14	13	12	11	10	9	9	10	10	10	10	10	10	9	8	8	7	7	7	7	7	7	7	8	12	18	19	18	10	5	5	6	7	9	11	11	11	13	13	14	14	15	15	15	14	14	17	18	18	19	20	23	25	21	15	16	26	30	31	34	37	40	40	42	44	38	32	31	30	30	30	32	35	38	42	45	49	53	58	64	77	84	87	87	87	87	87	87	87	87	87	87	87	87	87	87	87	87	87	87	87	87	87	87	87	87	87	87	87	87	87	87	87	87	87	87	87	83	80	81	80	76	74	70	67	68	68	68	68	68	68	68	68	68	68	68	68	68	67	66	66	68	72	81	88	91	96	99	102	106	109	110	108	101	98	98	98	100	106	112	117	124	129	131	134	139	141	142	143	143	145	148	151	154	156	158	160	162	163	165	166	168	170	173	177	180	182	185	187	190	194	197	198	201	204	208	217	226	228	228	228	228	228	228	228	228	228	228	229	229	230	232	233	234	236	237	233	229	228	232	244	245	241	236	232	231	231	237	245	247	249	255	257	259	260	264	265	264	262	261	258	255	254	253	251	247	244	242	239	237	233	230	226	225	228	227	222	218	217	215	211	209	207	206	206	206	206	206	205	205	207	209	208	207	207	205	204	203	202	200	197	194	192	190	188	187	185	183	185	187	188	189	190	190	189	189	187	186	185	185	184	183	179	175	174	174	174	174	172	170	168	165	159	153	153	161	168	169	169	169	170	174	177	179	181	184	186	189	193	195	197	197	197	195	192	189	185	182	180	178	176	176	177	179	180	182	183	184	184	184	184	183	182	182	182	183	185	187	188	188	189	189	190	192	194	197	200	205	209	210	211	210	209	206	203	198	194	192	188	184	179	175	172	169	166	164	163	161	160	158	157	160	163	165	166	168	170	171	173	175	177	179	182	185	186	187	187	187	186	185	183	180	178	176	174	172	169	166	162	160	163	166	165	164	164	165	166	167	167	168	168	167	167	167	168	168	170	173	175	175	176	178	180	180	182	185	187	189	190	191	190	189	189	189	188	187	186	184	183	183	183	185	187	189	191	194	196	197	199	201	203	204	204	204	205	206	207	208	209	210	210	210	209	209	208	206	205	205	204	203	202	200	200	199	198	197	196	193	191	189	187	186	185	185	184	184	181	180	178	177	174	173	172	172	171	171	171	171	171	169	169	168	169	172	173	172	170	168	164	158	155	153	150	148	146	144	142	141	141	141	141	142	142	143	142	141	139	137	137	139	142	142	140	139	138	138	139	139	138	136	134	133	133	133	133	134	135	128	126	126	130	137	139	139	139	137	136	135	136	135	135	135	135	135	135	135	135	135	135	135	135	135	135	135	135	136	135	136	138	141	144	149	151	149	146	145	143	142	139	136	135	136	136	135	136	137	138	142	148	152	154	156	158	159	160	161	164	165	161	154	149	148	147	150	148	147	146	146	145	146	146	146	148	155	161	163	165	165	164	164	164	165	165	164	162	161	161	159	154	153	154	156	159	158	156	157	162	168	167	166	167	169	171	171	170	168	168	169	174	177	178	178	181	185	188	192	195	197	198	200	200	200	198	197	198	200	202	205	207	209	211	211	209	210	210	208	205	204	202	200	196	193	192	194	193	190	190	192	195	196	196	194	194	193	190	187	184	181	176	172	173	172	170	167	167	167	167	166	160	153	149	146	145	145	145	147	148	151	152	152	153	155	158	165	169	172	174	175	174	174	175	178	181	183	186	189	192	195	197	199	199	201	205	208	210	211	214	217	218	220	225	230	231	232	234	240	244	246	248	253	259	262	263	266	269	273	277	280	284	287	289	291	292	292	292
