323	325	328	331	334	335	337	338	338	337	336	336	338	340	341	345	348	351	354	357	360	363	366	368	371	373	374	375	375	374	374	373	372	373	376	379	382	383	383	383	382	381	379	378	376	373	369	368	366	365	365	365	364	360	356	354	352	352	356	359	360	360	359	359	361	363	363	364	363	362	359	358	358	358	359	359	358	356	353	349	346	344	342	339	336	333	330	327	324	320	316	313	311	308	304	302	300	298	297	297	297	298	300	303	306	308	311	311	310	309	309	310	311	312	312	312	311	310	308	306	304	301	299	298	296	294	291	287	283	278	273	270	267	263	260	257	254	251	248	246	242	239	238	235	231	227	225	224	223	222	221	218	214	212	211	210	207	205	203	201	200	199	197	194	193	193	192	192	192	191	190	190	189	187	187	191	194	195	195	196	197	197	198	197	196	193	190	186	180	175	173	173	175	178	181	182	182	183	184	186	186	185	183	180	178	178	179	180	181	183	184	184	184	183	182	182	182	183	185	185	184	182	180	178	175	172	168	166	164	165	168	172	177	181	183	184	186	191	194	190	187	189	189	188	186	183	178	174	171	167	165	165	165	166	165	162	160	159	158	160	164	167	168	170	171	174	177	178	181	185	188	189	191	191	188	186	186	184	182	177	172	169	167	165	163	162	160	159	157	155	154	155	154	153	153	154	156	159	162	163	163	163	162	160	157	155	154	152	152	153	155	157	159	161	162	164	165	166	166	166	166	165	164	162	161	160	157	153	153	155	156	156	157	160	163	163	164	165	165	163	163	163	164	165	166	166	167	168	169	168	168	169	170	171	172	173	174	175	177	178	180	182	184	185	185	184	181	180	179	179	178	176	175	173	173	174	175	177	180	185	190	191	192	191	191	192	192	190	188	183	178	173	169	165	163	160	156	153	149	144	139	138	137	133	133	135	134	132	128	125	127	129	134	142	145	142	138	136	134	132	134	135	134	133	131	129	127	126	128	129	130	130	130	130	130	129	127	124	122	123	125	123	123	125	127	126	126	127	127	125	126	127	129	131	133	136	140	142	142	138	128	127	127	124	123	126	125	123	120	119	120	119	117	115	113	114	117	121	125	127	130	137	142	142	142	143	144	144	141	138	137	135	135	136	136	136	135	133	132	132	131	131	132	133	134	133	132	128	126	126	126	125	123	121	120	119	117	116	115	112	108	106	105	105	103	100	98	99	101	102	102	101	100	100	101	100	98	97	99	100	99	97	95	95	96	95	94	93	94	95	95	94	94	94	94	95	94	92	88	86	77	77	75	74	74	75	74	71	68	64	61	60	58	58	57	56	57	57	57	57	57	58	59	63	68	74	84	86	84	83	83	83	86	88	85	84	88	88	87	85	83	83	83	82	81	80	78	79	79	79	78	77	76	75	74	74	74	74	74	74	74	74	74	73	72	72	73	72	73	72	69	64	63	63	63	63	63	62	63	63	62	62	61	61	62	62	62	62	62	62	62	62	62	62	62	62	62	62	62	62	62	63	65	68	69	68	68	68	68	68	68	68	68	68	69	69	70	70	70	70	71	71	71	71	71	71	71	72	73	74	76	78	80	82	83	84	83	83	84	84	83	84	78	74	76	76	77	77	77	78	78	79	81	82	83	84	83	79	78	78	81	84	85	85	85	86	87	88	88	88	87	86	86	86	87	86	86	87	87	87	88	88	88	88	88	89	90	90	91	91	91	91	91	91	90	90	90	90	91	91	91	91	91	90	90	90	90	90	90	90	90	90	90	88	87	87	87	86	86	86	86	86	86	86	86	86	86	86	86	87	89	91	91	91	91	91	91	91	91	91	91	91	92	92	91	91	91	91	91	91	91	91	91	91	91	91	92	92	92	92	92	92	92	93	93	93	93	92	92	92	92	91	92	92	92	92	93	95	97	98	100	102	104	104	106	107	108	109	110	111	112	113	113	114	114	114	113	113	112	111	111	110	109	110	111	109	106	105	106	106	106	106	106	105	106	107	109	113	116	120	123	128	132	134	133	132	133	140	145	146	145	143	142	142	143	144	145	148	149	146	143	142	142	142	142	143	145	149	149	147	141	137	135	134	133	134	135	135	136	138	141	143	146	149	152	153	155	157	160	163	164	166	167	168	168	167	167	167	166	165	165	165	166	168	170	172
323	325	329	333	335	337	339	341	341	341	341	342	343	343	345	347	350	353	356	359	363	366	368	371	374	376	378	378	379	379	378	378	378	379	381	383	385	386	387	387	386	385	383	381	379	375	372	371	371	370	370	370	367	363	359	357	355	356	360	362	364	365	365	366	367	368	368	368	368	366	363	362	361	362	362	362	362	359	355	351	349	347	345	342	338	335	332	329	326	322	318	315	312	310	307	304	302	301	300	301	301	301	303	306	308	311	313	313	312	312	312	313	313	314	314	314	313	311	309	307	304	302	300	299	297	293	290	286	281	276	273	269	266	263	260	256	253	250	248	244	240	238	236	232	228	225	224	223	222	220	218	215	212	212	213	211	208	206	204	202	200	199	196	194	194	195	195	195	194	194	192	191	190	189	191	194	196	197	198	199	199	200	199	198	196	193	189	185	180	176	175	175	178	181	183	184	184	185	186	187	187	186	183	180	179	179	181	182	184	185	187	187	186	185	185	185	186	186	188	188	187	184	182	179	176	173	169	166	165	166	169	173	178	181	183	186	188	193	195	192	190	191	190	189	186	181	177	174	171	168	167	167	167	166	164	162	160	160	159	160	164	168	170	171	172	175	177	179	182	186	189	190	191	191	189	188	188	186	183	178	173	171	169	167	165	163	162	161	160	157	156	155	155	154	154	154	155	158	161	163	163	164	163	161	159	157	155	154	154	155	157	159	161	162	164	166	167	169	169	169	168	168	166	165	163	162	159	156	155	155	156	157	157	159	161	162	163	164	164	164	163	163	164	166	167	168	170	172	173	172	171	171	171	172	173	174	175	176	178	180	182	184	186	187	188	188	185	183	182	182	180	179	177	176	176	177	179	181	184	188	192	193	192	192	192	192	191	190	187	182	178	174	171	168	165	161	158	154	151	148	143	141	140	137	136	138	137	135	132	128	128	130	135	144	147	142	138	137	134	134	135	136	135	134	133	132	129	127	128	129	130	130	130	130	130	129	127	126	126	126	126	125	126	127	128	128	127	127	127	124	127	129	131	133	136	138	142	144	144	141	130	128	128	126	126	128	127	125	123	122	121	120	117	115	114	115	119	122	126	129	134	144	146	145	145	145	146	145	141	139	136	134	133	134	135	135	135	134	133	133	132	131	132	132	133	133	132	129	126	126	126	125	124	122	121	120	118	117	116	113	110	108	108	108	106	101	97	96	100	102	103	102	101	101	101	101	100	100	101	102	101	100	98	98	98	97	97	97	97	97	97	96	96	96	96	97	96	92	88	87	84	83	77	74	76	78	78	77	74	70	67	65	62	60	58	57	57	57	57	57	57	58	61	68	74	79	86	87	86	87	87	87	89	91	91	89	88	85	84	84	83	84	83	82	81	78	77	78	79	80	80	80	80	78	77	76	75	74	74	74	74	74	75	75	75	74	73	73	73	72	68	64	63	63	63	63	62	62	62	63	62	62	62	62	62	63	63	63	64	64	63	63	63	63	63	63	63	64	64	64	64	65	66	68	69	68	68	68	68	68	68	68	68	69	69	70	70	71	71	71	71	71	71	72	72	72	72	74	76	78	79	81	83	83	84	84	84	84	84	83	83	83	81	77	78	78	79	80	81	82	83	83	83	84	83	83	83	81	79	79	82	85	86	87	87	87	88	89	89	89	89	88	89	89	89	89	89	89	89	89	90	90	90	90	89	90	90	90	91	91	91	91	90	90	90	90	90	90	91	91	90	90	90	90	90	90	90	90	90	90	90	90	90	88	87	87	87	87	87	87	87	87	87	87	86	87	87	87	86	87	89	90	91	91	91	91	91	91	91	91	91	91	91	91	91	91	91	91	91	92	91	91	91	91	91	92	91	91	92	92	92	92	92	92	93	93	92	92	92	92	92	92	92	92	93	93	93	95	97	99	101	103	104	105	107	108	109	110	111	112	113	114	114	114	115	114	114	114	113	113	112	111	110	110	112	112	111	110	107	106	107	106	104	101	103	108	110	112	115	119	123	128	132	132	130	130	131	135	143	145	144	143	143	143	144	145	147	149	150	149	146	144	143	143	143	144	145	148	149	148	144	140	138	137	137	138	137	136	137	140	143	146	149	152	154	156	159	161	164	167	168	169	170	170	170	170	170	170	169	168	168	168	169	170	172	175
324	327	331	334	336	338	341	344	344	345	345	346	346	347	348	350	353	356	359	362	365	369	372	374	377	379	381	382	383	383	383	383	383	384	385	387	388	389	390	390	389	389	386	384	381	378	375	374	375	375	374	373	370	367	364	361	360	361	363	365	367	368	370	371	372	372	372	371	370	369	367	365	365	365	365	366	365	362	358	354	351	349	347	344	340	338	336	333	329	324	320	317	315	312	309	306	304	304	304	305	305	305	306	308	311	314	315	315	315	315	315	315	316	316	316	316	314	312	310	307	305	303	301	298	296	292	289	285	281	276	272	269	265	263	260	256	252	249	246	243	239	236	234	230	227	225	223	222	220	218	216	214	213	212	212	211	209	206	204	202	201	201	200	199	199	199	199	198	198	196	194	193	192	193	195	198	200	200	201	201	202	202	201	200	197	192	188	184	180	177	176	178	180	183	184	185	185	186	187	188	188	188	185	182	181	181	182	184	186	188	189	190	189	188	187	187	188	189	190	190	189	187	183	181	178	174	170	166	166	167	170	175	179	182	184	186	190	195	197	194	192	193	192	189	185	180	176	173	172	170	169	169	169	168	166	163	162	161	160	161	164	169	172	173	175	177	179	181	183	187	190	192	193	193	191	189	189	186	183	178	174	172	171	169	167	165	164	164	162	160	158	157	157	156	156	156	156	157	161	164	165	165	164	163	161	160	158	156	156	157	159	161	162	164	167	169	170	172	173	172	171	170	169	167	165	164	162	159	158	158	158	158	158	159	161	162	163	164	164	164	163	164	166	167	168	170	174	176	175	173	172	172	172	172	173	175	176	178	180	182	184	187	189	191	191	192	190	189	188	185	183	181	180	179	179	180	182	186	189	191	194	194	194	193	193	192	191	189	186	181	178	174	172	169	166	163	159	156	153	150	146	143	141	138	138	140	141	138	134	129	127	129	132	141	143	139	138	137	136	136	137	137	136	136	136	135	130	127	128	129	129	130	130	130	130	129	127	126	128	129	129	129	130	129	129	129	129	128	126	124	127	131	134	137	138	138	142	145	145	142	135	129	127	127	128	129	128	126	124	123	123	120	117	115	114	117	122	125	129	132	140	148	148	147	147	147	146	145	142	139	136	135	133	132	134	136	136	135	135	134	133	133	133	133	132	132	131	128	127	126	126	126	124	123	123	121	120	118	116	114	110	107	108	109	107	101	95	92	96	101	102	103	102	102	102	102	102	103	104	104	103	102	101	101	99	98	98	99	99	99	99	98	97	98	99	99	98	95	92	90	85	83	80	76	79	81	80	79	76	74	72	71	68	65	62	60	59	58	58	58	58	61	66	72	77	81	84	87	90	91	91	91	92	94	94	91	87	85	85	84	84	84	83	81	79	78	77	78	80	81	82	82	81	81	80	80	79	77	76	75	74	74	77	79	79	78	78	78	78	75	68	63	63	63	63	62	63	63	63	62	62	62	62	62	63	64	65	67	67	67	67	66	66	66	66	66	66	66	67	67	67	67	67	68	69	69	69	69	69	69	69	69	69	69	70	70	71	71	71	71	72	72	72	72	73	74	75	76	78	80	82	83	84	83	83	84	84	84	84	84	83	83	83	81	80	81	82	82	83	84	84	84	84	84	83	83	84	82	79	80	83	86	87	88	89	89	89	90	90	90	90	90	90	90	90	90	90	90	90	90	92	92	91	90	90	90	90	90	90	90	90	90	90	90	90	90	90	90	91	90	90	90	90	90	90	90	90	90	90	90	90	90	89	88	87	87	88	88	88	88	88	87	87	87	87	87	87	87	87	87	89	90	91	91	91	91	91	91	91	91	91	91	91	91	91	91	91	91	92	92	91	92	92	91	91	92	92	91	91	91	91	91	92	92	92	92	92	92	91	91	91	91	92	93	93	93	94	96	98	100	102	103	105	106	107	109	110	111	112	113	114	115	115	116	116	116	115	115	114	114	113	112	111	111	112	113	114	114	109	106	106	106	104	102	105	108	110	111	115	120	125	129	131	131	129	129	130	132	137	141	143	143	144	144	146	147	148	149	150	151	150	147	144	143	144	144	145	146	147	147	145	142	140	139	140	140	138	137	138	141	145	148	151	154	157	160	163	165	168	169	171	171	172	173	173	173	173	173	172	171	171	171	172	173	175	176
325	328	332	335	337	340	344	346	347	348	349	350	350	351	352	354	357	359	362	364	367	371	374	378	380	382	384	386	387	387	388	388	388	388	389	391	392	393	393	393	392	392	390	386	383	380	379	378	379	379	378	376	373	370	369	366	364	364	366	368	370	372	373	375	376	377	376	374	373	372	371	369	368	368	369	368	368	365	361	357	354	351	349	346	343	340	338	335	331	326	322	319	316	313	310	308	307	307	309	309	310	311	311	312	315	318	318	318	318	318	318	318	318	318	318	317	315	313	310	307	305	302	300	297	294	291	288	284	281	277	273	269	265	263	261	257	251	247	244	241	238	235	233	230	227	225	223	222	220	218	217	215	213	212	212	211	209	207	205	204	204	205	205	205	204	204	203	202	201	199	196	194	194	196	199	202	203	204	205	204	204	204	203	202	198	192	187	184	180	178	178	180	182	184	186	186	187	188	189	189	189	189	187	185	183	182	182	185	189	190	191	192	192	191	190	190	190	191	192	192	191	188	185	182	180	175	169	166	167	169	171	176	180	182	184	187	190	195	199	197	194	194	193	189	185	181	176	173	173	172	172	172	172	171	169	167	164	162	161	161	165	170	174	175	177	179	181	182	185	188	191	195	196	196	193	191	190	187	182	178	175	173	171	169	168	166	166	166	165	164	161	160	159	158	157	157	157	158	162	166	167	166	166	164	163	162	160	158	158	159	161	163	165	167	170	172	173	175	175	176	175	172	170	169	167	165	163	161	159	158	158	158	158	160	162	163	165	165	164	163	163	165	168	169	170	171	173	175	175	173	171	171	172	172	174	176	177	179	181	183	186	189	193	194	195	195	195	195	195	193	189	185	182	181	180	181	186	191	193	194	195	196	195	194	194	193	192	189	185	181	177	174	172	170	167	163	160	157	153	150	146	143	141	139	140	142	143	140	136	130	128	132	136	139	139	137	137	137	138	139	140	140	138	138	138	137	132	129	128	129	131	131	129	130	129	128	127	127	129	131	131	132	131	129	129	131	131	130	128	128	131	134	137	139	138	140	145	148	147	144	139	131	126	127	128	128	127	125	124	125	124	122	119	117	116	122	126	130	137	140	146	151	150	149	149	149	147	145	143	141	140	140	139	136	136	137	137	136	136	135	134	135	135	134	132	130	129	128	127	126	127	127	126	125	124	123	121	119	117	114	107	104	105	105	103	98	92	88	92	99	100	102	103	103	102	103	104	105	106	106	104	103	103	103	100	98	99	100	100	100	100	100	99	100	100	101	101	99	98	96	90	86	86	84	86	86	83	79	78	78	77	76	75	73	70	68	66	65	63	63	65	72	75	77	79	83	86	89	93	94	95	93	93	95	95	91	88	86	86	86	86	85	83	80	79	78	79	81	83	84	84	83	82	82	82	81	81	81	80	79	78	77	79	81	81	80	80	80	81	77	69	64	63	63	62	62	62	62	62	62	63	63	62	62	64	66	69	70	70	70	70	70	70	69	69	69	69	69	69	69	69	68	68	69	69	70	70	70	70	70	70	70	70	70	70	70	71	71	72	72	72	72	72	74	75	77	78	79	81	82	84	85	84	83	83	84	84	84	84	84	83	83	83	84	83	83	83	84	84	83	83	83	83	84	84	84	84	83	81	83	87	89	89	90	90	90	90	90	90	90	90	90	90	90	90	90	90	90	90	91	92	92	91	90	90	90	90	90	90	90	90	90	90	90	90	90	90	90	90	90	90	90	90	90	90	90	90	90	90	90	90	90	89	88	87	87	88	87	87	87	87	88	87	87	87	87	88	87	87	87	89	90	91	91	91	91	91	91	91	91	91	91	91	91	91	91	91	91	91	91	91	91	92	91	91	92	91	91	91	91	91	91	92	92	93	93	92	92	91	91	91	92	92	93	93	94	95	96	98	100	102	104	105	106	108	109	110	112	113	114	115	116	116	117	117	117	117	116	116	115	114	113	112	111	111	113	113	112	109	106	105	105	106	107	108	109	109	111	114	121	127	129	131	131	127	126	128	130	133	139	142	143	144	145	146	147	148	149	150	151	151	150	146	144	145	145	146	146	147	147	147	145	143	142	142	141	140	139	140	142	145	148	152	156	159	162	166	168	170	172	173	174	175	176	176	176	177	176	175	174	173	174	174	175	176	177
327	330	333	335	339	342	345	348	350	351	352	353	355	356	357	359	361	363	365	367	370	374	377	380	382	385	387	390	391	392	393	393	393	392	393	394	395	396	396	396	395	394	392	390	387	385	384	384	384	384	383	381	377	375	373	371	368	368	369	371	373	375	376	378	380	381	380	379	377	376	375	373	372	372	371	370	369	366	363	360	356	353	350	347	345	343	340	336	332	327	323	320	318	315	312	310	310	311	313	313	314	315	315	317	319	321	322	321	321	321	320	320	320	320	319	317	316	313	310	307	304	301	298	296	293	290	287	284	281	277	273	269	265	264	262	257	250	246	243	241	238	235	232	229	227	225	224	222	221	219	217	215	214	212	212	211	209	208	209	209	209	210	210	209	209	208	207	205	203	201	198	196	196	199	202	205	207	208	208	207	206	206	205	202	198	192	187	184	182	180	180	182	184	186	187	189	189	190	190	191	191	190	189	186	184	182	183	187	190	191	193	194	194	194	193	192	193	194	194	193	192	189	185	182	178	173	168	166	167	169	173	177	181	183	185	187	191	197	200	199	195	194	194	192	188	184	179	176	176	175	174	174	173	173	172	170	167	164	162	163	166	171	174	176	178	180	182	184	186	188	191	194	197	197	195	192	191	188	183	179	176	174	172	170	169	168	169	169	168	166	164	162	161	159	159	158	158	159	163	167	167	167	167	167	166	164	162	160	160	161	163	165	167	170	172	174	176	177	178	178	177	175	172	169	167	165	164	163	161	159	158	159	159	162	164	166	167	166	164	163	164	167	169	170	171	171	172	174	174	173	172	171	171	173	174	176	178	180	182	185	187	189	193	196	196	197	198	198	198	198	197	193	188	184	182	186	193	196	196	197	197	197	197	196	195	195	193	189	185	181	177	174	171	169	166	163	160	157	154	149	145	143	142	141	142	144	144	141	137	132	132	136	139	139	139	138	137	138	141	142	143	143	141	139	139	139	135	132	131	132	135	134	130	130	129	127	127	127	129	131	131	131	130	129	131	132	133	131	130	130	132	135	138	140	141	144	150	151	148	146	143	133	126	127	128	127	126	125	125	125	125	122	120	120	121	125	127	134	143	145	150	153	151	151	151	153	151	147	145	143	143	145	146	144	142	139	137	136	135	135	135	136	136	134	133	130	128	128	127	127	127	127	127	125	125	124	123	120	117	114	106	102	102	102	99	95	90	89	93	99	99	102	104	103	103	103	104	106	108	108	106	104	105	103	100	98	99	99	99	99	100	101	101	101	102	104	104	102	102	102	99	94	93	93	92	90	87	84	83	84	82	80	79	78	77	76	75	74	73	73	77	85	84	82	83	86	90	93	95	96	97	95	94	93	92	89	87	87	86	87	87	86	84	81	80	80	82	83	85	86	86	85	83	82	82	81	81	81	81	81	81	81	81	81	80	79	78	79	78	75	70	66	64	63	63	63	63	63	62	63	63	63	63	63	65	68	71	72	72	72	72	71	71	71	71	71	71	71	70	70	70	69	69	69	69	70	71	71	71	71	71	71	70	71	71	71	71	72	72	73	73	73	74	75	78	79	81	81	82	83	85	85	84	83	83	84	84	84	84	84	84	83	83	84	84	84	84	84	84	83	83	84	84	84	84	84	84	84	83	87	90	92	92	91	91	90	90	90	90	90	90	90	90	90	90	90	90	90	90	90	91	90	90	90	90	90	90	90	90	90	90	90	90	90	90	90	90	90	90	90	90	90	90	90	90	90	90	90	90	90	90	90	89	88	87	88	87	87	87	87	87	87	87	87	87	87	88	87	87	87	89	90	91	91	91	91	91	91	91	91	91	91	91	91	91	91	91	91	91	91	91	91	91	91	91	91	91	91	91	91	91	92	92	92	93	93	93	92	92	91	91	92	92	93	93	94	95	97	99	101	103	104	105	107	108	110	111	112	114	115	116	117	117	118	118	118	118	118	117	116	115	114	113	112	112	112	112	110	108	105	105	106	108	109	109	109	109	110	112	117	125	128	130	131	125	122	124	128	132	137	139	141	143	144	145	147	148	149	150	150	151	150	147	145	146	146	147	147	148	149	149	147	147	146	144	143	142	141	141	143	146	149	153	157	161	164	168	171	173	174	176	177	178	179	179	179	179	178	177	176	176	176	176	176	177	179
328	331	334	336	340	344	347	349	352	354	355	357	359	361	361	362	364	366	368	370	373	376	379	382	385	387	390	393	394	396	397	397	397	397	398	398	399	399	399	398	397	396	395	393	391	389	388	388	388	387	387	385	382	380	378	376	372	371	372	374	376	379	381	383	384	385	384	382	381	379	378	377	376	375	374	373	370	368	365	362	359	355	351	348	347	345	342	338	334	329	324	322	320	317	315	314	314	316	317	317	317	317	319	321	323	325	325	324	323	323	323	323	323	322	320	318	316	313	311	307	303	300	297	294	292	290	287	283	280	276	272	269	266	264	261	255	249	246	243	241	239	235	231	229	228	226	224	223	222	220	219	217	215	214	213	213	212	212	214	215	216	215	214	213	212	210	209	207	205	202	200	198	199	202	204	207	209	211	210	209	209	208	206	202	198	193	188	185	182	182	182	184	186	187	189	190	191	192	192	192	193	192	190	187	185	184	185	188	191	192	194	196	196	196	196	195	196	196	195	194	192	188	184	180	175	171	168	168	169	171	175	179	182	184	186	188	194	199	201	200	197	195	196	194	190	187	183	181	179	178	177	177	175	175	174	171	168	165	164	164	168	172	175	177	179	182	184	186	187	189	191	194	196	197	195	194	193	190	185	180	177	175	174	172	171	171	172	172	170	169	167	165	163	161	160	159	158	159	164	167	168	169	169	169	168	167	165	163	162	164	166	168	170	172	174	176	179	180	180	180	179	177	174	171	168	165	164	163	162	161	161	161	163	166	167	169	169	167	165	163	164	166	170	172	171	171	171	173	174	173	172	171	172	173	174	176	178	180	183	185	187	189	192	195	196	197	199	200	200	200	200	197	195	192	187	192	198	200	199	199	198	197	197	197	197	196	194	191	186	181	177	174	170	168	166	163	160	158	155	150	146	144	143	141	141	145	146	143	136	134	136	137	141	143	144	142	139	139	142	144	145	145	143	141	140	141	140	136	134	134	135	136	134	134	132	129	128	128	130	130	130	130	131	131	132	132	132	131	131	131	132	135	138	142	146	150	152	153	151	148	144	136	128	127	128	129	128	127	126	126	126	124	123	123	124	126	128	135	144	147	150	153	152	151	152	155	155	151	148	146	147	147	147	147	146	142	138	136	136	136	136	137	137	135	133	131	129	128	127	126	126	126	126	126	126	125	124	121	118	116	108	103	103	99	95	94	91	91	96	100	100	100	102	101	101	102	104	107	109	111	109	108	107	104	100	99	98	98	98	98	100	101	101	102	104	106	106	105	105	105	103	100	97	95	94	93	91	90	89	89	86	83	82	81	81	81	81	81	80	81	83	86	86	85	87	90	93	95	97	98	98	98	95	90	89	88	88	88	87	87	88	87	85	83	82	83	84	85	87	87	86	85	84	82	82	81	81	81	81	82	82	82	82	81	81	80	79	79	80	78	74	71	70	71	74	74	71	66	64	63	64	64	63	63	65	69	72	72	72	72	72	72	72	72	72	72	72	71	71	70	70	70	70	69	69	70	71	71	72	72	72	71	71	71	71	71	72	72	73	73	74	74	75	77	79	81	82	83	83	83	84	84	84	84	84	84	84	84	84	84	84	83	83	83	83	83	84	84	84	84	84	84	84	84	84	84	84	83	84	88	91	92	92	91	90	90	90	90	90	90	90	90	90	90	90	90	90	90	90	90	90	90	90	90	90	90	90	90	90	90	90	90	90	90	90	90	90	90	90	90	90	90	90	90	90	90	90	90	90	90	90	90	90	88	88	88	88	87	87	87	87	87	87	87	87	87	87	87	87	87	89	90	91	91	91	91	91	91	91	91	91	91	91	91	91	91	91	91	91	91	91	91	91	91	91	91	92	92	91	91	91	91	92	92	93	93	93	93	92	92	92	92	92	93	93	94	96	97	99	100	102	103	105	107	108	110	111	113	114	116	117	118	119	119	120	120	120	119	118	118	117	115	114	113	113	112	112	110	108	106	108	111	111	110	109	109	109	110	110	113	117	120	122	126	124	123	123	126	131	136	137	138	141	143	144	147	149	149	149	149	147	146	146	146	147	147	148	149	149	150	149	149	149	149	148	146	145	144	144	145	147	150	154	158	161	165	169	172	175	176	178	179	180	180	180	180	179	179	178	178	177	177	177	177	178	179
330	333	336	338	342	346	348	350	354	356	358	360	362	364	365	366	367	369	371	373	376	378	382	384	387	389	392	395	397	399	400	400	400	401	402	402	402	402	402	401	400	399	398	397	395	393	391	390	391	391	390	389	386	384	383	380	376	374	375	377	380	383	385	387	388	387	386	384	383	381	380	379	378	378	377	375	372	369	367	364	360	357	354	351	348	346	343	340	336	331	327	324	322	320	318	317	319	320	321	320	320	321	323	325	327	328	328	327	327	327	327	327	325	324	322	319	316	314	311	307	303	299	296	294	292	290	287	283	279	276	272	269	266	264	259	253	248	246	243	242	240	236	232	230	229	227	225	223	222	221	219	218	217	217	216	217	217	218	219	221	221	220	219	218	216	213	210	208	205	203	201	200	202	204	206	209	212	212	212	212	211	209	206	202	198	194	189	186	184	183	184	186	188	189	190	191	192	193	193	194	195	194	191	188	187	186	186	189	191	193	195	197	197	199	200	200	200	199	197	194	191	187	183	179	175	172	170	170	172	174	177	181	183	185	187	190	196	201	202	201	198	197	197	196	193	190	187	185	183	181	180	180	178	176	175	171	168	166	165	164	168	172	175	178	181	184	186	188	189	189	192	196	199	198	197	196	195	193	189	183	179	176	175	174	174	175	175	174	173	171	169	168	165	163	161	159	158	160	165	168	169	170	171	171	170	169	167	165	165	166	168	171	174	175	177	179	181	182	182	181	181	179	176	172	168	165	164	163	163	163	164	165	167	169	170	170	170	169	167	166	166	167	171	174	173	171	171	172	173	173	172	172	172	173	174	176	179	180	182	186	188	189	192	195	196	197	199	200	201	201	201	199	197	197	196	198	200	201	200	200	199	198	197	197	197	197	196	193	187	181	177	174	171	169	166	163	161	159	156	152	148	146	145	142	141	146	148	146	137	135	136	139	144	147	147	145	141	140	142	144	146	146	144	142	142	144	145	141	137	136	135	135	136	136	135	132	130	130	132	131	131	132	133	134	135	134	133	133	133	133	132	134	138	142	150	153	155	154	153	149	141	136	132	129	130	132	131	130	128	127	127	127	125	124	125	128	130	136	146	149	150	152	153	153	153	155	155	153	151	152	153	151	148	148	148	144	140	138	138	138	138	139	138	136	133	131	129	127	126	125	125	125	126	126	126	126	125	123	120	118	113	104	102	97	95	94	94	95	99	102	101	100	100	99	101	103	105	107	110	113	113	111	109	105	102	101	99	98	98	99	100	100	101	102	104	107	107	106	107	106	104	103	101	99	96	94	94	93	92	91	89	87	85	83	83	85	86	86	86	85	85	87	87	88	89	92	94	96	97	99	101	101	97	91	89	89	89	88	88	88	87	87	87	85	85	85	85	86	87	87	86	85	84	83	83	82	82	82	82	83	83	84	83	83	83	83	81	81	82	85	84	85	87	90	93	93	87	77	71	68	66	64	64	64	66	70	72	72	72	72	72	72	72	72	72	72	72	71	70	70	69	69	69	69	69	70	70	71	72	72	72	71	71	71	72	72	72	72	73	74	75	75	76	78	81	82	83	83	83	83	83	83	84	84	84	84	84	84	84	84	84	84	84	84	83	84	84	84	84	84	84	84	84	84	84	84	84	83	83	87	91	91	91	90	90	90	90	90	90	90	90	90	90	90	90	90	90	90	90	90	90	90	90	90	90	90	90	90	90	90	90	90	90	90	90	90	90	90	90	90	90	90	90	90	90	90	90	90	90	90	90	90	90	89	88	88	88	87	87	87	87	87	87	87	87	87	87	87	87	88	89	90	91	91	91	91	91	91	91	91	91	91	91	91	91	91	91	91	91	91	91	91	91	91	91	91	92	92	91	91	91	91	92	92	93	93	93	93	93	92	92	92	93	93	94	95	96	97	98	100	101	103	105	106	108	109	111	113	115	117	118	119	120	120	121	121	121	121	120	119	118	116	115	114	113	112	111	111	110	110	114	115	112	110	109	109	109	108	108	109	112	115	117	121	123	125	125	125	128	134	135	136	140	142	143	146	148	148	148	146	144	144	145	147	147	148	148	149	150	150	150	150	151	151	150	149	148	148	148	148	149	151	155	159	162	166	170	173	175	177	179	180	180	181	181	181	180	180	179	178	178	178	178	177	178	178
331	334	338	341	345	347	349	352	356	359	361	363	365	366	368	369	370	372	374	376	378	381	384	387	390	392	395	397	400	402	403	403	404	404	405	405	405	405	404	404	403	403	401	400	399	397	395	394	394	394	394	392	390	388	386	384	381	379	380	382	385	388	389	390	391	390	388	386	385	384	383	382	380	379	377	374	372	370	368	366	362	359	356	353	350	348	344	341	338	333	329	326	325	323	321	322	323	324	324	323	323	324	326	328	329	330	330	330	330	330	329	328	326	325	323	320	317	314	311	307	303	298	295	293	291	290	287	283	279	276	272	268	264	262	258	252	248	245	243	241	240	237	233	231	229	227	225	224	222	221	219	219	219	219	220	221	222	224	225	226	226	225	224	223	221	217	214	209	205	204	203	203	204	206	209	212	214	215	215	214	213	209	206	202	198	194	190	188	186	186	186	188	190	191	191	192	193	194	195	196	196	195	193	190	189	187	186	189	191	193	195	197	199	201	203	203	203	202	198	194	190	186	183	180	176	172	170	170	173	177	179	182	185	187	188	191	197	203	204	204	200	198	199	198	195	192	190	188	186	183	182	181	179	177	175	171	168	167	166	165	169	172	175	179	182	185	188	189	190	191	192	196	201	202	200	198	197	195	192	187	182	179	178	178	178	179	179	178	177	175	173	171	168	165	162	160	159	161	166	169	171	172	172	173	172	170	168	167	167	168	171	174	177	179	180	182	183	184	184	183	182	180	177	173	169	166	164	163	163	164	166	169	171	171	169	169	170	171	170	169	169	170	173	174	173	172	172	172	173	174	173	173	173	173	174	177	179	180	183	186	189	191	193	195	196	196	198	200	201	201	202	201	199	199	199	201	202	202	201	201	201	199	198	197	197	197	196	193	186	181	179	175	171	169	167	165	163	161	158	154	151	148	145	141	138	143	148	147	138	136	138	141	145	147	147	145	142	141	143	145	146	146	145	144	145	147	148	145	141	139	138	137	136	136	136	134	133	134	134	133	133	134	136	137	139	140	139	137	136	135	133	134	137	144	152	155	157	155	154	148	140	137	135	133	133	134	134	132	129	128	129	130	128	126	127	129	132	139	148	150	151	154	156	156	155	153	152	153	154	155	157	155	152	152	150	147	143	141	140	140	140	140	139	136	133	131	129	127	125	124	125	125	125	126	126	126	125	124	122	120	114	103	100	99	98	98	99	101	104	106	106	104	103	101	102	104	106	108	111	114	114	113	111	107	104	103	101	100	100	99	99	99	99	100	103	106	107	107	108	107	106	105	105	104	100	96	95	95	95	93	92	90	88	86	87	89	91	90	89	89	89	90	91	92	92	94	96	97	98	100	102	103	102	100	97	91	89	89	89	88	88	88	87	86	86	86	86	86	87	87	86	85	85	84	84	84	84	84	83	84	84	84	84	84	84	84	83	83	86	93	96	97	98	98	99	99	96	89	83	77	70	65	64	64	66	70	72	72	72	72	72	72	72	72	72	72	72	71	70	69	69	69	69	69	69	70	71	72	72	72	72	72	72	72	72	72	72	73	73	74	75	76	78	79	81	83	83	83	83	83	83	83	84	84	84	84	84	84	84	84	84	84	84	84	84	84	84	84	84	84	84	84	84	84	84	84	84	83	83	87	91	91	90	90	90	90	90	90	90	90	90	90	90	90	90	90	90	90	90	90	90	90	90	90	90	90	90	90	90	90	90	90	90	90	90	90	90	90	90	90	90	90	90	90	90	90	90	90	90	90	90	90	90	89	88	88	88	88	88	88	88	88	88	88	88	88	88	88	87	88	89	91	91	91	91	91	91	91	91	91	91	91	91	91	91	91	91	91	91	91	91	91	91	91	91	91	92	92	91	91	91	91	92	92	93	93	93	93	93	93	92	93	93	93	94	95	97	97	98	99	101	103	104	106	108	110	112	114	116	117	119	120	121	121	122	122	122	122	121	120	119	117	116	115	113	112	110	110	112	114	116	115	112	110	109	108	107	105	104	105	109	114	115	117	121	126	127	127	127	130	131	133	138	142	142	143	144	146	145	144	143	144	146	147	148	148	149	150	151	151	151	151	152	152	152	151	151	151	151	151	152	154	157	160	163	167	171	173	176	178	179	180	181	181	182	181	181	180	179	179	179	179	178	177	177	177
333	336	339	343	346	349	351	354	358	361	364	365	367	369	371	372	374	375	377	378	381	384	387	390	392	395	397	400	402	404	405	406	407	407	407	407	408	408	407	407	407	407	405	403	402	401	400	399	399	398	397	396	394	392	390	388	386	384	384	386	389	391	393	394	394	393	391	388	387	386	385	384	383	381	378	375	372	371	370	367	364	361	358	355	352	349	346	343	339	335	331	328	327	326	325	326	327	328	328	328	327	327	329	330	331	333	333	333	332	330	329	328	326	325	324	321	317	314	309	306	302	298	295	293	291	290	287	283	278	273	268	264	262	260	256	251	247	244	241	239	238	236	233	231	229	227	225	224	222	221	221	221	221	222	222	224	226	228	229	230	230	229	228	226	224	221	217	212	208	206	205	205	206	209	212	214	216	217	217	216	215	211	206	202	198	194	192	190	189	188	188	189	191	192	193	194	195	196	196	197	197	196	195	193	191	189	187	189	191	193	195	197	200	203	204	205	204	203	199	195	191	186	183	180	176	172	171	172	175	178	180	183	186	188	190	193	199	204	206	206	203	200	200	200	198	194	192	190	188	185	184	183	181	178	175	172	169	168	167	166	168	172	176	180	183	186	189	191	192	192	193	197	201	204	203	201	199	197	194	189	185	182	181	182	183	183	183	182	180	179	177	174	170	166	163	161	161	163	167	170	172	174	174	174	174	172	171	169	169	170	173	176	179	182	184	185	186	186	186	185	184	181	178	174	169	167	165	164	163	165	168	171	173	172	169	171	175	176	175	173	173	174	174	174	174	174	173	173	173	175	174	174	174	174	175	177	179	181	183	187	190	191	193	196	197	197	198	199	200	201	203	203	201	201	202	203	204	204	204	203	203	201	200	198	197	197	194	190	185	181	179	175	172	170	168	166	164	162	158	155	152	149	146	142	138	138	143	144	139	139	141	143	145	146	146	145	144	145	147	148	148	147	147	146	147	148	149	148	145	142	141	140	139	138	138	138	137	138	137	134	135	136	136	139	142	143	143	141	138	136	133	132	137	144	153	158	159	156	153	146	143	140	137	134	134	135	134	131	130	130	132	133	132	128	129	131	133	142	150	152	154	157	158	157	155	151	150	155	158	160	159	158	157	155	152	149	146	143	142	141	140	140	139	137	134	131	129	127	125	125	125	125	124	125	125	125	124	124	122	119	114	104	101	101	101	102	103	106	108	110	109	109	107	105	105	106	108	110	112	114	115	114	113	109	107	105	103	101	100	98	96	96	98	100	104	106	107	108	108	108	108	107	106	106	102	98	97	98	98	97	95	92	90	90	91	93	93	93	93	93	93	94	95	95	95	96	98	99	100	102	103	104	104	103	98	91	90	90	90	89	89	88	88	87	86	86	86	86	87	86	86	86	85	86	86	86	86	85	84	84	84	85	86	85	84	84	83	83	86	96	99	99	100	100	100	100	99	97	93	85	73	66	65	65	66	70	72	72	72	72	72	72	72	72	72	72	72	71	70	69	70	70	69	69	70	70	72	72	72	72	72	72	72	72	72	72	72	73	73	74	76	77	78	80	81	83	83	83	83	83	83	83	84	84	84	84	84	84	84	84	84	84	84	84	84	84	84	84	84	84	84	84	84	84	83	83	83	84	84	87	90	90	90	90	90	90	90	90	90	90	90	90	90	90	90	90	90	90	90	90	90	90	90	90	90	90	90	90	90	90	91	91	91	90	90	90	90	90	90	90	90	90	90	90	90	90	90	90	90	90	90	90	90	89	88	89	89	88	88	88	88	88	88	89	89	88	88	88	88	88	90	91	91	91	91	91	91	91	91	91	91	91	91	91	91	91	91	91	91	91	91	91	91	91	91	91	92	92	91	91	91	91	92	93	93	94	94	94	94	93	93	93	94	94	95	96	97	97	97	99	100	102	104	106	108	110	112	114	116	118	119	121	122	122	123	123	123	122	122	121	119	118	116	115	114	112	110	109	110	112	114	114	111	108	107	106	105	104	103	103	106	112	114	115	120	125	127	127	128	129	129	130	133	137	138	137	138	141	142	142	144	145	146	147	148	149	150	150	151	152	152	153	153	153	152	153	154	154	154	154	155	157	159	162	165	168	171	173	176	178	179	180	181	181	181	181	181	180	180	180	179	178	177	177	177	177
334	336	340	344	347	350	353	356	360	363	366	368	370	372	373	375	377	379	380	382	384	387	389	392	394	397	399	402	403	405	408	409	410	410	410	410	411	411	411	411	411	411	410	408	406	405	404	404	403	403	401	399	397	395	393	391	389	387	387	390	392	395	397	398	397	396	394	391	389	388	387	386	384	383	380	377	374	373	371	369	366	363	360	356	353	350	347	344	341	336	333	330	328	329	329	330	331	332	333	332	330	330	332	333	334	335	335	334	332	331	329	327	326	325	323	320	317	313	309	305	302	299	298	295	292	289	287	282	276	270	264	261	259	257	254	249	245	243	240	238	236	234	232	231	229	227	225	223	222	222	223	224	225	225	226	227	229	231	232	233	233	232	230	228	226	223	220	216	213	210	208	208	209	212	215	217	218	219	219	218	216	212	207	203	200	196	193	191	190	191	191	191	192	194	195	196	197	197	198	198	198	197	196	194	192	190	188	189	192	194	196	199	201	204	206	207	206	204	199	195	191	186	183	180	176	173	173	175	178	180	183	185	188	190	192	195	201	206	207	208	206	202	202	202	200	197	194	192	190	188	187	186	184	181	177	174	172	170	169	167	167	170	176	181	184	187	190	192	193	194	195	199	204	206	206	203	201	200	196	192	189	186	185	186	188	188	187	185	183	181	179	176	171	167	163	162	162	166	171	173	175	176	176	176	176	174	172	171	172	173	175	178	181	183	186	188	189	188	187	186	185	181	178	174	170	168	166	165	164	166	170	172	173	175	177	179	181	180	178	176	176	175	174	174	175	176	175	174	174	175	175	176	176	176	177	178	179	181	183	186	189	192	195	198	199	199	199	199	200	202	204	204	202	202	204	206	207	207	206	205	204	203	201	200	199	197	192	187	184	181	178	175	172	170	167	165	164	161	159	156	153	149	146	145	142	140	141	142	142	142	143	145	145	144	144	144	145	148	150	151	150	150	150	149	149	150	152	151	148	144	143	142	142	141	141	142	143	142	139	136	136	136	136	140	144	145	145	143	140	138	134	132	136	143	154	161	161	157	152	146	146	145	142	138	136	135	132	129	131	132	133	135	134	131	131	133	135	143	150	153	155	158	158	156	155	153	155	160	161	161	160	159	159	157	153	150	148	145	144	142	141	140	139	137	134	131	129	128	126	126	127	124	121	122	123	124	124	123	121	115	109	106	104	104	104	104	106	108	110	111	110	110	108	105	104	107	110	112	114	114	114	114	113	111	109	107	105	103	101	97	94	94	98	103	106	108	109	109	109	109	109	108	107	106	103	100	100	101	101	100	97	94	92	94	96	96	96	96	96	96	96	97	98	98	97	99	101	102	103	103	104	104	104	101	94	91	91	91	90	90	90	89	89	88	87	87	86	86	87	86	86	86	86	87	87	87	87	86	85	85	85	86	86	85	84	83	83	82	85	95	98	98	98	99	99	99	99	98	94	87	76	66	65	65	67	70	72	72	72	72	72	72	72	72	72	72	72	72	70	70	70	71	70	71	71	71	72	73	72	72	72	72	72	72	72	72	72	73	73	74	76	77	79	80	82	83	83	83	83	83	83	83	84	84	84	84	84	84	84	84	84	84	84	84	84	84	84	84	84	84	83	83	84	83	83	83	83	85	86	89	91	91	90	90	90	90	90	90	90	90	90	90	90	90	90	90	90	90	90	90	90	90	90	90	90	90	90	90	90	91	91	92	92	92	91	90	90	90	90	90	90	90	90	90	90	90	90	90	90	90	90	90	90	89	88	89	89	89	89	89	89	89	89	89	89	89	89	88	88	89	90	91	92	91	91	91	91	91	91	91	91	91	91	91	91	91	91	91	91	91	91	91	91	91	91	91	92	92	91	91	91	92	92	93	94	94	94	94	94	94	95	95	95	96	96	97	97	97	97	98	100	102	105	106	108	110	112	114	116	118	120	121	122	123	124	124	123	123	122	121	120	118	117	115	114	112	110	109	110	111	113	113	111	107	106	105	104	105	104	103	104	109	113	115	119	123	126	126	127	128	129	129	129	129	131	132	134	138	140	141	144	146	147	147	149	151	152	152	153	155	155	154	154	154	153	154	156	157	156	157	158	160	161	163	166	168	171	173	175	177	178	179	180	180	180	180	180	179	179	179	179	178	177	177	177	176
334	336	340	344	348	351	354	358	361	365	368	371	373	374	376	378	380	382	384	386	388	390	391	394	396	398	401	403	405	407	409	411	412	412	413	413	413	413	413	414	414	414	413	412	411	409	408	408	407	407	405	403	400	398	396	394	392	390	390	393	395	398	400	400	400	399	396	393	391	390	389	388	386	384	382	379	376	374	373	370	367	364	361	358	355	352	348	345	342	338	335	332	330	331	332	334	335	336	337	336	334	334	335	336	337	338	337	335	333	331	329	327	325	324	323	319	316	313	309	305	303	301	300	298	294	289	286	280	272	266	262	259	256	254	251	248	244	242	240	238	234	232	231	230	229	228	225	223	222	223	225	227	228	229	230	232	233	234	236	236	236	235	233	230	228	225	222	219	216	214	211	210	211	214	217	219	220	221	221	220	217	213	208	205	202	199	196	193	192	192	193	194	194	195	196	198	198	198	199	199	199	199	198	196	193	191	189	190	192	195	198	201	204	206	208	209	207	204	199	195	191	186	183	180	176	175	176	178	180	183	185	187	189	191	194	196	202	207	209	210	207	204	204	203	202	199	197	195	193	191	189	188	186	183	180	177	175	173	172	170	167	167	173	180	184	187	190	192	195	196	197	200	205	207	208	205	204	202	200	196	193	191	190	191	192	192	191	188	185	183	181	178	173	168	165	163	164	169	173	176	178	179	179	178	177	176	174	173	174	175	177	180	183	185	187	190	190	189	188	186	184	181	178	175	171	169	168	168	168	170	171	173	175	179	181	182	182	180	178	177	177	176	175	175	176	176	176	174	174	175	176	177	178	178	178	179	179	180	183	186	190	192	195	198	200	201	202	202	202	203	205	204	202	202	205	208	208	208	207	206	205	204	202	201	200	196	190	186	184	181	178	174	172	168	165	164	163	161	158	156	153	150	149	149	147	144	142	143	143	143	144	146	146	146	145	145	146	149	152	152	153	153	153	152	152	154	155	155	152	148	146	145	145	144	143	144	146	143	139	138	137	136	137	142	144	144	144	143	141	138	135	133	136	144	153	161	162	159	154	150	147	147	147	144	139	136	129	127	129	132	134	133	133	132	130	132	135	140	149	154	156	159	159	158	157	159	160	161	161	160	159	160	160	157	153	151	149	146	144	143	142	140	139	137	134	130	129	128	128	128	128	125	120	119	122	123	123	121	115	109	106	107	107	106	107	108	109	110	111	112	111	111	109	105	106	109	112	114	116	116	115	115	114	113	111	109	107	105	102	99	96	98	103	106	108	109	110	111	111	110	109	109	108	107	104	102	102	102	102	102	99	96	94	97	98	98	99	99	99	99	99	99	99	100	101	102	103	103	104	105	106	105	104	98	93	92	94	93	91	90	90	90	90	89	89	88	86	86	86	86	86	86	87	87	87	87	87	87	86	85	85	86	86	84	83	82	82	82	86	95	99	98	97	97	97	97	96	94	90	85	77	67	66	66	67	70	72	72	72	72	72	72	72	72	72	72	72	72	71	71	71	72	72	72	73	72	73	73	73	72	72	72	72	72	72	72	72	72	73	74	76	77	79	81	82	83	83	83	83	83	83	83	84	84	83	84	84	84	84	84	84	84	84	84	84	84	84	84	84	84	83	84	84	84	84	84	85	86	88	90	91	91	91	91	90	90	90	90	90	90	90	90	90	90	90	90	90	90	90	90	91	91	91	90	90	90	90	90	91	91	92	92	93	93	92	91	91	91	90	90	90	90	90	90	90	90	90	90	90	90	90	90	89	89	88	89	89	89	89	89	89	89	89	89	89	89	89	89	89	89	90	91	91	91	91	91	91	91	91	91	91	91	91	91	91	91	91	91	91	91	91	91	91	91	91	91	91	91	91	91	92	92	93	94	94	94	94	94	95	96	96	97	97	97	98	98	97	97	98	99	100	102	105	107	109	111	113	115	117	118	120	122	123	124	125	125	124	124	123	122	120	118	117	115	114	113	111	111	111	113	114	114	113	110	108	107	106	106	106	105	103	106	110	115	119	123	124	124	125	127	128	129	128	128	129	130	135	137	139	141	143	145	147	147	149	151	152	153	154	155	156	155	155	155	155	157	157	158	159	160	161	162	163	164	167	169	171	173	174	175	177	178	178	179	179	179	179	179	178	178	177	177	176	176	176	176
334	337	340	345	349	352	355	359	363	366	370	372	375	377	379	380	382	385	387	389	391	393	394	396	399	400	403	405	407	409	411	413	414	415	415	416	416	416	416	416	416	416	416	415	414	413	412	412	412	411	408	405	403	401	398	396	394	394	395	397	399	401	403	403	402	401	399	396	395	393	391	389	387	385	383	380	378	376	374	371	368	365	362	359	356	353	350	346	344	341	338	336	333	334	336	338	339	339	340	339	337	338	339	339	340	339	338	336	333	331	329	326	324	323	321	318	315	312	309	306	303	301	301	299	295	290	284	277	268	264	261	256	252	250	248	246	244	242	240	237	234	232	230	230	229	228	227	226	225	226	228	230	232	233	235	236	237	238	239	239	239	238	236	233	230	226	223	221	218	216	215	213	214	216	219	221	223	224	224	222	220	216	211	208	206	202	199	197	195	194	195	196	196	197	198	200	200	200	200	200	200	201	200	198	195	194	192	191	193	196	199	203	206	208	209	210	208	204	200	195	191	188	184	180	177	176	178	180	182	184	186	189	191	193	195	197	200	205	210	211	209	206	207	206	204	201	199	197	195	193	192	191	189	187	184	181	178	177	175	173	171	170	172	177	181	184	188	193	197	198	198	201	204	205	206	206	206	205	203	201	198	196	195	195	196	195	193	191	188	185	182	179	175	170	166	165	167	170	174	177	180	182	182	180	179	177	175	175	176	178	180	182	184	186	188	189	189	189	188	186	183	181	179	176	172	171	170	170	171	173	174	175	178	181	182	182	181	179	178	178	179	179	178	177	177	176	175	174	174	175	176	177	178	179	179	179	180	180	183	187	191	193	195	197	200	203	204	204	204	205	206	205	202	202	205	208	208	208	208	207	206	205	203	202	200	195	189	186	184	181	177	174	170	166	164	163	162	160	157	155	153	151	151	152	151	147	144	144	145	144	145	146	148	148	147	146	148	151	153	154	155	155	155	155	155	157	158	157	156	151	149	148	147	147	146	147	147	144	141	140	139	138	140	143	144	143	143	143	142	139	136	134	137	144	151	160	162	162	158	152	148	148	148	147	144	142	134	127	126	129	131	131	131	131	131	133	135	137	147	154	157	160	160	159	160	161	162	163	162	162	161	160	159	156	154	153	151	148	146	145	143	141	139	136	134	131	130	130	130	130	130	128	125	121	121	121	119	114	110	107	107	108	108	108	110	112	114	114	114	115	114	114	111	109	110	112	113	115	117	118	117	116	115	113	112	110	108	105	103	102	103	107	110	111	111	111	111	112	113	112	110	109	108	108	106	104	103	103	103	102	100	97	96	98	99	99	101	102	103	102	102	101	102	102	104	105	105	104	105	106	107	104	100	95	93	95	102	101	93	91	91	91	90	90	90	88	87	86	86	86	86	86	86	87	87	87	87	87	87	86	86	86	86	84	83	83	83	84	89	96	99	98	96	96	96	95	93	90	89	85	82	71	66	66	67	70	72	72	72	72	72	72	72	72	72	72	72	72	72	72	72	72	72	73	73	73	73	73	72	72	72	72	72	72	72	72	72	72	72	73	75	77	79	81	83	83	83	83	83	83	83	84	85	84	83	83	84	84	84	84	84	84	84	84	84	84	84	84	84	85	85	86	87	87	87	88	88	88	89	90	90	91	91	91	90	90	90	90	90	90	90	90	90	90	90	90	90	90	91	91	92	92	92	92	92	92	91	91	91	91	92	92	92	92	92	91	91	91	91	91	90	90	91	91	91	90	90	91	91	90	90	89	89	89	89	89	89	89	89	89	89	89	89	89	89	89	89	89	89	89	90	91	91	91	91	91	91	91	91	91	91	91	91	91	91	91	91	91	91	91	91	92	92	91	91	91	91	91	92	93	94	95	94	94	94	94	94	95	96	97	98	98	98	99	100	99	98	98	99	99	100	102	105	107	109	111	113	115	117	119	121	122	124	125	125	125	125	124	123	122	120	118	117	115	114	113	112	112	112	113	115	115	115	114	112	110	109	109	109	108	104	103	105	110	116	121	122	123	125	127	127	128	127	128	129	131	136	137	138	139	142	143	145	146	146	147	149	151	151	152	153	153	153	153	154	155	156	157	159	161	162	162	164	165	167	169	171	172	172	173	174	175	175	176	176	176	177	177	177	176	175	176	175	175	175	175
335	338	341	346	350	353	356	359	364	368	371	374	376	379	381	383	385	387	388	391	393	395	397	399	400	402	404	406	408	411	413	415	416	417	418	418	418	418	418	418	419	419	419	418	417	417	417	417	417	414	411	408	406	404	401	398	398	398	400	402	404	405	406	406	405	403	401	400	398	396	394	391	389	387	385	383	380	377	375	372	369	366	363	360	357	355	352	348	345	343	341	339	338	339	341	342	342	343	343	342	341	342	342	341	340	340	338	336	333	331	329	326	323	321	319	316	313	312	310	307	303	300	300	299	295	288	280	273	266	262	258	253	250	248	246	245	243	242	241	238	236	234	231	231	230	228	227	228	228	230	232	234	236	238	239	240	241	242	243	242	242	241	239	236	232	229	226	223	220	219	218	217	216	218	221	224	225	227	227	226	223	219	215	212	210	207	202	199	197	196	196	197	198	198	200	201	202	201	201	202	202	203	202	199	197	195	193	193	194	197	201	204	207	208	210	210	209	206	201	197	193	190	186	182	179	177	178	181	183	185	187	190	192	193	195	198	200	204	209	210	210	209	211	211	207	203	200	199	197	196	195	194	192	190	189	186	184	181	179	176	175	174	175	177	180	182	185	192	196	197	199	202	204	205	207	208	207	207	206	204	201	199	199	199	199	197	196	193	190	186	183	179	175	170	167	167	169	171	174	178	182	183	183	182	181	180	178	177	179	181	183	184	186	188	189	189	189	189	188	186	183	181	179	177	173	172	172	172	174	176	176	177	180	182	182	182	180	178	177	178	181	183	181	178	176	174	174	174	175	175	176	178	179	179	180	180	180	181	183	187	191	193	195	197	200	202	204	206	207	208	207	206	204	203	205	207	209	210	209	207	206	205	204	202	199	194	189	185	183	180	176	172	169	166	164	163	161	159	156	154	153	151	151	152	151	147	144	145	146	146	146	147	149	150	150	150	152	153	154	155	155	156	157	157	158	159	159	159	158	155	153	152	151	150	149	149	147	144	143	142	141	140	141	143	144	143	143	144	143	140	137	136	139	145	152	160	164	165	162	155	151	150	149	148	146	142	134	127	126	125	126	128	131	133	133	135	137	137	143	154	159	165	164	163	162	161	163	166	166	164	163	160	157	156	154	152	151	152	151	148	144	141	138	136	133	131	131	131	132	131	130	129	126	123	121	119	115	110	108	108	108	108	109	110	112	114	118	120	120	119	116	115	113	110	111	113	114	116	118	119	118	117	115	114	112	109	107	106	105	106	113	114	114	117	118	117	115	114	115	115	113	111	110	109	108	106	104	104	104	103	101	98	98	100	101	102	104	105	105	105	104	104	104	105	107	108	107	107	106	107	107	103	96	95	94	98	105	101	94	91	91	91	91	90	90	89	87	86	86	86	86	86	86	87	87	88	87	87	87	87	87	87	88	87	85	84	85	88	92	96	97	97	96	96	95	93	91	90	89	87	82	72	67	66	68	70	72	72	72	72	72	72	72	72	72	72	72	72	72	72	72	72	72	72	73	74	73	72	72	72	72	72	72	72	72	72	72	72	72	73	75	78	80	82	83	83	83	83	83	83	83	84	86	86	84	83	84	84	84	84	84	84	84	84	84	84	84	84	85	87	89	90	90	90	90	90	89	89	89	90	90	90	90	90	90	90	90	90	91	90	90	90	91	91	91	91	91	91	92	92	92	93	93	93	94	94	94	93	92	92	93	94	93	91	91	92	92	92	91	91	91	91	92	92	92	92	92	92	91	91	90	89	89	89	89	89	89	89	89	89	89	89	89	89	89	89	89	89	89	89	90	91	91	91	91	91	91	91	91	91	91	91	91	91	91	91	91	91	91	91	91	92	92	91	91	91	91	92	94	97	99	99	96	95	94	94	95	96	97	98	99	99	99	100	101	100	99	99	99	100	101	103	105	107	109	112	114	115	117	119	121	123	124	125	126	126	125	124	123	122	120	118	116	115	114	112	112	112	112	111	114	118	118	117	115	114	112	111	112	111	107	104	105	108	113	120	121	122	125	126	126	126	126	126	128	129	131	135	137	138	139	139	140	142	144	145	146	147	147	148	148	148	148	149	150	152	153	155	157	159	160	162	163	164	167	169	169	169	170	170	169	171	172	171	171	172	173	174	174	173	173	173	173	173	173	173
338	340	343	347	351	354	356	360	364	369	372	375	378	380	383	385	386	388	389	391	394	396	398	400	402	404	406	407	409	411	414	416	417	418	419	420	420	419	419	420	420	421	420	419	419	419	420	420	420	418	415	411	409	407	404	402	401	402	403	406	408	409	409	409	408	406	404	402	401	398	395	393	391	388	386	384	382	379	376	373	370	367	364	361	359	357	353	350	348	346	344	343	342	343	344	346	346	347	347	346	345	345	344	343	341	340	337	335	332	330	328	325	322	320	317	314	312	311	309	305	301	298	297	296	293	286	277	271	264	261	255	252	251	250	247	245	245	244	243	242	240	237	233	231	230	229	229	230	232	235	237	239	241	242	243	244	246	247	247	246	245	244	242	239	234	231	228	225	223	222	220	219	219	222	224	226	228	229	229	228	226	222	218	214	212	209	204	201	199	197	197	198	198	200	202	203	203	203	203	204	205	204	203	201	198	196	194	193	195	197	202	206	208	209	211	211	210	208	204	200	196	192	188	184	181	179	179	181	183	186	188	191	193	194	197	200	203	206	208	210	210	211	213	213	210	205	202	201	200	200	199	198	196	194	192	190	188	185	182	180	178	178	178	179	180	182	184	189	193	195	198	201	204	208	212	212	211	209	209	206	204	203	204	204	202	200	198	195	191	187	183	179	175	171	169	170	171	172	175	180	183	185	186	185	183	182	182	182	183	185	186	186	188	189	190	190	190	190	189	187	184	181	179	177	174	173	174	175	176	176	177	178	181	182	182	181	180	178	175	175	179	182	181	179	177	175	175	175	175	176	177	178	179	180	181	181	181	181	183	186	190	193	195	197	200	202	204	207	209	209	209	208	207	206	206	208	211	212	211	209	207	205	204	202	199	194	189	184	181	178	175	172	168	166	165	163	161	159	157	155	153	153	153	152	151	148	146	146	147	147	148	149	151	153	153	153	155	155	155	155	156	157	157	158	160	162	162	160	160	159	158	157	155	153	152	150	147	144	144	143	142	141	141	142	143	143	144	144	143	141	139	139	142	146	152	161	166	166	164	159	156	154	153	151	147	141	134	130	129	128	129	132	136	135	135	136	138	139	142	154	163	168	168	168	166	163	163	166	166	165	163	159	157	157	154	151	152	154	155	152	146	141	138	136	134	133	132	133	133	132	130	129	126	123	121	117	113	110	110	110	110	111	111	112	113	118	127	130	129	126	121	116	114	112	112	114	116	117	121	122	120	117	115	114	112	109	107	106	106	110	116	116	117	120	122	122	121	118	117	117	116	114	113	112	110	107	105	104	104	104	102	100	101	104	106	106	106	107	107	107	107	107	107	108	109	110	110	110	109	108	107	100	95	95	96	98	99	96	93	92	91	91	91	91	91	90	88	86	86	86	86	86	86	87	88	89	89	88	88	89	89	89	90	89	88	88	90	93	95	96	96	96	96	96	94	91	90	90	89	87	80	72	67	67	68	70	71	72	72	72	72	72	72	72	72	72	72	72	72	72	72	72	72	72	72	73	73	72	72	72	72	72	72	72	72	72	72	72	72	73	75	78	81	83	84	84	83	83	83	83	83	84	86	86	84	83	83	84	84	84	84	84	84	84	84	84	83	84	86	89	91	91	90	89	89	89	89	89	89	89	90	90	90	91	91	91	91	91	90	90	90	91	91	92	92	92	92	92	92	93	93	93	93	94	95	96	97	96	94	94	95	96	95	93	92	92	92	92	92	92	92	94	94	93	93	92	92	93	92	91	90	90	89	89	89	89	89	89	89	89	89	89	89	89	89	89	89	89	89	89	90	91	91	91	91	91	91	91	91	91	91	91	91	91	91	91	91	91	91	90	90	91	91	91	91	91	92	95	98	97	98	100	98	96	95	95	95	97	98	99	100	100	100	100	101	100	100	100	100	101	102	104	106	108	110	112	114	116	118	120	122	123	125	126	126	126	125	124	123	121	119	118	116	115	114	113	112	113	113	112	116	120	121	119	118	117	115	112	111	111	108	106	109	111	115	119	121	123	124	125	125	125	124	124	125	124	125	128	132	134	135	134	134	136	139	141	141	141	142	143	143	144	144	144	145	147	149	152	154	156	157	158	159	161	162	164	164	165	166	165	161	162	165	165	166	168	170	170	170	170	170	171	171	171	171	171
340	342	345	348	351	355	358	361	365	370	374	377	379	381	383	386	388	389	391	392	394	397	399	401	402	405	407	408	410	413	415	417	418	419	420	420	420	420	420	420	421	421	420	419	419	419	420	421	422	421	418	414	412	409	407	407	406	406	408	410	411	412	413	412	410	408	406	404	402	400	396	394	392	389	387	385	383	380	377	374	370	368	365	363	360	358	354	352	351	350	348	347	346	346	347	349	350	351	350	349	348	347	346	343	341	339	336	333	331	329	326	323	321	319	316	313	311	309	306	303	300	297	293	291	287	281	272	267	263	260	256	254	253	253	252	250	249	248	247	246	244	240	235	231	231	232	233	235	238	241	243	244	246	247	248	249	251	251	251	250	249	246	243	240	237	233	231	228	225	224	222	222	223	225	227	228	229	230	230	228	226	223	220	216	213	209	204	201	200	199	198	198	199	201	204	205	205	206	206	206	206	206	204	203	200	198	195	194	195	198	203	207	209	211	212	212	211	209	207	203	199	195	190	186	184	182	180	180	182	185	189	192	194	196	199	202	205	208	210	211	212	212	214	215	213	208	204	203	202	202	201	201	199	197	195	193	191	189	186	183	183	182	182	181	180	182	183	187	191	195	199	201	205	210	214	216	215	212	210	209	207	207	208	208	205	202	199	195	191	187	183	179	174	171	170	172	173	174	177	182	186	188	190	189	187	185	186	187	188	188	188	188	189	190	192	192	192	191	190	188	185	181	180	178	175	175	177	178	177	176	178	179	181	182	182	181	180	177	175	174	176	179	180	182	180	177	177	178	178	178	179	179	180	181	181	182	183	183	184	186	190	193	196	198	200	203	204	207	209	210	210	210	210	209	210	211	212	214	213	211	208	206	204	201	198	194	189	184	180	177	175	171	167	165	164	163	162	159	157	156	156	156	156	155	153	150	148	148	148	148	149	151	153	154	154	155	156	157	155	155	156	158	158	159	162	165	164	162	162	162	162	161	158	156	153	151	147	145	144	144	143	142	141	142	143	143	145	145	145	143	141	140	143	148	151	161	166	166	165	163	161	157	154	151	147	142	137	134	132	131	133	137	141	139	137	138	140	141	144	153	162	167	169	170	168	164	163	164	165	164	163	162	160	160	157	153	153	156	155	152	148	144	139	136	135	135	134	134	133	132	130	129	126	124	121	118	115	114	113	114	114	115	114	114	115	120	131	133	134	134	128	118	115	114	115	117	118	120	124	125	122	118	116	115	113	111	109	108	108	110	114	117	119	121	123	124	124	120	118	117	117	116	115	114	111	107	105	104	104	105	104	104	105	107	109	109	108	109	110	111	111	111	111	112	112	112	112	112	111	108	104	98	96	96	96	96	94	93	92	92	91	91	91	91	91	90	88	86	86	86	86	86	86	87	89	90	90	89	89	89	89	90	90	90	89	90	92	93	95	95	93	93	94	94	93	90	90	90	89	87	80	72	68	67	68	69	71	72	72	72	72	72	72	72	72	72	72	72	72	72	72	72	72	72	72	72	72	72	72	72	72	72	72	72	72	72	72	72	72	73	75	78	81	83	84	84	83	83	83	83	83	83	84	84	84	83	84	84	84	84	84	84	84	84	84	84	83	84	86	89	91	90	90	89	89	89	89	89	89	89	90	91	91	92	92	92	92	92	91	91	91	91	92	92	92	92	93	93	93	93	93	93	93	94	96	97	98	98	98	98	97	96	95	93	93	93	93	93	93	93	94	94	95	94	93	93	93	93	93	92	91	90	90	89	89	89	89	89	89	89	90	89	89	89	89	89	89	89	89	89	90	91	91	91	91	91	91	91	91	91	91	91	91	91	91	91	91	91	91	90	90	91	91	91	92	92	94	99	99	95	98	101	99	97	96	96	97	98	99	100	101	101	101	101	101	101	100	101	101	102	103	105	106	108	110	112	114	116	118	120	122	124	125	126	126	126	125	124	122	121	119	117	116	114	114	113	113	114	114	114	116	119	120	120	120	119	116	113	111	111	110	108	109	112	115	119	122	123	124	124	125	124	122	121	121	121	122	122	125	129	131	132	133	133	134	134	135	137	137	139	140	140	140	139	140	143	145	148	151	153	154	154	155	156	157	158	159	160	160	158	155	155	156	155	158	164	166	167	167	168	168	169	169	169	168	169
341	343	346	350	353	356	359	363	367	371	375	378	380	382	384	386	388	390	392	394	395	396	399	401	403	405	407	410	412	415	416	417	418	418	419	419	419	419	420	421	421	421	420	420	421	420	419	420	422	422	421	418	415	413	411	410	411	412	413	414	415	416	417	415	413	410	407	405	403	401	398	396	393	390	388	385	383	380	377	374	372	369	367	365	363	361	358	356	356	355	352	349	348	349	350	352	353	353	353	352	350	348	346	343	340	338	334	331	329	327	325	322	320	318	316	314	311	308	305	302	301	296	289	285	280	274	269	267	264	263	261	260	259	259	258	257	255	252	251	250	248	242	237	232	232	235	239	242	243	245	247	248	250	251	253	254	255	255	254	254	253	249	245	242	240	236	232	229	227	226	225	225	226	227	228	229	230	232	232	229	226	223	220	217	212	208	204	200	199	200	200	199	200	203	206	207	207	208	208	208	208	207	206	204	202	200	197	195	196	199	204	208	211	212	213	213	212	210	208	205	201	197	192	188	186	184	183	181	181	182	187	191	194	198	201	204	207	210	212	213	213	213	215	216	214	210	206	204	203	203	203	203	201	199	198	196	194	192	190	188	187	186	184	181	181	184	187	188	191	195	199	202	205	209	213	217	217	215	214	213	212	212	211	210	207	204	200	195	190	185	181	178	174	171	171	173	175	177	180	185	189	191	193	193	191	189	189	190	190	190	191	191	191	193	194	194	193	192	191	188	185	182	180	179	178	178	180	180	178	177	179	181	182	183	182	181	180	177	175	176	178	177	180	183	181	177	179	180	180	180	180	180	181	181	182	184	184	185	185	188	191	195	198	200	202	204	205	206	208	209	210	211	211	211	212	212	213	214	214	212	210	207	204	201	198	194	189	185	181	178	175	172	167	163	162	163	162	160	158	158	158	158	158	157	155	153	151	149	149	149	150	152	154	155	156	156	157	157	155	155	157	159	159	160	163	166	166	164	163	163	164	164	159	156	153	151	148	146	145	145	144	143	143	144	145	145	146	147	146	144	142	142	144	151	152	157	164	166	167	166	163	159	154	149	146	144	139	135	134	133	134	138	143	141	139	140	140	143	151	160	164	167	169	169	168	165	163	164	164	164	163	163	164	163	162	160	159	157	153	152	149	146	140	136	136	136	136	135	134	132	130	129	127	124	122	120	119	118	117	117	118	117	117	117	120	127	135	136	137	136	130	120	117	118	119	120	121	122	124	125	123	119	117	116	115	113	111	109	109	110	113	116	118	121	123	125	126	123	120	118	117	116	115	114	111	106	103	104	106	107	107	106	107	109	111	111	111	113	114	113	114	114	114	115	115	115	115	114	111	104	99	97	97	98	97	95	93	93	92	92	92	92	92	92	92	91	89	87	86	86	86	86	87	88	89	90	90	89	89	90	89	90	90	90	90	90	91	91	92	93	91	90	91	92	91	90	89	90	89	87	81	74	69	68	68	69	71	72	72	71	70	71	71	72	72	72	72	72	72	72	72	72	72	72	72	72	72	72	72	72	72	72	72	72	72	72	72	72	72	73	76	79	81	83	83	83	83	83	83	83	83	83	83	83	84	84	84	84	84	84	84	84	84	84	84	83	83	84	86	89	90	90	90	89	89	89	89	89	89	90	90	92	92	93	93	93	93	93	92	92	92	92	92	92	93	93	93	93	93	93	93	92	92	93	94	95	96	98	100	102	99	95	94	93	93	93	93	93	93	93	93	93	93	93	93	93	93	93	93	92	92	91	91	90	89	89	89	89	89	89	89	89	89	89	89	89	89	90	89	89	90	91	91	91	91	91	91	91	91	91	91	91	91	91	91	92	92	91	91	91	91	91	91	92	95	99	101	101	97	97	100	100	97	96	96	96	97	98	99	100	101	102	102	102	102	101	101	101	101	103	104	106	107	109	111	113	115	117	119	121	123	124	126	126	127	126	125	124	122	120	118	117	116	115	114	114	113	114	114	113	115	116	118	121	121	120	118	115	113	113	112	108	107	109	112	116	119	121	123	124	125	124	120	118	118	121	119	119	121	125	127	128	130	131	131	130	132	134	135	136	136	137	137	137	138	140	142	145	147	149	150	150	151	152	153	154	155	155	155	155	154	154	152	151	152	158	160	161	163	164	166	167	167	166	166	167
343	345	348	351	354	356	360	364	368	373	376	379	381	383	385	387	388	391	393	395	395	396	398	401	403	405	407	410	413	416	417	418	418	418	419	419	419	419	420	421	422	423	423	423	424	422	420	419	420	421	422	421	420	417	414	414	415	416	417	418	419	420	419	417	414	411	408	405	403	402	400	397	394	391	388	386	383	381	378	375	373	370	368	367	365	365	363	362	361	359	356	353	352	353	355	355	355	355	355	354	352	349	346	343	339	336	333	330	328	326	324	323	320	317	316	315	313	308	305	302	298	290	283	279	275	272	269	267	267	266	266	266	266	265	262	261	259	256	254	252	249	244	240	235	236	239	244	246	248	249	251	252	254	255	257	258	258	258	257	257	256	252	248	245	242	239	234	231	230	229	228	229	230	229	229	230	232	233	233	230	226	222	221	217	212	208	205	201	200	201	202	202	202	205	207	209	209	210	210	210	209	209	207	205	204	202	199	198	197	199	204	210	212	214	215	215	214	211	209	206	203	199	195	191	189	187	186	184	183	182	186	191	195	199	202	205	208	211	213	214	215	215	215	216	215	211	208	206	205	205	205	205	203	202	201	199	197	195	194	193	191	188	185	182	184	188	190	191	192	196	199	203	206	209	213	216	217	217	218	217	216	216	214	212	208	204	199	193	188	184	180	178	175	173	173	175	178	181	184	187	191	194	195	196	194	193	192	192	192	193	193	194	194	195	195	195	194	192	191	188	184	181	181	182	182	182	181	181	180	179	182	184	184	184	183	183	182	181	179	179	179	178	179	182	179	178	180	181	182	182	181	182	182	183	184	185	186	186	186	189	194	197	200	202	203	204	205	206	208	210	211	211	212	212	212	212	213	214	214	212	210	208	204	201	197	194	189	185	182	178	176	173	169	165	164	164	162	160	160	160	160	160	159	158	156	155	153	151	151	151	151	152	153	155	156	157	158	157	156	155	158	160	161	162	164	165	166	165	165	164	164	163	160	156	154	151	149	148	147	146	145	144	145	147	147	147	148	149	148	146	144	144	146	154	156	156	160	166	168	168	164	160	155	149	146	145	142	137	136	136	136	137	140	141	141	141	143	150	159	163	165	168	170	171	169	165	163	164	162	160	162	164	167	167	165	165	162	157	153	152	151	148	141	136	136	138	137	136	135	133	130	128	126	124	123	122	121	121	120	120	122	123	124	126	132	138	141	142	140	137	132	122	119	120	122	123	124	124	125	125	124	121	118	116	114	113	111	110	111	111	112	114	117	119	121	125	127	127	124	120	117	115	113	112	110	105	104	108	111	111	109	108	109	111	112	113	115	116	116	115	115	116	117	118	117	117	116	114	110	101	98	98	99	100	98	95	93	93	93	92	92	92	92	92	92	92	91	89	88	87	87	87	88	89	90	90	90	90	90	89	89	89	89	89	89	90	90	90	90	91	90	89	90	90	90	89	90	90	89	87	82	75	70	68	69	69	71	72	72	72	71	70	70	71	72	72	72	72	72	72	72	72	72	72	72	72	72	72	72	72	72	72	72	72	72	72	72	72	72	73	76	79	82	83	83	83	83	83	83	83	83	83	83	83	84	84	84	84	84	84	84	84	84	83	83	84	84	84	86	88	90	90	90	90	89	89	89	89	90	90	91	92	93	93	93	93	93	93	93	93	93	93	93	93	93	93	93	93	93	93	92	91	91	91	91	92	93	95	98	100	98	94	93	93	93	93	93	93	93	93	93	93	93	93	93	93	93	93	93	93	93	92	92	90	90	90	89	89	89	89	89	89	89	89	89	89	89	89	89	89	90	91	91	91	91	91	91	91	91	91	91	91	91	91	91	92	92	91	91	91	91	91	92	94	103	106	106	102	97	98	101	99	96	96	98	101	102	101	103	103	102	103	103	103	102	102	102	101	102	103	105	106	108	110	112	114	116	118	120	122	123	125	126	127	127	126	125	123	121	119	118	116	116	116	115	114	114	114	114	115	116	114	118	124	123	122	121	118	116	116	115	109	107	108	110	114	117	119	121	122	123	122	117	114	116	121	120	118	119	123	125	125	127	128	128	128	130	131	132	133	133	134	135	136	137	138	140	142	144	145	145	146	147	147	148	150	152	153	153	152	152	152	151	149	149	151	153	156	159	160	162	164	164	163	163	165
345	347	350	352	355	357	361	365	370	373	377	379	382	384	385	387	389	391	393	395	396	397	399	401	404	406	408	410	413	416	418	418	418	418	419	419	419	419	421	422	423	424	424	425	425	424	422	422	421	421	422	422	423	421	418	418	418	419	420	421	422	422	421	419	416	411	408	405	403	401	399	397	394	391	388	386	383	381	378	376	374	372	370	369	368	367	367	366	364	362	359	357	356	357	358	358	357	357	356	355	353	350	347	343	339	336	333	330	329	327	327	326	320	317	315	315	312	307	304	301	294	286	282	278	274	272	270	270	269	269	270	270	270	269	265	264	262	259	256	253	250	248	247	241	240	242	246	249	251	253	255	257	258	260	261	261	261	261	260	259	258	255	251	247	243	240	236	234	233	232	231	231	231	231	230	231	233	234	233	230	226	222	221	218	213	209	206	203	202	203	204	205	205	207	209	210	212	213	212	212	211	210	209	207	205	203	202	200	199	201	206	211	213	215	216	216	215	213	210	207	204	201	198	196	193	190	189	188	186	185	188	192	196	199	202	206	209	212	215	217	218	217	217	217	216	213	211	209	208	208	208	207	206	204	203	202	200	199	197	195	193	190	187	186	188	191	194	194	195	197	200	204	208	211	213	216	218	219	220	220	220	219	216	214	210	204	198	191	187	184	181	179	177	174	174	178	181	185	189	191	194	196	198	199	198	196	196	195	195	196	196	196	196	197	197	196	195	193	190	187	184	182	182	184	186	185	183	183	182	182	185	187	186	185	185	185	185	185	185	184	183	181	181	182	182	182	183	183	183	183	183	183	184	185	186	186	187	188	189	192	195	198	201	203	204	204	205	207	210	211	211	211	212	213	212	212	212	213	212	211	210	208	204	201	197	194	189	184	181	178	176	174	171	168	166	165	163	162	163	163	164	163	161	158	157	155	154	153	152	152	152	152	153	154	156	157	158	158	157	158	160	162	162	163	164	165	166	166	165	164	163	162	159	157	155	152	151	150	148	147	147	147	148	151	152	150	149	150	150	148	147	147	150	157	159	158	160	165	168	167	165	162	156	150	146	145	142	139	138	138	137	137	139	142	143	144	147	154	159	163	165	169	172	172	170	166	165	165	162	158	163	166	168	167	166	166	164	159	155	153	150	146	141	139	138	139	137	136	136	133	131	129	127	126	125	125	124	123	122	124	127	132	132	132	137	142	143	143	140	137	132	123	120	122	125	126	127	128	129	127	126	123	120	117	113	112	112	112	113	113	113	114	116	118	119	123	128	128	125	121	118	115	112	110	108	106	107	113	116	116	113	110	111	113	114	116	117	118	118	117	117	118	119	119	119	118	116	112	105	100	99	100	101	100	97	95	94	93	93	93	93	92	92	93	93	92	91	91	90	90	90	90	90	91	91	91	91	91	90	90	89	89	90	89	89	89	89	89	90	90	89	89	90	90	89	90	90	90	90	87	82	76	71	69	69	69	70	73	75	75	74	72	71	71	72	72	72	72	72	72	72	72	72	72	72	72	72	72	72	72	72	72	72	72	72	72	72	72	72	74	77	80	82	83	83	83	83	83	83	83	83	83	83	83	84	84	84	84	84	84	84	83	83	83	84	84	85	86	87	88	89	90	90	90	89	89	89	89	90	91	91	92	93	93	93	93	93	93	93	93	93	93	93	93	93	93	93	93	93	92	92	91	90	90	90	90	91	93	95	96	95	93	93	93	93	93	93	93	93	93	93	93	93	93	93	93	93	93	93	93	93	93	92	91	90	90	90	90	89	89	89	89	89	89	89	89	89	89	89	89	90	91	91	91	91	91	91	91	91	91	91	91	92	92	92	92	92	91	91	91	92	91	92	97	106	107	106	102	99	100	102	103	99	98	100	109	111	111	111	107	104	104	104	104	103	102	102	102	103	104	105	107	109	111	113	115	117	119	121	123	124	126	127	127	126	125	124	122	120	119	117	117	117	117	117	116	115	115	115	118	119	117	119	121	121	122	122	120	118	117	115	111	109	109	112	115	117	119	120	120	120	120	116	114	115	119	122	118	118	121	124	126	127	128	128	128	128	127	126	128	129	132	134	136	137	137	138	139	140	141	142	143	143	143	144	147	150	152	152	151	150	150	147	146	146	147	149	154	158	158	158	159	161	161	162	164
346	349	352	354	356	359	362	366	370	374	376	379	381	384	385	387	389	390	392	395	398	399	400	402	405	407	409	411	414	416	418	418	419	419	419	419	419	420	421	422	423	423	424	425	426	425	424	425	425	423	422	422	423	423	421	421	421	423	424	424	424	423	422	420	416	412	408	405	403	401	399	396	394	391	388	386	383	381	379	377	375	374	373	371	370	370	370	369	367	365	362	361	360	359	359	359	359	358	357	355	353	350	347	343	340	336	333	331	330	330	330	327	320	317	315	313	309	304	302	299	291	285	282	279	275	273	272	272	273	275	275	274	273	271	268	266	265	263	258	256	254	253	252	246	242	245	249	252	254	257	259	261	262	263	264	264	264	263	262	261	260	257	254	250	245	241	239	238	236	235	234	233	233	233	233	233	234	235	233	231	227	223	221	219	213	209	207	205	205	206	207	207	207	208	210	212	215	215	215	214	213	212	210	209	207	204	203	201	201	203	207	211	214	216	218	218	217	215	212	209	206	204	202	201	198	195	193	192	189	188	189	193	196	199	203	206	209	213	217	224	225	220	219	219	219	216	214	213	212	213	212	211	209	207	206	204	203	202	200	197	194	191	189	190	193	196	198	198	197	198	201	205	209	211	214	217	220	221	222	222	222	221	218	215	210	205	198	192	188	185	183	181	179	176	176	179	184	189	193	195	197	199	201	201	200	199	198	198	198	199	199	198	198	198	198	197	196	193	190	187	185	184	184	186	187	187	186	185	185	183	183	187	187	187	187	187	189	189	189	186	184	184	185	186	187	189	189	188	187	186	185	184	185	186	187	187	188	190	192	193	195	199	202	203	204	204	205	207	210	211	211	211	212	213	213	212	213	213	212	212	210	208	205	201	197	193	187	182	179	178	177	175	172	168	166	165	164	164	166	167	167	165	162	160	158	156	155	154	154	154	153	153	153	155	156	158	159	159	159	160	162	164	164	164	165	166	166	166	166	165	163	161	159	157	156	154	153	152	150	149	150	151	153	157	158	153	151	152	151	150	150	150	154	161	163	163	163	164	166	166	165	163	157	151	147	144	141	140	140	139	139	138	140	142	143	145	149	154	158	163	166	168	171	170	169	167	167	168	167	164	166	167	169	168	166	167	166	161	158	154	148	144	142	141	141	139	138	137	136	135	133	131	129	128	128	128	128	126	124	132	140	140	135	132	139	144	144	143	140	136	130	124	122	123	128	132	134	135	135	131	128	123	120	117	112	111	113	116	116	114	114	115	117	119	120	123	127	127	124	121	119	118	114	109	108	110	112	117	119	119	117	114	115	116	117	119	120	121	122	121	120	121	121	121	120	118	114	107	101	100	100	103	103	98	96	95	94	94	93	93	93	93	93	93	93	91	90	91	92	92	92	92	92	92	91	91	92	91	90	90	90	90	90	89	89	89	89	89	89	89	89	89	89	89	89	90	90	90	90	87	82	76	71	69	69	69	70	74	77	77	76	74	72	72	72	72	72	72	72	72	72	72	72	72	72	72	72	72	72	72	72	72	72	72	72	72	72	72	72	74	78	81	83	83	83	83	83	83	83	83	83	83	83	83	84	83	83	83	83	83	84	84	84	85	85	86	87	88	88	89	90	90	90	90	89	89	89	89	90	91	92	92	93	93	93	93	93	93	93	93	93	93	93	93	93	93	93	93	93	92	91	91	90	90	90	90	90	90	91	92	93	92	92	93	93	93	93	93	93	93	93	93	93	93	93	93	93	93	93	93	93	93	92	91	90	90	90	90	90	90	90	90	90	90	89	89	89	89	89	89	90	91	91	91	91	91	91	92	92	92	91	91	92	92	91	91	91	91	91	91	91	91	92	96	104	106	104	102	103	105	106	104	99	98	100	108	115	116	117	113	107	105	105	105	104	103	103	103	103	105	106	107	109	112	113	116	119	121	123	124	125	126	127	127	126	125	123	121	120	118	118	118	119	119	118	118	117	116	116	120	121	120	120	118	118	120	122	121	120	118	115	112	111	111	115	118	119	119	119	119	119	120	118	117	117	120	123	119	117	118	120	123	127	128	129	130	129	127	124	124	127	132	134	135	137	137	138	138	138	139	140	141	141	142	143	144	146	148	150	149	149	150	148	146	146	146	147	154	158	158	154	153	157	160	161	163
347	350	352	354	357	360	363	367	371	374	377	379	381	383	385	386	388	390	392	396	399	400	401	403	405	407	410	412	414	416	418	418	419	419	419	419	419	419	420	421	422	422	424	425	426	426	425	426	428	427	424	422	423	425	425	424	424	425	426	427	427	425	423	420	417	413	409	406	404	402	400	397	394	391	389	387	384	382	380	379	377	376	375	374	373	372	372	371	370	368	366	364	364	363	361	360	359	358	357	355	353	350	348	344	341	337	335	332	330	330	330	325	319	317	314	312	308	302	299	295	289	286	284	280	278	278	278	279	282	282	281	280	278	275	271	268	267	265	260	256	255	253	251	247	245	248	252	255	258	261	263	265	266	267	267	267	266	265	264	262	262	260	257	252	247	244	242	241	239	238	237	236	236	236	235	235	235	235	234	231	227	223	221	218	213	209	207	206	208	210	210	209	209	210	212	214	217	218	217	216	214	213	212	210	208	206	203	202	203	205	209	212	215	217	219	220	219	217	214	212	209	207	205	204	202	200	198	196	192	189	190	194	197	200	203	206	209	214	218	227	229	225	222	222	221	220	218	217	217	217	216	214	213	211	209	207	205	204	201	198	194	192	191	194	198	201	203	202	200	199	202	206	209	212	215	219	222	223	225	225	224	222	219	216	212	207	200	194	190	187	185	183	181	178	178	182	186	191	195	197	199	202	203	204	203	202	201	200	200	201	201	201	200	199	199	199	197	194	191	188	186	186	186	188	190	190	189	188	187	184	183	186	188	188	188	189	191	192	191	187	185	186	189	190	190	191	191	190	189	187	186	185	186	186	187	188	189	190	192	192	194	198	201	202	204	205	206	207	210	211	210	211	212	212	212	212	213	214	213	213	211	209	205	201	196	191	187	183	180	179	177	175	172	168	166	166	166	168	169	169	169	167	164	161	158	157	157	156	155	155	155	155	155	156	157	158	159	160	161	161	163	164	165	165	166	167	167	167	167	166	164	162	160	158	156	156	155	154	153	153	154	154	156	160	160	156	153	154	153	152	151	152	159	165	167	167	166	165	166	166	166	163	157	152	147	144	142	141	141	140	140	140	140	142	143	145	148	151	157	163	166	168	171	171	170	168	168	168	168	169	170	169	170	169	168	168	166	163	161	158	151	146	143	143	142	140	139	139	139	138	137	135	132	131	131	133	134	133	135	143	147	146	142	139	145	147	146	143	140	135	129	124	124	127	135	139	140	140	139	135	131	124	120	116	112	110	114	118	117	116	114	115	118	122	123	124	126	125	123	122	121	119	116	111	111	113	115	118	120	120	119	117	118	119	119	121	121	121	122	121	120	121	121	121	120	118	113	104	101	101	102	108	108	98	96	95	95	94	94	93	93	93	93	93	93	89	90	92	93	93	94	94	94	93	92	92	92	92	91	90	90	90	90	89	89	90	89	89	89	89	89	90	90	90	90	90	90	90	90	87	82	76	71	70	70	70	71	74	77	77	75	74	73	72	72	72	72	72	72	72	72	72	72	72	72	72	72	72	72	72	72	72	72	72	72	72	72	72	73	75	79	81	83	83	83	83	83	83	83	83	83	83	83	83	84	83	83	83	84	84	85	85	86	87	87	88	88	88	89	89	90	90	90	89	89	89	89	89	90	91	92	93	93	93	93	93	93	93	93	93	93	93	93	93	93	93	93	93	93	92	91	91	90	90	90	90	90	90	90	91	91	91	92	92	92	93	93	93	93	93	93	93	93	93	93	93	93	93	93	93	93	93	92	91	91	91	91	91	91	92	91	91	91	90	90	90	90	90	90	90	91	91	91	91	91	91	91	92	92	92	91	91	92	92	91	91	91	91	91	91	92	92	93	98	105	105	103	104	106	107	108	107	103	101	100	109	117	118	119	118	114	108	106	106	105	104	104	104	104	105	107	108	110	112	114	117	120	123	124	125	126	127	127	127	126	124	123	121	119	119	119	120	120	120	120	119	118	117	118	120	121	121	119	118	118	119	119	120	120	119	117	113	112	112	116	120	120	120	120	121	121	121	123	124	124	125	128	124	121	120	119	122	127	128	130	131	131	131	129	128	129	132	134	136	138	139	139	139	139	140	139	139	140	141	143	143	144	145	147	148	150	152	152	148	146	146	148	155	158	158	153	150	153	157	159	160
349	351	353	355	358	361	364	367	371	374	377	379	381	382	385	386	388	390	392	395	399	401	401	403	406	407	409	411	414	416	417	418	418	419	419	418	418	419	419	420	421	422	423	426	427	426	426	428	430	430	428	424	424	425	427	427	427	428	428	429	429	427	424	421	417	414	410	407	405	402	400	397	395	392	390	388	386	384	382	381	379	378	377	376	376	376	375	373	372	371	369	369	368	366	364	361	360	358	357	355	352	350	348	345	342	339	336	333	329	327	326	322	318	315	312	309	307	301	297	293	289	286	284	282	282	283	284	286	288	287	285	283	282	279	276	271	269	267	261	257	255	253	250	247	248	252	256	259	261	264	267	268	269	270	270	269	269	267	266	265	263	261	257	254	250	247	245	243	242	241	240	239	238	238	238	237	236	235	233	231	227	224	221	218	214	211	209	209	211	212	212	212	212	212	214	216	219	219	219	217	216	214	213	211	209	207	205	204	204	207	211	214	217	219	221	222	221	220	217	215	213	211	209	208	206	205	203	200	196	192	193	197	199	201	204	206	209	214	219	228	231	230	226	225	223	222	221	220	220	220	218	217	215	214	212	210	208	205	202	198	194	192	193	197	201	204	206	205	203	202	203	206	209	213	217	221	223	226	227	227	226	224	221	218	214	209	203	198	193	189	187	184	183	181	181	184	189	195	199	200	202	204	206	206	205	204	203	201	201	202	203	203	202	201	200	199	197	194	190	189	189	189	189	193	196	194	191	189	188	189	189	189	190	190	190	191	192	193	192	190	189	190	192	192	191	191	191	191	190	188	187	186	186	187	188	188	189	190	191	192	194	198	200	200	202	206	207	208	210	211	212	212	212	210	210	211	213	214	214	214	212	208	204	200	195	190	188	185	183	181	178	176	173	170	169	169	170	172	172	171	170	168	165	162	158	158	158	158	157	157	157	157	156	156	157	158	160	161	162	163	164	165	166	167	170	171	170	168	167	167	166	163	161	159	158	157	156	156	158	160	159	158	159	161	161	159	157	157	157	155	152	155	162	167	168	167	167	168	169	168	166	162	156	152	149	145	143	143	142	141	140	140	141	142	143	145	147	150	155	160	163	168	173	173	172	170	170	170	170	171	172	171	170	170	170	169	166	163	162	160	155	149	145	144	143	141	141	142	144	144	142	138	135	134	135	137	139	143	146	150	153	152	152	151	150	149	147	144	140	136	130	126	126	132	139	141	142	141	140	137	131	124	120	117	113	112	114	118	121	121	115	117	122	126	127	126	126	125	124	123	121	118	116	113	112	114	116	119	120	120	119	117	117	117	117	117	117	117	117	117	117	118	119	119	118	117	110	103	102	103	106	110	108	99	97	96	95	94	94	93	93	93	93	93	91	88	92	94	94	94	95	96	95	95	94	93	93	93	91	90	90	90	90	90	89	90	90	90	89	89	89	90	90	90	90	90	90	90	89	86	81	76	72	71	70	70	71	73	74	75	74	73	73	73	72	72	72	72	72	72	72	72	72	72	72	72	72	72	72	72	72	72	72	72	72	72	72	73	75	77	79	81	82	84	84	83	83	83	83	83	83	83	84	84	85	84	85	85	85	86	87	88	88	88	88	88	88	88	89	89	89	89	89	89	89	89	89	89	90	91	92	93	93	93	93	93	93	93	93	93	93	93	93	93	93	93	93	93	92	92	91	91	90	90	90	90	90	90	90	90	90	90	91	91	92	93	93	93	93	93	93	93	93	93	93	93	93	93	93	93	93	93	93	92	91	91	91	91	92	93	93	92	92	91	91	91	91	91	91	91	91	91	91	91	91	91	91	91	92	92	91	91	91	91	91	91	91	91	91	92	94	95	98	104	106	106	106	108	110	110	110	111	110	107	107	114	118	119	119	118	115	109	107	107	106	105	104	104	105	106	108	109	111	113	115	118	121	124	125	126	127	127	127	127	126	124	122	121	120	120	121	121	122	121	121	120	119	118	118	120	121	121	120	119	118	119	119	118	118	119	117	115	114	115	118	121	120	119	121	123	123	122	124	126	126	126	131	132	130	128	126	126	127	128	130	132	132	132	133	133	134	133	134	136	139	140	140	140	141	139	136	134	135	139	141	142	143	144	146	147	150	153	153	151	150	150	151	156	159	158	152	150	150	152	154	155
350	352	355	357	359	362	364	368	372	374	377	380	381	383	385	387	388	390	392	395	398	400	401	404	407	408	409	411	413	415	417	417	418	418	418	418	417	418	418	419	420	421	422	425	426	426	427	429	431	432	432	428	425	425	427	430	431	431	431	431	431	428	425	422	418	415	411	408	405	403	400	398	395	394	392	390	388	386	384	383	382	380	379	379	379	379	378	376	374	373	372	372	370	368	366	362	360	358	357	354	351	349	347	345	343	340	337	333	328	326	324	320	317	313	309	308	306	301	297	294	291	288	285	284	285	285	286	290	292	291	289	287	285	283	281	276	270	268	264	259	256	253	251	249	251	255	259	261	264	267	270	272	273	273	273	272	271	269	268	266	264	261	258	255	253	250	248	247	245	244	243	242	241	240	239	238	237	235	233	231	227	223	221	218	215	213	212	212	213	215	215	215	215	215	216	217	220	221	221	219	218	216	214	213	210	209	207	205	206	210	214	217	219	221	223	224	223	222	220	218	217	215	213	211	209	207	206	203	199	196	198	200	202	204	205	206	209	214	220	229	233	235	233	229	226	224	223	223	223	222	221	220	218	217	215	213	211	208	203	199	195	194	195	200	205	207	208	208	207	206	205	207	210	215	219	222	225	228	230	230	229	226	223	221	217	212	206	202	197	192	189	186	185	185	185	187	192	199	202	203	205	207	209	209	208	206	205	203	202	204	205	205	205	204	202	199	197	194	191	191	192	192	194	196	198	196	192	191	189	195	197	194	192	193	193	192	192	193	193	193	193	194	195	193	192	192	192	192	190	189	188	188	188	188	189	189	189	190	191	193	195	198	200	201	203	207	208	210	212	213	214	214	213	210	210	211	213	214	215	214	212	208	203	198	193	190	189	187	185	183	180	177	175	173	172	172	173	174	173	172	171	169	166	163	159	157	157	157	158	158	157	157	157	157	157	159	161	162	164	165	165	166	168	169	172	174	172	170	168	168	167	165	162	161	159	158	157	157	159	163	164	164	164	164	164	164	162	162	162	159	156	156	164	168	168	167	168	172	171	168	166	162	158	154	151	148	147	146	144	142	140	141	143	144	145	146	149	151	155	158	160	169	176	176	177	177	177	173	172	172	172	172	171	171	172	170	167	163	161	160	157	151	145	144	144	143	143	146	149	148	145	141	137	137	137	141	148	152	154	155	156	157	158	156	153	150	148	146	143	139	134	129	130	136	139	142	143	143	141	137	130	124	121	118	115	114	115	121	126	127	122	123	128	130	129	127	126	126	125	123	118	115	114	113	113	113	115	119	119	118	116	115	114	114	114	114	114	114	114	114	114	114	115	114	112	110	106	103	104	107	110	110	107	100	99	98	96	94	93	93	93	93	94	93	89	88	93	94	94	94	95	97	97	97	97	97	95	94	91	90	90	90	90	90	89	90	90	90	89	89	90	90	90	90	90	90	90	90	88	86	81	76	73	71	71	70	70	72	73	74	73	73	73	73	73	72	72	72	72	72	72	72	72	72	73	73	73	72	72	72	72	72	72	72	72	72	72	74	76	78	80	81	83	84	84	84	84	84	84	84	84	84	85	86	86	86	87	87	88	88	88	88	88	88	88	88	88	88	89	89	89	89	89	89	89	89	89	89	90	91	92	93	93	93	93	93	93	93	93	93	93	93	93	93	93	93	93	93	92	92	91	91	90	90	90	90	90	90	90	90	90	90	90	91	91	92	92	93	93	93	93	93	93	93	93	93	93	93	93	93	93	93	93	92	91	91	91	91	92	92	92	92	92	92	91	91	91	92	92	92	92	92	92	92	91	91	91	91	92	92	92	92	92	91	91	91	91	91	91	96	101	102	104	105	106	107	108	112	114	112	112	113	113	113	113	115	116	119	117	114	110	107	108	108	107	106	105	105	106	107	109	111	113	114	116	119	121	123	125	127	128	128	127	127	125	124	122	121	120	121	122	123	123	123	122	121	119	118	118	119	120	121	122	120	119	124	126	122	118	118	117	116	116	117	120	120	119	119	121	124	124	122	122	123	123	124	128	130	132	134	130	125	125	128	129	131	132	132	133	134	134	134	135	137	139	141	141	141	141	138	135	132	132	135	138	141	143	143	144	146	149	152	150	149	152	155	155	157	158	157	152	151	151	152	153	154
351	354	357	359	361	362	365	369	373	375	378	380	382	384	386	387	389	391	394	396	398	400	402	406	409	409	409	411	413	415	416	417	418	418	418	416	416	416	417	418	419	420	421	423	425	426	427	429	431	433	434	432	429	425	426	431	434	434	434	434	432	430	426	423	419	416	412	409	406	404	402	399	396	395	393	391	389	388	386	385	384	383	382	381	381	382	381	379	377	376	375	374	372	369	366	363	360	358	357	354	351	348	346	344	341	339	336	332	327	324	323	320	316	313	309	307	307	303	299	296	293	291	289	288	288	289	291	293	294	294	293	290	287	284	282	278	272	268	264	261	258	255	253	252	254	258	262	265	268	271	274	275	276	276	275	275	273	271	269	267	265	263	260	257	255	254	251	250	249	249	247	245	243	242	241	239	237	234	233	231	228	224	221	219	217	216	215	215	216	217	218	219	219	218	217	218	221	223	223	222	221	218	216	214	212	211	209	207	208	212	216	219	222	224	225	226	226	225	223	222	220	219	216	214	212	210	209	206	202	199	200	202	205	206	207	207	209	214	221	229	234	238	237	235	231	228	225	226	227	225	224	224	222	220	218	216	214	211	206	201	198	196	197	203	208	211	213	213	212	209	208	209	212	217	221	224	227	230	232	232	231	229	225	223	220	215	210	206	201	196	192	190	189	188	188	189	194	200	203	205	207	210	212	212	211	209	207	206	205	205	207	207	207	205	203	199	197	195	194	195	196	197	197	198	199	198	193	193	195	200	200	196	194	194	195	193	193	194	195	196	196	197	197	196	193	192	192	192	191	190	189	189	189	190	190	190	191	191	192	193	195	198	201	204	207	209	210	212	215	216	216	215	214	212	212	212	213	214	214	213	211	208	203	198	193	191	190	189	187	185	182	179	177	175	174	174	176	176	173	171	171	170	167	164	159	156	156	157	158	157	157	157	157	157	158	160	163	164	165	166	166	168	169	169	171	173	172	171	171	169	168	166	164	162	161	160	159	158	160	165	167	168	168	166	165	165	166	167	167	162	158	159	167	169	168	167	170	173	170	167	166	164	161	159	155	152	150	149	146	144	142	143	144	146	147	148	151	153	156	159	161	173	181	181	182	184	183	179	178	177	176	174	172	172	171	170	167	164	162	158	155	151	146	145	145	148	149	150	151	149	147	145	142	141	146	153	159	160	158	159	160	162	162	160	156	153	151	148	145	141	135	131	135	138	139	141	143	144	142	137	131	125	122	119	116	116	119	126	131	132	133	132	131	130	129	128	127	126	125	120	115	113	113	113	113	113	114	116	117	115	114	113	113	113	113	112	112	113	112	112	113	113	113	109	106	106	105	104	107	111	111	111	108	102	99	97	95	94	93	93	93	94	94	92	89	91	94	94	94	94	95	96	97	98	99	102	103	100	92	90	90	90	90	90	90	90	90	90	89	90	90	90	90	90	90	90	90	89	88	85	81	76	73	72	71	71	70	71	72	73	73	73	73	74	74	73	72	73	73	73	72	72	72	73	75	75	75	74	73	73	73	73	73	73	73	73	73	75	77	79	80	82	83	84	85	85	85	85	86	86	86	86	87	88	88	88	88	88	88	88	88	88	88	88	88	88	88	88	88	89	89	90	89	89	89	89	89	89	90	91	92	93	93	93	93	93	93	93	93	93	93	93	93	93	93	93	93	93	92	91	91	90	90	90	90	90	90	90	91	91	90	90	90	90	91	91	91	91	92	92	92	93	93	93	93	93	93	93	93	93	93	93	93	92	92	92	92	92	92	92	92	91	91	91	91	92	92	92	92	92	92	92	92	92	92	91	91	91	92	92	92	92	92	92	91	91	91	91	92	97	105	106	106	106	107	108	109	117	118	114	115	115	115	115	116	115	113	114	112	111	107	106	110	110	109	108	106	106	107	109	110	112	114	116	118	120	122	124	126	128	128	128	128	127	126	124	122	121	121	122	123	124	124	124	123	121	120	119	119	119	120	122	123	122	122	127	132	128	120	118	118	118	118	119	120	120	120	122	123	124	124	123	122	122	121	121	123	126	132	133	126	124	125	127	126	128	129	129	130	130	131	132	134	137	140	141	141	142	142	140	138	133	132	133	135	139	141	141	143	145	148	149	145	145	147	149	152	154	155	154	151	151	152	152	153	155
352	355	358	361	363	364	366	370	373	376	378	381	383	385	387	388	390	393	396	397	398	401	405	409	410	409	410	411	413	415	416	417	418	418	417	415	414	415	416	418	419	420	421	422	423	424	426	428	431	433	434	433	431	427	426	429	435	436	436	435	433	430	427	424	420	416	413	410	407	405	403	400	398	396	394	392	391	389	388	388	387	386	385	384	384	384	384	382	380	378	377	376	373	369	367	363	361	359	357	354	350	347	345	343	340	337	336	332	326	324	323	320	316	314	311	308	307	304	301	299	297	294	293	292	293	294	296	297	297	296	294	291	288	285	282	278	274	268	264	261	258	256	255	255	257	261	264	268	272	274	276	277	278	278	278	277	276	273	271	269	267	265	262	260	258	257	254	252	252	251	251	248	246	245	243	241	238	234	232	231	228	226	223	221	219	218	217	217	218	219	220	221	221	220	219	220	222	224	225	224	223	220	217	215	213	212	211	210	210	214	217	221	224	227	228	229	229	228	227	225	223	222	220	217	215	214	212	209	206	203	202	204	207	209	210	210	212	215	220	228	234	238	240	239	237	234	230	229	229	228	227	227	225	223	221	219	217	214	209	204	202	199	200	205	211	214	216	217	216	213	210	210	213	218	223	226	228	231	232	233	233	231	228	225	222	218	214	210	206	200	195	193	192	191	190	191	196	202	205	207	209	212	213	214	213	211	209	208	207	207	208	208	208	207	204	200	197	196	197	198	199	199	199	199	199	197	195	197	200	202	201	198	195	196	196	196	195	196	197	198	199	199	199	197	195	193	192	193	192	190	190	190	191	191	192	192	192	193	193	194	195	198	203	207	210	211	213	215	217	218	217	216	215	214	213	213	213	213	214	213	211	208	204	200	196	194	192	191	189	187	184	181	180	179	178	177	177	177	174	171	171	170	167	164	160	157	157	158	158	157	157	158	159	159	159	162	165	165	166	167	168	169	170	171	172	173	173	173	173	171	170	168	166	164	164	163	162	161	164	169	170	170	169	167	165	166	166	168	170	166	160	161	169	170	169	168	172	173	172	169	167	167	165	163	159	155	152	150	148	146	145	145	146	148	150	151	152	154	156	159	161	171	180	182	183	185	184	183	182	182	180	176	174	173	171	170	168	165	162	157	153	151	147	146	149	153	156	155	153	151	150	151	151	152	158	162	163	162	161	162	164	166	165	163	160	157	154	150	145	140	135	132	135	140	141	143	145	144	140	136	132	127	123	120	119	119	123	130	134	136	138	139	135	130	129	129	128	126	122	117	113	113	113	113	113	113	113	114	115	114	113	113	112	112	112	112	112	112	112	113	113	112	111	108	106	105	105	106	111	113	111	110	109	103	98	95	94	93	93	93	93	93	93	92	92	93	94	94	94	94	94	95	96	98	100	104	106	105	96	90	90	90	90	89	90	90	90	90	90	90	90	90	90	89	89	90	90	90	88	85	80	76	74	72	72	71	71	71	72	73	73	73	74	74	74	75	76	78	79	78	78	76	76	77	79	79	79	77	76	75	75	75	75	75	75	75	76	77	79	81	82	83	84	85	85	86	86	86	87	88	88	88	88	88	88	88	88	88	88	88	88	88	88	88	88	88	88	88	88	89	89	89	89	89	89	89	89	89	90	90	91	92	93	93	93	93	93	93	93	93	93	93	93	93	93	93	93	93	92	91	90	90	91	91	91	91	91	91	91	91	91	90	90	90	90	90	90	90	90	90	91	92	92	92	93	93	93	93	93	92	92	92	92	92	93	94	93	92	92	92	92	92	92	91	91	92	92	92	92	92	92	92	92	92	92	92	92	92	92	92	92	92	92	92	91	91	92	92	92	96	104	107	106	107	109	109	110	115	117	116	117	117	117	117	118	118	117	115	113	111	107	109	118	119	118	115	109	108	108	110	112	114	116	118	119	121	123	125	127	129	129	129	128	127	126	124	123	122	122	123	124	125	125	124	123	122	120	120	120	120	121	122	122	122	123	124	127	126	121	120	119	119	119	120	121	122	123	125	126	127	128	130	134	134	127	128	131	132	134	134	132	130	126	127	128	129	129	129	128	129	129	130	133	137	140	141	141	143	145	145	143	141	135	133	134	138	141	143	146	148	150	150	145	144	145	146	150	152	151	151	150	151	152	153	155	156
354	357	360	363	365	366	367	371	374	376	379	382	384	386	388	389	392	395	397	398	400	403	407	410	410	408	409	411	413	415	416	417	417	417	415	413	413	415	417	418	419	420	421	421	422	424	426	428	430	433	434	434	433	430	427	428	435	438	437	436	435	432	428	425	421	418	415	412	408	406	404	402	400	398	396	394	393	391	391	391	390	389	388	388	388	388	387	384	382	379	377	375	372	368	365	363	361	358	355	352	350	347	344	343	339	336	335	332	327	325	324	323	319	316	313	310	308	305	304	304	303	299	297	296	296	299	301	300	299	298	296	293	291	287	283	279	275	270	265	262	259	258	257	257	260	263	267	272	275	277	279	280	281	281	281	280	278	276	274	271	269	267	265	263	261	259	256	255	254	253	252	251	248	247	245	244	241	235	233	232	230	229	227	223	221	220	219	219	221	222	223	223	222	221	221	222	224	225	226	225	224	221	219	216	214	213	213	212	212	215	219	223	226	229	231	231	231	231	230	228	226	224	222	220	218	217	216	214	211	208	206	206	209	212	214	214	215	217	219	225	231	235	239	242	242	240	237	234	233	231	230	229	228	226	224	222	219	216	212	209	206	202	203	208	213	217	219	219	217	215	212	212	214	219	224	228	229	231	234	235	236	234	231	228	224	220	217	214	210	205	199	197	196	194	192	193	198	202	206	208	211	213	215	215	214	213	211	210	210	209	210	210	210	208	205	200	198	198	200	201	202	201	201	200	200	199	199	202	203	203	203	200	198	197	198	198	197	197	198	200	201	200	199	198	196	193	192	193	192	191	190	191	192	192	193	193	194	194	194	194	196	200	205	209	212	214	215	216	218	219	217	216	216	215	214	214	214	214	214	214	213	210	205	202	200	196	194	192	191	189	186	184	183	183	181	180	179	177	174	172	171	170	167	164	160	158	158	159	159	158	158	160	160	159	160	163	166	167	168	169	169	170	172	173	174	175	175	175	174	173	171	169	168	166	166	166	165	164	166	171	173	171	169	167	165	165	167	169	173	168	161	162	169	171	171	171	173	174	176	175	172	169	167	165	163	161	157	152	150	149	148	147	148	150	152	153	153	154	155	158	162	169	176	182	183	184	184	183	183	185	183	179	176	175	174	172	169	167	162	155	151	150	149	150	154	158	162	162	159	157	154	155	157	162	163	164	165	165	165	166	168	169	168	166	164	160	156	151	146	142	138	135	136	142	145	147	148	147	142	137	134	130	125	122	123	124	126	132	136	138	140	140	138	133	132	131	129	125	119	114	113	113	113	113	113	113	113	113	113	113	113	112	112	112	112	112	112	112	112	113	113	111	109	107	106	106	106	112	116	113	111	111	107	100	96	94	94	93	93	93	93	93	93	93	93	94	94	94	94	94	94	94	94	96	99	103	106	105	98	90	90	90	89	90	90	90	90	90	91	91	90	90	90	90	90	90	90	89	88	84	79	76	74	73	73	72	72	72	73	73	73	74	74	75	75	78	82	85	85	85	84	83	83	83	83	83	82	80	79	78	78	78	78	78	78	79	79	80	81	82	84	85	85	86	87	87	87	88	88	88	88	88	88	88	88	88	88	88	88	88	88	88	88	88	88	88	88	88	88	89	89	89	89	89	89	89	89	89	89	90	90	91	93	93	93	93	93	93	93	93	93	93	93	93	93	93	93	93	92	91	91	92	92	92	93	93	92	92	92	92	91	90	90	90	90	90	90	90	90	90	91	91	92	92	93	93	93	93	93	92	92	92	92	94	99	100	97	94	93	93	93	93	92	92	92	92	92	92	92	92	92	92	92	92	92	92	92	92	92	92	91	92	92	92	91	92	92	92	93	95	103	105	106	108	110	110	110	112	116	118	118	118	118	119	119	119	120	120	116	111	108	113	121	122	122	119	110	109	110	111	113	115	117	119	121	122	124	127	128	130	130	130	129	128	126	125	123	123	123	124	125	126	126	125	124	122	121	121	121	121	121	122	122	123	123	123	124	123	122	122	124	124	122	122	123	125	128	128	127	129	135	139	142	143	142	141	143	143	141	138	136	136	133	132	134	131	130	130	130	130	130	130	132	137	139	140	141	143	147	147	147	148	142	134	134	136	143	148	151	152	152	152	148	145	145	146	148	150	150	151	151	151	152	155	156	156
357	359	361	365	368	368	369	372	375	377	379	382	385	387	389	391	393	396	398	399	402	405	408	409	409	407	408	410	412	414	416	417	416	415	412	410	412	415	417	418	419	420	420	421	422	424	426	428	430	431	433	433	433	432	429	428	431	437	438	438	437	434	429	425	422	418	416	413	410	407	405	403	401	400	398	397	395	394	394	394	393	392	392	392	391	390	389	385	382	379	376	373	370	365	363	361	360	356	352	350	350	349	346	342	338	335	335	333	329	327	327	326	323	319	316	313	310	309	309	311	309	305	301	300	300	302	304	304	303	300	297	295	294	289	284	280	276	272	269	263	259	259	259	260	263	267	272	275	278	280	282	283	283	283	283	282	281	279	276	273	271	269	268	266	264	262	259	258	256	255	254	253	250	247	246	245	242	236	234	233	232	231	230	227	224	222	221	222	223	224	225	225	224	223	222	223	225	227	227	226	225	223	221	217	215	215	214	214	213	216	221	223	226	230	232	233	234	234	233	232	230	227	225	224	222	220	219	217	214	212	209	209	212	216	217	218	218	218	219	223	229	232	236	241	244	244	242	240	240	237	234	232	230	228	227	225	222	219	216	212	208	204	206	210	215	219	221	221	220	218	216	216	218	221	225	229	230	232	236	238	237	236	233	230	227	223	220	217	215	210	204	201	199	197	196	197	201	204	207	209	212	215	217	217	216	215	214	213	213	212	212	212	211	209	206	202	200	201	203	204	204	203	202	201	200	200	201	203	204	204	204	202	199	198	198	198	198	198	199	201	201	201	200	199	197	194	193	193	193	192	191	192	193	193	194	194	195	195	195	195	198	201	207	212	214	215	216	217	219	219	218	217	217	216	215	214	215	215	215	216	216	212	207	204	202	199	196	194	192	190	188	187	187	186	184	182	180	178	175	173	172	170	167	164	160	158	159	160	160	159	159	160	160	159	160	164	167	169	170	170	171	172	174	175	176	176	176	176	175	174	172	171	169	168	168	168	168	166	167	174	176	173	170	167	164	165	167	169	173	168	161	162	169	172	174	176	177	179	180	179	177	172	168	166	166	165	160	154	153	152	151	150	151	153	155	155	155	155	155	159	163	169	177	181	182	184	185	184	185	187	185	181	179	178	177	174	170	167	161	154	152	152	153	156	159	161	167	168	166	162	159	159	162	165	165	166	168	168	168	169	171	172	171	170	168	164	158	153	150	146	143	138	138	146	148	151	152	150	146	140	136	133	129	126	125	127	128	133	137	141	142	141	138	135	134	133	129	122	116	113	113	113	113	113	113	113	113	113	113	113	113	112	112	112	112	112	112	113	113	113	112	110	108	107	107	107	109	115	116	113	113	112	107	97	94	94	94	94	93	93	93	94	94	94	94	94	94	94	94	94	94	94	94	95	100	103	104	100	93	90	90	91	90	90	92	91	91	92	93	92	92	93	94	91	91	90	90	88	87	84	78	77	75	73	73	73	73	73	73	73	74	74	74	75	78	82	84	87	87	86	86	85	85	85	85	85	84	82	81	80	80	80	81	81	81	82	82	83	83	84	85	86	87	87	88	88	88	88	88	88	88	88	88	88	88	88	88	88	88	88	88	88	88	88	88	88	88	88	88	88	89	89	90	89	89	89	89	89	89	90	90	91	92	93	93	93	93	93	93	93	93	93	93	93	93	93	93	93	93	93	94	94	94	94	94	94	94	93	93	93	92	92	91	91	91	91	91	91	91	91	91	92	93	93	94	94	94	95	93	93	92	92	93	98	102	101	96	93	93	93	93	93	93	92	93	93	92	91	91	91	92	92	92	92	92	92	92	92	92	92	92	92	92	91	91	92	92	93	94	96	101	103	106	109	111	111	110	112	116	118	118	118	118	119	119	119	121	121	116	110	108	112	121	122	122	119	111	110	111	112	114	116	118	121	123	124	126	128	130	131	131	131	130	129	127	126	124	124	124	125	126	127	127	126	124	122	122	121	121	121	121	122	123	124	125	126	125	123	122	125	131	132	127	125	126	128	133	132	130	132	139	143	145	146	147	146	146	146	147	143	139	140	142	141	137	131	130	133	134	132	130	131	132	135	139	141	141	143	146	147	147	147	143	137	134	136	144	148	150	151	152	151	146	145	146	146	147	148	149	151	152	150	151	155	156	156
361	362	363	367	370	371	372	374	377	378	380	383	385	387	390	392	395	398	399	401	404	406	408	408	408	407	407	408	410	413	416	416	416	413	410	410	412	414	416	418	418	419	420	421	422	424	426	428	430	431	432	433	434	433	432	429	429	434	438	438	438	434	430	426	422	419	417	414	411	409	407	405	403	402	401	400	397	396	396	397	396	395	395	395	395	392	389	384	381	378	375	372	368	364	362	361	361	358	353	351	351	351	348	343	337	335	335	335	334	333	331	329	326	323	319	316	313	312	312	313	312	308	306	305	305	307	309	310	307	302	299	297	296	293	287	282	278	275	275	271	261	260	261	264	267	272	276	279	281	283	285	286	286	286	285	284	283	282	279	276	273	271	269	268	267	265	263	261	259	257	256	254	252	249	246	245	242	238	235	235	233	232	231	229	225	224	223	225	226	227	227	227	226	224	223	224	226	228	229	228	227	225	223	219	217	217	216	215	215	218	222	224	227	231	233	235	236	236	235	234	233	231	229	227	226	224	222	220	217	215	213	212	216	219	221	221	221	220	221	223	227	231	234	239	245	246	245	244	244	241	237	235	233	231	229	227	224	221	218	214	209	207	210	214	217	221	224	224	223	222	221	221	222	223	226	229	231	233	237	239	239	238	236	232	229	226	224	221	219	214	210	206	203	201	199	201	205	208	209	212	215	218	219	220	220	218	217	217	216	216	215	214	211	208	206	205	204	205	206	206	206	205	203	202	201	200	200	202	203	203	203	201	200	199	199	199	199	199	200	202	202	201	199	199	198	196	195	194	194	193	193	194	194	194	195	195	196	196	196	197	199	201	207	213	215	216	217	218	219	219	219	219	218	217	216	216	216	217	217	218	218	215	210	206	205	203	200	197	195	194	192	191	190	190	187	184	181	179	176	175	174	171	168	164	161	159	160	161	161	161	160	161	160	160	161	165	168	170	171	172	172	174	175	177	178	178	178	177	177	175	173	172	171	171	171	171	171	170	172	177	176	173	170	166	166	168	168	168	170	169	163	162	169	174	177	180	182	183	183	183	180	174	169	166	165	164	159	156	155	154	152	151	153	156	157	158	158	158	158	161	163	167	175	181	182	185	187	187	188	187	185	183	181	181	180	176	170	165	158	155	154	155	159	162	163	165	170	171	172	169	166	165	165	166	167	169	170	171	173	174	174	174	173	170	169	168	163	158	154	149	144	139	141	148	152	155	155	153	149	142	138	135	132	131	130	132	133	135	139	143	144	142	138	134	133	131	126	118	114	113	113	113	113	113	113	113	113	113	113	113	112	112	112	112	112	112	113	113	113	112	111	109	108	108	108	109	114	116	115	113	113	112	106	96	94	93	93	93	93	93	93	93	94	94	94	94	94	94	94	94	94	94	94	96	102	104	102	99	95	92	92	94	93	94	95	94	95	98	97	96	99	100	100	96	93	90	90	88	86	86	83	83	81	75	74	74	73	73	73	73	74	74	75	76	78	81	84	87	87	87	86	85	84	84	84	83	83	82	82	82	82	82	83	83	83	84	84	84	85	85	86	87	88	88	88	88	88	88	88	88	88	88	88	88	88	88	88	88	88	88	88	88	88	88	88	88	88	88	88	88	89	89	90	90	90	90	90	90	90	90	91	92	93	93	93	93	93	93	93	93	93	93	93	93	93	93	93	93	94	96	96	96	96	95	95	95	95	94	94	94	93	93	92	92	92	92	92	92	92	92	92	93	94	94	95	94	94	94	93	93	93	95	98	102	103	96	93	92	93	93	93	93	93	93	93	94	93	92	92	92	92	92	92	92	92	92	92	92	92	92	92	92	92	92	92	92	93	94	97	100	102	104	107	111	113	112	112	114	117	118	118	118	118	118	118	119	121	120	116	112	111	113	118	121	119	114	112	112	112	114	115	118	120	122	124	126	128	130	131	132	132	132	131	130	128	126	125	125	125	126	127	127	127	126	124	123	122	122	122	121	122	123	124	126	127	128	127	124	124	129	132	133	131	128	128	130	133	133	133	135	141	146	147	149	150	149	148	148	149	147	143	143	143	144	141	134	133	135	137	136	133	134	135	137	140	141	142	143	145	145	144	143	142	140	137	139	145	146	144	143	144	145	145	146	147	147	147	148	149	151	152	150	151	153	153	157
