143	147	150	152	155	158	161	163	165	168	171	174	177	178	180	181	181	182	184	187	188	190	193	195	196	198	199	200	200	200	200	200	200	201	203	204	205	206	207	207	208	210	213	215	217	219	221	223	223	225	227	229	230	230	232	234	236	238	238	239	240	242	243	244	244	246	248	250	253	255	257	258	260	263	265	269	271	274	276	278	280	283	285	288	290	292	295	298	300	302	306	309	311	314	317	321	325	328	331	335	338	340	343	346	349	352	354	356	360	363	365	368	372	376	380	385	388	390	394	397	399	402	406	409	412	414	415	418	423	427	429	431	434	437	439	442	444	447	450	453	455	457	459	461	463	465	467	470	472	474	475	476	477	478	479	479	480	481	483	485	487	489	491	494	496	499	502	505	508	511	513	516	519	522	525	528	531	535	539	542	546	550	554	556	557	558	557	556	554	552	549	547	544	541	539	535	532	529	526	523	519	516	511	507	503	499	496	492	488	485	483	480	478	476	475	473	470	466	464	462	458	455	453	450	448	445	442	440	437	436	434	431	428	426	423	421	420	417	415	413	411	409	407	404	402	401	398	396	394	392	391	391	390	388	384	381	378	377	376	374	371	370	371	371	369	367	366	365	365	365	366	365	364	360	356	352	349	346	342	338	336	334	332	330	327	325	322	322	324	323	323	323	322	320	319	319	319	316	314	311	309	305	303	301	299	297	294	294	293	291	288	286	285	283	282	282	282	282	280	278	277	276	275	273	272	271	270	268	267	265	263	261	259	257	254	251	250	249	247	246	244	242	239	237	235	232	229	227	226	225	223	222	219	217	216	215	213	210	208	207	208	205	202	201	201	202	203	203	202	200	197	194	192	190	188	186	183	181	179	176	173	173	177	185	188	189	191	193	194	195	195	196	196	194	192	189	188	188	188	186	184	182	182	182	183	183	182	181	181	181	180	177	175	174	173	174	174	173	170	169	169	169	169	170	172	171	170	171	172	173	174	176	177	177	179	182	183	184	184	185	187	189	190	191	192	194	195	196	198	200	202	204	207	209	212	213	214	216	217	219	219	219	219	220	220	220	221	223	225	227	227	228	228	229	231	233	234	234	236	238	239	240	242	243	244	245	245	245	243	243	243	244	246	249	250	250	249	251	254	255	255	255	256	258	259	261	264	267	270	271	273	276	278	279	280	280	279	279	279	280	279	278	277	278	279	280	281	282	282	283	283	282	279	277	277	278	279	282	285	287	290	292	294	296	297	299	299	300	300	300	298	297	298	300	303	306	309	312	315	318	320	322	324	325	326	326	327	327	327	327	326	326	325	324	321	318	315	313	311	310	308	307	305	303	299	295	291	288	284	281	279	277	276	276	276	275	274	272	271	269	265	264	262	260	259	256	255	254	254	253	252	251	249	249	249	250	251	251	250	249	247	245	243	242	241	241	241	243	247	247	243	238	236	235	235	234	232	232	233	233	233	232	232	231	230	231	231	231	231	231	231	230	229	229	229	229	230	231	231	232	233	231	228	225	224	224	224	223	223	221	217	210	204	202	202	202	201	200	199	199	198	197	196	196	196	195	192	190	189	189	189	188	187	184	183	183	184	185	182	182	183	188	196	200	202	205	208	211	212	214	217	219	219	219	218	218	218	218	219	219	220	227	238	242	244	247	249	250	251	253	255	256	257	257	258	259	260	261	261	261	260	258	258	258	258	258	257	257	257	257	255	255	254	254	253	253	253	255	256	256	255	254	253	253	253	254	253	252	251	249	247	245	245	247	249	250	248	248	249	254	259	261	262	264	264	263	262	263	265	266	266	265	265	264	263	262	260	258	257	255	252	249	248	248	248	248	248	247	246	246	245	245	244	242	240	238	236	234	232	231	229	226	223	221	221	220	219	216	215
146	149	151	153	156	159	162	164	166	170	173	176	178	180	181	183	184	186	187	189	191	193	195	197	198	199	200	202	202	203	203	202	202	203	204	205	207	208	208	208	208	210	214	216	218	220	222	224	224	225	228	230	230	231	232	234	237	238	239	240	241	243	244	244	245	247	250	253	255	257	258	259	262	264	267	270	273	275	278	280	282	284	287	289	291	294	298	300	302	304	307	310	313	316	319	323	327	330	333	336	340	342	344	347	350	353	355	358	360	364	367	369	372	375	378	382	386	388	391	395	398	401	404	408	410	412	414	418	424	428	430	431	433	436	438	441	443	446	449	452	454	456	458	460	462	465	467	469	471	472	473	474	475	476	477	478	479	481	483	485	486	488	491	493	496	500	502	505	508	511	513	515	518	522	525	528	531	535	539	542	546	549	553	555	556	557	556	555	553	552	549	546	543	540	538	534	531	528	525	522	518	515	511	507	502	498	494	490	486	483	481	478	475	474	472	471	468	465	464	461	457	454	452	450	447	443	440	438	436	435	432	430	428	425	422	420	417	415	413	412	410	408	405	403	402	400	398	395	392	390	388	388	388	385	383	380	378	376	375	373	371	369	369	369	368	366	365	363	362	362	364	364	362	359	356	352	349	345	341	338	336	334	331	329	327	325	323	324	326	326	325	325	324	322	320	320	320	318	315	313	311	307	304	302	300	298	295	294	294	292	290	289	288	286	284	283	283	282	281	279	278	277	275	273	272	271	270	268	266	264	261	259	258	256	253	249	248	247	246	244	243	242	240	237	234	231	228	226	225	224	224	222	220	217	216	215	213	211	209	210	211	210	207	205	204	204	204	204	203	200	197	194	192	190	188	185	183	182	180	176	173	173	177	184	187	189	189	190	192	193	194	194	194	194	192	189	187	187	187	185	183	182	182	181	181	181	180	180	179	179	177	176	175	173	171	172	173	171	168	170	171	170	171	173	174	173	171	171	172	173	174	176	177	178	179	180	182	183	184	185	186	187	188	190	192	194	195	196	198	200	201	204	206	209	212	213	214	215	216	217	217	217	217	218	218	219	220	222	224	225	226	226	227	229	232	234	234	233	235	237	238	239	240	240	241	243	244	243	242	241	242	243	245	247	249	249	247	249	253	254	254	253	254	256	258	260	262	265	268	270	271	273	276	277	278	278	277	276	277	277	276	274	274	276	278	279	280	280	280	280	279	278	277	276	275	277	279	282	285	288	291	293	295	296	297	298	299	300	300	299	298	297	297	298	301	304	308	312	315	317	319	321	322	323	324	324	324	325	325	324	325	324	324	322	320	317	314	311	309	307	305	304	303	300	296	293	289	286	283	279	277	276	274	273	273	272	271	269	268	266	264	262	260	258	256	255	253	251	251	251	250	249	247	246	246	247	248	249	248	247	245	242	241	239	238	238	238	239	242	242	239	236	234	232	231	230	229	229	230	231	230	230	229	229	230	231	230	229	229	229	229	229	228	228	228	228	229	229	230	230	231	230	226	223	223	223	224	223	222	221	216	210	206	202	201	201	200	199	198	198	197	195	195	195	194	193	191	189	189	189	188	187	185	183	182	181	181	181	180	180	180	184	193	200	204	206	207	208	210	212	216	218	219	219	220	220	219	218	218	219	220	221	231	238	241	244	246	247	249	251	253	254	254	255	256	257	257	258	259	259	258	258	257	257	257	257	257	255	254	253	252	252	253	253	252	251	251	251	252	253	253	252	251	251	251	250	249	248	246	245	243	242	241	242	244	245	245	247	249	252	256	258	259	260	260	259	259	259	260	260	260	261	261	261	260	258	257	254	252	250	248	246	246	245	245	244	244	244	244	244	243	243	242	239	237	235	234	232	231	230	229	225	220	217	216	216	216	215	214
149	151	153	155	157	160	164	166	169	172	175	177	179	181	182	184	186	188	190	191	193	194	196	198	199	200	201	203	204	205	205	205	204	204	205	206	208	209	210	210	210	211	214	216	219	221	224	225	226	227	229	231	231	232	233	235	236	238	239	240	242	244	244	246	248	250	252	255	256	258	259	261	263	266	269	271	274	277	279	281	283	285	288	290	293	296	300	302	304	307	310	313	316	320	322	325	329	332	334	338	342	344	346	348	351	354	357	360	362	365	369	372	374	376	378	381	384	386	389	393	397	400	403	406	408	411	415	420	424	428	430	431	433	436	438	441	443	446	449	451	453	455	457	459	462	464	466	468	470	471	472	472	473	474	476	477	479	480	482	484	486	489	491	493	497	500	502	505	507	510	512	515	518	521	525	528	531	535	538	542	546	549	552	554	556	556	555	554	552	550	547	545	542	539	537	533	530	527	524	521	517	514	510	507	502	497	493	488	485	482	479	476	473	470	469	468	466	464	463	460	456	452	451	449	445	441	439	437	435	433	431	429	426	423	420	418	415	413	411	410	408	406	405	402	401	400	397	395	392	388	386	385	384	383	381	379	377	376	374	373	371	369	368	368	368	366	364	362	361	360	361	361	360	358	355	351	347	342	340	338	336	333	331	329	327	325	325	327	329	329	328	327	326	324	323	322	322	320	317	314	312	308	305	302	300	299	297	296	296	294	292	291	290	288	286	284	283	282	281	279	278	277	276	274	272	271	269	267	265	263	260	258	257	256	251	248	247	246	244	242	242	242	240	237	233	230	227	224	223	223	222	221	218	216	216	216	216	213	210	211	214	213	212	210	208	206	206	205	204	202	197	194	192	190	188	184	183	182	180	175	173	173	176	181	185	187	188	190	191	192	192	192	192	194	193	189	186	186	185	183	181	181	181	179	178	178	179	178	178	177	176	175	175	173	170	169	170	169	167	169	171	171	172	173	174	173	172	171	171	172	173	176	177	178	178	179	181	183	183	184	185	186	187	189	192	194	195	196	198	200	202	204	206	209	212	213	214	214	215	216	216	215	215	217	218	218	219	220	222	223	224	225	226	227	230	232	232	232	233	235	236	237	238	239	240	242	242	241	240	240	240	242	243	245	247	248	247	249	251	252	252	253	254	256	258	260	262	263	265	266	268	271	273	273	274	274	274	273	274	274	273	272	272	275	276	277	278	277	277	276	275	275	276	275	275	279	281	283	286	290	293	294	295	296	297	298	298	299	299	299	298	296	295	297	300	303	307	312	315	316	318	320	321	322	323	322	322	322	322	321	322	322	322	320	318	315	312	309	307	305	303	302	300	297	294	292	289	286	282	279	276	275	272	271	270	270	268	266	265	263	262	260	257	255	254	253	251	250	249	248	248	246	244	244	244	244	245	246	246	244	242	240	239	237	236	235	235	235	235	234	232	232	231	230	229	228	228	228	228	227	227	227	227	227	228	229	229	227	226	226	227	227	227	226	226	227	227	228	229	229	229	228	226	225	223	222	221	220	219	217	216	210	204	200	199	199	198	197	197	196	195	194	193	193	193	191	190	189	189	189	187	184	183	181	181	180	180	180	180	179	180	183	192	201	205	205	205	206	209	211	215	218	220	221	222	222	220	217	217	218	219	219	224	234	239	242	244	245	247	248	249	250	251	252	253	254	254	255	256	256	255	255	256	256	256	256	256	254	251	250	250	250	251	252	251	249	248	247	247	248	248	249	249	249	248	245	244	244	242	241	240	239	239	238	238	241	243	246	249	252	254	255	256	256	256	256	255	255	256	256	256	257	258	257	257	255	253	251	249	248	247	245	244	244	243	242	241	241	242	242	241	241	240	237	234	233	232	231	229	229	226	221	216	215	215	215	215	214	214
151	153	155	157	159	162	166	169	171	174	176	178	180	182	184	186	188	190	191	193	194	196	197	198	199	201	202	204	205	206	206	207	207	206	207	208	209	210	212	212	212	212	213	215	219	223	226	227	227	229	231	231	232	233	234	235	236	237	239	241	243	244	245	247	250	252	254	256	258	259	260	262	265	268	270	273	276	278	281	283	285	287	289	293	296	298	301	303	306	309	312	316	320	323	326	328	331	334	336	340	344	346	348	350	353	357	360	362	364	368	372	376	377	379	380	382	385	387	389	393	396	399	402	404	407	411	415	418	422	427	430	431	432	435	437	440	443	445	448	450	453	455	457	459	461	464	465	467	468	470	470	471	472	473	475	476	477	479	481	483	486	488	490	493	496	499	501	504	506	509	512	514	517	521	525	528	531	535	538	542	545	549	551	553	555	555	554	553	551	549	546	544	541	538	535	532	529	526	523	520	517	513	509	506	501	496	492	487	484	481	478	474	471	469	467	466	465	463	461	458	454	451	450	447	443	440	439	437	435	432	429	426	424	421	419	417	414	412	410	409	407	405	403	401	399	398	396	394	392	388	385	384	383	381	380	378	376	375	373	372	370	368	367	367	366	364	361	360	359	358	357	357	356	354	352	348	344	340	339	338	336	333	331	329	328	326	327	330	332	332	331	330	328	326	324	323	322	321	319	316	313	309	306	304	302	301	299	298	297	295	293	292	291	288	286	285	283	282	281	279	278	277	276	274	272	271	269	267	265	262	260	258	257	255	250	247	246	245	243	241	240	240	238	235	232	230	226	222	221	221	220	219	216	214	214	216	217	215	211	212	215	216	215	213	210	209	207	206	205	203	199	194	192	190	187	184	182	182	179	175	172	172	174	178	181	184	186	189	190	190	190	190	190	191	190	187	186	185	184	182	181	181	179	177	175	176	177	177	176	175	174	174	174	172	168	167	167	166	165	165	168	170	171	173	173	173	172	170	170	170	172	175	177	177	177	177	180	182	184	184	185	185	187	190	192	194	195	197	199	201	203	205	207	210	212	213	213	213	214	214	215	214	214	215	216	217	218	219	221	222	223	223	224	225	227	230	231	231	232	233	234	236	237	237	238	240	240	240	239	239	239	240	242	244	246	247	246	247	249	250	251	252	253	254	256	258	260	260	261	262	264	268	269	269	269	270	270	270	270	270	270	269	270	272	274	275	274	274	274	273	273	273	273	273	275	279	281	283	287	291	294	295	295	296	297	298	298	299	299	298	297	295	294	297	300	304	307	311	313	315	316	318	319	320	321	320	319	318	317	317	317	318	319	317	315	312	310	307	305	302	300	299	297	295	293	292	290	285	281	278	275	272	270	268	267	266	265	264	262	261	260	258	255	253	251	251	250	249	247	246	245	244	243	242	242	242	243	243	242	242	240	238	237	235	233	232	232	232	232	232	231	230	230	228	227	226	226	226	226	225	224	224	224	224	225	226	225	224	224	224	224	224	224	224	224	225	226	227	227	227	227	227	227	227	224	221	219	217	215	213	209	204	200	198	198	198	197	196	196	195	194	193	193	193	192	191	190	189	189	187	185	182	180	181	180	180	180	180	179	180	182	186	191	199	204	204	204	206	208	210	213	216	219	220	222	222	221	218	216	217	218	219	220	226	234	239	241	243	244	245	245	246	247	248	249	250	250	251	252	253	252	252	253	253	253	253	253	251	248	247	247	247	247	249	249	248	246	245	245	245	245	246	247	247	246	244	242	241	240	239	238	237	236	235	236	241	243	245	248	251	253	253	254	253	253	252	252	252	252	252	252	254	254	254	253	252	251	249	247	246	245	244	243	243	242	241	240	240	239	239	239	239	238	236	233	231	230	229	228	226	222	218	214	214	214	214	213	213	212
153	155	158	160	162	164	168	171	174	176	178	180	182	184	185	188	189	191	192	194	195	196	198	199	200	202	203	204	205	207	207	208	208	208	209	210	211	212	213	213	213	213	213	215	219	223	226	227	228	229	231	232	232	234	235	236	238	239	240	241	243	245	247	248	251	253	255	257	258	260	261	263	266	269	271	274	277	280	282	284	286	288	291	295	298	300	303	305	308	311	314	318	322	326	328	331	333	335	339	342	346	348	350	352	356	359	362	364	366	370	375	378	380	381	382	384	386	388	390	393	396	398	401	404	406	410	414	416	420	425	429	431	432	434	436	439	442	444	447	450	452	455	457	459	460	462	464	465	466	468	469	470	471	473	474	475	476	477	480	482	484	487	490	492	496	499	501	503	505	508	512	515	518	521	524	527	530	534	538	541	545	548	551	553	554	554	553	552	550	548	545	543	540	537	534	531	528	525	522	519	516	512	508	505	501	496	491	487	484	481	477	474	470	467	464	462	461	461	460	457	452	450	449	445	442	440	439	437	434	430	427	423	421	419	418	416	414	412	410	408	405	404	402	400	398	396	394	392	390	387	385	384	382	381	379	377	376	375	373	371	369	367	366	366	365	363	360	358	358	356	354	353	352	350	348	345	343	340	339	338	335	333	331	329	328	328	330	332	334	334	333	332	329	327	325	323	322	321	320	318	315	311	307	306	305	303	301	300	298	296	294	292	291	288	286	285	284	283	281	280	278	277	276	275	273	270	268	266	264	262	260	257	255	253	250	246	245	244	243	241	239	237	236	234	231	229	226	221	220	220	219	218	214	213	213	214	216	215	211	212	216	217	216	214	212	210	208	206	205	204	201	197	193	191	187	184	183	181	178	174	170	171	174	176	178	181	184	187	189	189	188	188	188	187	186	186	185	184	183	182	182	180	178	175	174	174	174	174	174	173	172	173	172	169	166	165	165	164	163	164	168	170	171	173	174	173	171	169	169	169	171	174	176	176	176	177	179	181	183	184	186	187	189	191	192	194	195	197	199	201	203	205	208	211	212	212	212	212	213	213	214	214	214	214	215	215	217	219	220	220	220	220	222	223	225	228	229	230	232	233	234	235	236	236	236	237	238	238	238	238	238	239	241	244	246	246	245	245	245	246	249	251	252	252	254	256	257	258	259	259	261	265	266	265	265	266	266	267	266	265	264	264	265	268	271	271	270	270	271	271	270	270	271	272	274	278	281	283	286	290	293	295	295	296	297	297	297	297	297	296	295	294	295	298	300	304	308	311	312	314	315	316	317	319	319	318	317	316	314	312	312	314	315	314	312	310	307	305	303	300	298	296	294	291	290	290	288	284	280	277	273	269	267	265	265	265	263	262	260	259	258	256	254	251	250	249	248	248	246	244	243	242	241	241	240	240	240	240	240	240	238	236	234	233	231	229	229	230	230	230	229	228	228	227	225	224	223	223	223	223	222	222	221	221	221	222	222	222	223	223	222	222	221	222	223	223	224	225	226	226	226	226	226	226	224	221	219	217	211	203	201	201	199	197	197	197	197	195	194	194	193	193	193	192	191	191	190	188	187	185	182	181	180	181	181	180	180	179	179	180	184	187	192	197	202	203	203	205	207	209	211	214	217	219	221	223	222	219	216	216	217	218	218	220	226	235	238	240	242	243	243	244	245	245	245	246	247	248	249	251	251	250	250	249	249	249	248	248	247	246	244	244	245	246	247	246	246	245	245	244	243	244	245	244	243	243	242	240	238	237	236	235	235	234	236	241	243	243	246	250	251	252	251	250	249	248	248	249	249	249	248	249	251	251	251	250	248	246	245	243	241	241	241	241	240	239	239	238	237	236	236	237	236	235	232	230	228	228	228	225	219	215	213	212	212	213	212	211	210
154	157	159	162	165	167	170	173	176	179	181	183	184	185	187	189	191	192	193	194	196	197	198	199	201	203	204	205	206	208	209	209	209	210	211	212	213	214	214	215	215	215	215	217	219	223	226	227	228	229	232	233	233	234	235	237	240	242	243	242	243	246	249	251	252	254	256	258	260	261	263	264	267	269	272	276	279	282	284	286	288	291	294	297	300	303	305	309	311	314	317	320	324	327	330	332	334	337	341	344	347	350	352	354	358	362	364	366	369	373	377	380	382	383	385	387	389	390	392	394	396	398	401	403	407	410	413	417	421	426	429	431	432	433	435	438	441	443	445	448	451	454	456	457	459	460	461	463	465	466	468	469	470	472	473	474	475	477	479	481	483	486	489	492	495	498	500	502	505	508	512	515	517	521	524	526	529	532	537	541	545	548	550	552	553	553	552	551	550	547	545	542	539	536	533	530	526	523	520	517	514	510	507	504	500	495	490	487	484	480	476	473	470	466	462	459	458	458	456	454	450	448	446	443	441	439	437	435	432	428	424	421	420	419	418	415	412	410	409	406	404	402	401	399	397	395	392	390	387	385	384	383	381	379	378	377	376	374	372	370	368	366	365	365	364	362	360	357	356	355	353	351	350	348	346	344	341	340	339	337	334	333	332	330	330	332	334	335	336	336	335	333	331	329	326	322	321	322	322	320	317	313	310	308	306	305	303	300	299	296	295	293	291	288	286	286	286	284	282	280	278	277	275	274	272	269	268	266	264	262	259	256	254	252	249	247	246	244	242	241	239	237	234	232	230	230	227	221	220	220	221	219	214	213	213	214	215	214	212	212	216	217	215	214	212	211	209	206	205	204	202	199	196	193	189	185	183	179	175	173	170	170	175	176	176	179	183	185	187	187	187	186	186	185	185	185	185	184	183	183	182	180	176	175	174	173	172	171	171	170	169	168	168	166	165	164	163	163	163	164	168	171	172	173	174	173	170	168	168	169	170	173	174	175	176	177	178	180	182	184	187	189	190	191	192	194	195	197	199	201	203	205	207	210	212	211	211	212	211	212	212	213	213	214	214	214	216	218	219	219	218	218	220	222	224	226	228	229	231	232	233	234	235	235	235	235	235	236	236	236	236	238	240	243	245	244	244	243	243	244	246	249	250	251	252	254	256	257	258	259	260	262	262	263	265	265	264	263	262	261	260	261	262	265	267	266	265	265	267	267	266	267	271	273	275	277	280	281	284	287	291	294	294	295	296	296	295	295	295	295	295	296	297	297	299	303	307	310	312	312	314	315	316	317	317	316	315	314	312	310	309	311	312	311	309	307	305	303	301	298	296	294	291	288	287	286	284	280	278	276	272	269	267	264	263	263	262	260	258	257	256	254	252	250	248	246	246	246	244	242	241	240	239	239	238	238	237	237	237	237	235	234	232	231	229	228	228	228	228	227	226	226	225	225	223	222	221	221	221	221	221	220	219	219	219	219	220	221	222	223	222	221	221	221	222	222	223	224	225	225	225	225	224	224	222	219	218	217	210	201	201	203	201	197	197	197	197	195	194	193	193	193	192	190	190	190	189	187	185	182	181	181	181	181	181	180	179	177	176	177	182	186	190	193	198	201	202	204	206	207	210	213	215	217	219	222	223	220	217	216	215	217	218	218	219	227	235	238	241	242	243	243	244	244	243	243	244	245	247	249	250	249	248	247	246	246	246	247	248	246	244	243	243	245	246	246	245	244	244	244	243	242	242	241	240	240	238	235	234	233	233	233	233	234	236	240	242	242	244	247	248	248	247	246	244	244	245	246	246	245	245	246	247	248	248	248	246	244	242	240	238	237	238	238	237	236	237	236	235	235	235	235	235	234	231	229	227	227	226	222	217	214	212	211	210	211	211	210	208
155	157	160	163	166	169	172	174	177	180	183	184	186	187	189	190	192	193	194	195	196	198	199	200	201	203	205	206	208	209	210	210	211	211	212	213	214	215	216	217	217	217	218	219	219	221	225	227	228	229	232	233	234	235	236	238	241	243	243	243	244	248	251	253	254	255	257	260	261	263	264	266	268	270	274	278	282	285	287	289	291	294	297	300	302	305	308	311	314	316	319	322	325	329	331	333	336	339	342	345	347	351	354	357	360	363	366	368	371	375	379	382	384	385	387	390	392	393	394	396	397	399	401	404	407	411	414	418	422	426	429	431	433	434	435	437	440	442	445	447	449	452	454	455	456	458	459	461	463	465	466	468	469	470	472	473	475	477	479	481	483	486	489	492	494	497	500	502	505	508	512	514	517	520	523	525	528	531	535	540	544	547	549	551	552	551	551	549	548	546	543	541	538	535	532	528	525	522	519	515	512	509	506	503	499	494	490	487	483	480	475	472	469	465	461	458	456	454	450	447	445	444	443	441	440	438	435	432	429	426	423	421	420	418	416	413	410	408	406	404	402	401	399	398	396	394	391	389	386	384	383	382	380	378	377	377	375	374	372	369	366	366	365	364	364	363	361	358	356	355	353	351	349	348	345	342	340	339	339	337	335	333	332	331	332	335	337	337	337	337	336	334	332	330	327	321	320	323	323	321	318	314	312	310	307	305	303	301	298	296	295	294	292	289	287	287	287	284	282	281	279	277	274	272	270	269	268	266	264	261	257	255	252	250	249	248	247	244	242	241	239	236	233	230	229	230	228	223	222	224	224	220	216	214	215	216	217	217	214	213	214	213	213	212	212	211	209	205	203	202	201	199	196	194	191	186	182	176	173	172	170	169	173	174	173	176	181	183	185	185	185	185	186	186	185	184	184	184	184	183	181	178	176	175	176	174	171	170	169	168	166	163	162	164	165	163	162	163	163	164	167	170	171	171	171	170	168	166	167	168	170	171	172	174	177	178	179	180	182	183	186	188	188	189	191	193	195	197	198	200	203	204	207	209	211	211	211	211	211	211	211	212	212	213	213	214	215	217	218	219	219	218	219	221	223	225	228	229	231	231	231	232	233	235	236	235	234	234	235	235	236	237	239	241	242	243	243	243	242	243	244	246	249	250	250	252	253	255	256	258	259	259	260	262	264	265	263	262	261	260	259	260	260	261	262	261	261	262	263	263	264	265	269	273	275	276	278	280	282	285	288	290	290	291	292	293	293	294	293	294	295	297	297	297	299	302	305	308	310	310	312	314	315	315	315	314	313	312	310	308	307	308	309	308	306	305	304	303	300	297	294	292	290	287	285	283	280	277	276	275	272	268	266	263	261	260	259	258	257	255	254	252	251	249	247	244	243	243	242	241	240	239	238	238	237	236	234	233	233	232	232	231	230	228	227	226	226	225	225	225	224	224	224	223	222	221	220	219	220	220	219	217	216	217	217	218	218	220	221	221	222	221	220	220	221	221	222	223	224	224	224	224	223	222	220	217	216	214	205	200	200	204	204	199	197	197	196	194	193	193	193	193	191	189	189	189	187	185	183	181	181	181	181	181	181	179	178	175	173	173	180	185	187	190	194	197	200	202	204	206	208	211	213	215	217	220	222	222	220	217	215	215	217	218	217	221	231	236	239	240	241	242	242	242	242	242	242	243	244	246	246	246	246	246	245	245	244	245	246	245	243	242	242	243	244	244	244	244	244	243	241	240	239	239	238	235	230	229	229	228	228	230	232	233	235	238	240	241	242	243	243	243	244	243	242	241	242	242	242	242	243	243	243	244	244	244	244	243	241	238	235	234	234	234	233	233	234	234	233	233	234	234	233	231	230	228	226	224	223	220	217	214	212	211	209	209	209	208	206
155	157	160	163	167	170	173	176	179	181	183	185	187	188	190	191	193	194	195	196	197	198	199	200	202	204	205	207	209	210	210	211	212	212	213	215	216	217	218	220	220	221	221	221	220	220	222	225	227	229	232	233	234	235	237	239	241	242	243	244	246	249	252	254	255	257	258	261	262	264	267	268	270	272	276	280	283	286	289	291	294	297	299	302	305	308	310	313	316	319	322	324	327	330	332	335	338	341	344	346	349	353	357	360	362	365	368	371	373	377	380	384	386	388	390	393	394	396	396	397	399	400	402	405	408	411	414	418	421	425	428	431	432	434	435	437	440	442	444	447	449	450	452	453	455	456	458	460	461	463	465	467	468	470	471	473	475	477	479	481	483	486	489	491	493	497	500	503	505	509	512	514	517	520	522	525	527	530	534	539	543	546	549	550	550	550	549	548	546	544	542	539	536	533	531	527	524	521	517	514	510	507	504	501	497	493	489	486	482	478	474	471	468	464	461	457	454	450	445	443	441	440	440	440	438	435	432	429	427	425	423	421	419	417	414	411	408	406	405	403	401	399	398	396	395	393	391	389	386	383	382	381	380	379	378	377	375	373	371	367	365	365	366	365	364	363	362	359	357	356	354	351	349	348	345	342	340	339	339	338	336	335	334	334	335	338	339	339	339	338	337	335	333	331	328	321	320	323	324	322	318	315	313	311	309	306	304	301	297	295	294	295	293	291	289	289	287	285	283	281	279	277	274	271	270	269	268	267	264	260	255	254	253	251	249	249	248	245	242	241	239	236	232	230	229	230	228	224	224	225	225	221	217	216	217	219	221	220	218	216	214	212	211	210	210	209	206	202	201	201	200	197	192	189	188	186	181	176	173	172	171	170	171	171	171	174	178	180	182	183	184	185	187	187	185	184	183	184	184	182	180	178	176	176	175	173	171	170	168	167	165	161	160	163	164	163	163	165	165	165	166	167	167	167	167	166	165	164	166	169	171	172	173	176	178	180	181	183	183	184	184	186	187	188	190	192	195	196	198	200	202	203	206	208	210	210	211	211	210	210	210	211	212	212	213	214	215	216	217	218	219	218	218	220	222	224	227	228	229	230	229	230	232	235	236	235	234	234	234	234	235	237	238	239	240	241	242	242	242	242	242	243	246	248	249	250	251	252	254	255	256	257	259	261	261	262	261	260	259	259	259	260	260	261	261	261	262	262	263	263	264	264	265	268	273	274	276	279	280	283	285	286	287	288	289	290	292	292	292	292	293	295	297	298	300	302	305	307	307	308	310	312	313	313	313	312	311	310	308	306	304	304	305	305	304	303	303	301	299	295	292	291	288	285	282	280	278	275	273	272	269	266	264	261	258	256	255	255	255	254	252	251	250	248	245	242	241	241	240	239	238	238	238	237	235	233	231	230	229	229	229	228	225	224	225	224	223	222	222	222	222	222	222	221	220	219	218	218	218	218	217	215	214	214	215	216	217	217	218	218	219	219	219	219	219	220	222	223	223	223	223	223	222	220	218	217	215	209	201	199	199	201	203	202	199	197	194	193	193	193	194	193	191	189	189	190	186	183	182	181	181	181	181	181	180	178	177	174	171	173	179	185	186	188	191	194	196	199	202	204	206	209	211	213	216	219	221	223	222	218	215	214	215	216	217	218	226	232	235	237	239	240	241	241	241	241	241	242	242	244	244	244	244	244	244	243	242	242	242	241	241	241	241	242	242	242	242	243	243	241	239	238	237	235	233	229	227	227	228	226	225	228	230	232	235	237	239	239	240	240	240	240	241	240	240	240	239	239	239	240	240	241	241	241	241	241	242	241	240	238	235	232	231	231	231	231	231	231	230	230	231	231	230	229	228	227	225	223	221	219	216	214	211	210	209	208	208	206	204
155	158	160	163	168	171	174	177	180	182	184	186	188	190	191	192	193	194	195	196	198	199	200	201	202	204	206	208	209	210	210	210	212	213	215	216	218	219	220	222	223	224	225	224	222	221	221	223	225	228	231	232	234	236	239	240	242	243	243	245	247	249	252	255	256	257	260	262	264	266	269	271	272	275	278	281	284	287	291	294	297	299	302	305	308	310	313	316	319	323	325	327	329	332	334	337	341	345	347	349	351	355	359	362	364	367	370	372	374	377	382	386	389	391	393	395	397	398	398	399	400	402	404	406	409	412	414	417	420	424	428	430	432	434	435	437	440	442	444	446	448	450	451	453	454	456	457	459	460	462	464	466	468	469	471	473	475	478	479	481	483	485	488	491	493	497	500	503	506	509	512	515	517	520	523	525	528	531	534	538	542	545	547	549	549	549	548	546	544	543	541	538	535	532	529	526	522	519	516	513	509	505	502	499	495	491	488	484	481	477	473	470	466	463	459	456	452	448	444	441	439	438	437	437	436	433	431	427	424	422	421	420	418	415	413	410	408	405	404	402	401	398	396	394	392	391	390	388	386	383	382	380	379	378	377	376	374	373	370	367	366	366	366	366	365	364	363	361	359	358	355	353	350	348	346	343	341	340	340	339	338	337	336	335	337	340	341	341	340	339	338	336	334	331	328	323	320	323	324	321	317	315	313	312	309	306	304	301	297	294	294	295	295	293	291	290	288	284	282	281	279	277	274	272	271	269	269	267	264	260	256	255	255	253	251	250	249	246	243	242	239	235	232	231	230	230	228	226	225	226	226	223	220	219	220	220	222	222	221	219	216	212	210	208	207	206	202	200	200	199	198	194	189	185	182	180	178	176	175	174	172	171	170	170	171	174	175	177	180	182	182	184	187	187	186	184	183	183	183	182	180	177	176	176	175	173	172	171	168	167	166	162	161	164	164	165	167	168	167	167	166	166	166	166	166	165	163	163	167	171	173	174	176	178	179	181	183	186	186	185	185	186	188	188	189	192	194	196	198	200	201	202	205	208	209	210	211	211	210	209	209	210	211	212	212	213	214	216	217	218	218	217	217	219	221	223	225	226	227	229	229	229	230	234	236	234	233	232	233	234	235	236	237	238	238	239	240	240	240	241	240	241	244	247	248	249	251	252	253	254	255	256	258	258	258	258	258	257	257	257	259	260	261	262	261	262	263	263	264	264	265	264	264	265	270	273	275	278	279	280	282	283	285	286	287	288	289	290	290	290	291	293	295	297	300	302	305	306	306	307	309	311	311	311	310	310	309	307	306	304	301	299	300	301	301	301	301	299	297	294	292	289	286	283	280	278	276	273	271	269	267	264	261	258	256	254	253	252	252	252	251	250	248	246	243	241	240	239	238	237	236	237	237	236	233	231	229	228	227	226	225	219	215	215	219	221	221	221	221	220	219	219	219	219	218	217	216	215	215	215	214	213	211	211	212	214	215	215	215	216	216	217	218	218	217	219	222	224	224	224	223	222	221	219	217	215	211	204	199	199	199	199	200	199	198	197	194	193	193	194	195	196	195	193	194	192	185	182	182	181	181	181	180	179	178	177	176	173	170	172	179	183	184	187	190	192	194	197	199	203	205	207	209	211	213	216	219	221	222	220	216	214	214	214	216	217	220	228	232	234	236	238	239	240	240	240	239	240	241	243	243	243	243	243	243	242	240	239	238	238	238	239	240	240	240	239	240	241	241	240	238	237	236	232	227	226	227	228	227	224	223	224	227	229	232	235	237	237	238	238	238	238	238	238	238	238	237	236	236	237	237	238	238	239	239	240	240	240	239	237	235	231	229	228	229	230	230	229	228	228	228	228	228	227	226	225	224	222	220	218	215	212	210	209	208	207	206	204	201
156	158	160	162	167	171	173	176	180	182	185	187	188	190	191	192	192	192	193	195	197	198	199	201	203	204	206	208	209	210	210	211	212	214	215	218	220	221	222	223	224	225	227	227	226	223	222	222	224	227	230	233	235	238	240	241	242	243	244	246	248	250	252	255	257	259	261	264	265	268	270	272	274	276	279	282	286	289	293	295	298	301	304	307	310	313	315	319	323	326	328	330	332	335	337	340	344	348	350	352	354	357	361	364	366	370	372	374	376	379	383	387	391	393	396	398	400	401	401	402	402	404	406	408	410	412	415	418	421	424	427	430	432	434	436	438	440	442	443	445	447	449	450	452	453	455	457	458	459	461	463	466	468	470	472	473	475	478	479	481	482	484	487	491	494	497	500	503	506	509	512	515	518	521	524	526	529	532	535	538	542	544	546	547	548	547	546	545	543	541	539	536	533	530	527	524	520	516	513	510	507	503	501	497	494	490	487	483	480	476	472	468	465	462	458	453	450	447	443	440	438	435	434	434	433	431	430	425	419	417	418	418	416	413	411	409	407	405	403	402	400	398	395	392	391	390	389	387	385	382	381	379	378	376	375	375	374	372	369	366	366	366	366	365	365	364	364	362	360	358	356	354	352	350	347	345	343	342	342	342	341	339	336	335	339	342	342	342	341	341	339	337	334	332	329	323	321	323	323	321	317	315	314	312	310	307	304	302	298	295	295	295	294	293	291	289	286	283	281	280	278	276	273	272	270	269	268	267	265	262	260	258	258	256	252	250	249	248	245	243	239	235	234	233	232	230	229	228	227	227	226	225	224	224	223	223	223	223	222	220	216	213	209	206	206	206	203	200	199	198	196	193	187	182	179	177	177	178	181	178	172	172	171	170	171	173	173	175	178	180	181	183	185	186	185	184	183	183	183	181	179	177	176	176	175	174	173	173	170	167	167	165	164	165	165	166	169	169	169	169	168	167	167	168	168	165	162	166	172	174	174	176	178	179	180	182	186	188	188	188	188	189	189	189	190	191	194	196	198	200	201	202	204	207	209	210	211	212	211	210	209	209	210	211	212	213	215	216	218	218	217	216	217	219	220	221	223	224	225	227	228	228	228	230	231	232	231	231	232	233	234	235	236	236	237	238	239	239	239	240	240	241	243	246	247	249	250	251	251	252	253	254	255	255	255	256	257	256	255	256	258	261	263	264	261	262	263	265	266	266	266	266	266	267	270	272	275	276	276	277	278	279	282	283	284	285	286	286	288	289	289	290	292	296	299	301	304	306	306	306	308	309	309	309	308	308	307	305	303	302	299	297	296	297	299	299	298	296	294	292	291	288	285	282	279	276	274	271	269	268	266	262	259	256	254	252	251	250	250	250	249	248	246	243	241	240	239	238	237	236	235	235	235	233	231	229	228	227	225	222	217	212	211	210	214	219	220	220	219	218	217	217	216	213	213	215	215	213	212	212	212	211	209	208	210	213	214	214	213	214	214	215	216	217	217	219	222	224	225	225	223	221	219	217	215	212	205	201	199	199	199	199	199	195	192	192	192	192	192	193	196	196	194	190	191	191	184	182	182	181	181	179	178	177	177	176	175	173	171	173	180	183	184	185	189	191	192	193	196	200	204	206	207	209	211	213	216	218	219	221	218	214	213	213	214	215	216	219	223	230	234	235	237	237	238	237	237	238	239	241	242	242	242	242	242	240	239	238	237	236	236	238	239	239	238	238	238	239	238	237	237	236	234	230	226	227	228	227	225	222	220	221	224	226	228	230	232	234	234	234	234	234	235	235	236	236	236	235	234	234	234	235	236	237	237	238	238	237	237	235	233	230	228	228	228	229	228	228	228	227	226	226	226	226	225	223	222	220	218	216	213	210	209	208	207	205	203	200	198
155	157	159	162	165	169	172	174	178	182	184	186	188	189	190	190	190	190	191	192	194	195	198	200	202	204	206	207	209	210	211	212	213	214	216	218	221	222	223	224	224	226	228	229	229	227	225	224	226	229	231	234	236	239	241	242	242	244	245	247	249	250	253	256	258	260	263	265	267	269	271	273	275	278	281	284	288	291	294	297	300	303	306	310	313	315	318	322	327	330	331	334	336	338	341	344	347	351	353	355	357	359	362	366	369	372	374	376	378	381	385	389	393	396	398	400	402	404	405	405	405	406	407	408	410	412	415	418	421	425	428	431	433	435	437	438	440	442	443	445	447	448	450	451	453	454	456	458	460	462	464	466	468	470	471	473	475	477	478	480	482	484	487	491	494	496	499	502	505	508	512	515	518	522	524	527	530	532	535	538	541	543	545	546	546	545	544	542	541	539	536	534	530	528	525	522	517	513	510	507	504	501	499	496	492	489	486	482	479	475	471	467	464	462	457	451	449	446	442	439	436	433	431	430	429	426	423	419	416	416	417	416	414	411	409	408	406	405	402	400	398	396	394	392	390	389	388	386	384	382	380	378	376	374	374	374	374	372	368	365	365	365	363	363	363	364	364	363	361	359	356	354	352	351	349	347	347	346	345	344	343	342	338	338	341	343	342	342	342	342	341	338	335	332	329	325	322	323	323	321	318	315	314	313	310	307	305	302	298	296	295	294	293	292	290	288	285	282	280	279	277	275	273	271	269	267	268	267	266	264	263	261	259	257	254	250	249	249	247	244	241	238	236	235	233	231	230	229	229	228	226	226	227	227	227	226	225	225	224	220	216	213	208	205	207	207	204	201	199	198	196	193	185	181	179	177	177	177	179	177	172	172	171	170	171	171	171	172	175	178	180	182	184	185	184	183	182	182	182	181	179	177	176	176	176	175	176	175	172	170	169	167	166	165	165	166	168	168	169	170	169	168	169	169	167	165	165	171	174	175	175	177	180	181	181	184	188	190	190	189	190	190	191	190	191	192	194	196	198	200	201	203	204	206	207	209	210	211	211	210	209	209	209	210	212	214	215	216	217	217	216	216	217	218	219	220	222	224	225	225	226	226	226	226	227	229	229	230	231	232	233	235	235	235	235	237	237	238	239	240	241	242	244	246	247	247	249	249	249	250	252	253	253	253	253	255	257	256	255	256	258	261	264	266	262	261	264	266	268	268	268	268	270	272	274	274	275	276	275	275	277	277	278	279	280	282	284	285	287	288	289	289	291	294	297	299	302	305	305	305	306	306	306	306	306	306	304	303	301	300	298	295	294	294	296	296	295	293	292	290	288	286	283	281	278	275	272	269	267	265	262	259	256	254	252	251	250	248	248	248	247	245	243	242	240	238	237	236	236	236	234	232	231	230	229	229	228	226	224	218	211	209	209	208	210	216	218	218	217	216	215	215	211	205	205	211	213	211	210	210	209	208	206	206	209	211	212	211	211	211	212	213	214	216	218	219	221	222	224	224	222	219	217	215	214	209	202	200	200	199	199	199	197	192	189	189	190	189	188	191	194	193	187	184	184	185	183	182	181	180	179	178	176	175	176	175	173	172	171	171	178	182	184	185	187	189	190	191	192	197	202	204	205	207	208	211	213	215	216	218	218	216	213	212	212	213	215	216	216	222	228	230	232	233	233	235	236	237	238	239	240	241	241	241	240	239	238	237	236	235	235	236	238	238	238	238	237	237	236	235	234	233	231	229	226	226	227	225	223	219	216	219	223	224	225	226	227	228	229	231	231	232	232	233	233	234	234	233	231	230	231	232	233	234	234	235	235	235	234	233	231	229	228	227	227	228	227	227	227	226	225	224	224	223	222	220	219	218	217	214	212	209	208	206	205	203	200	197	194
154	156	158	161	164	167	169	172	176	180	183	184	186	186	186	186	187	187	188	190	192	194	196	198	201	203	204	206	208	209	211	213	215	215	216	218	221	223	224	224	224	226	228	230	231	231	230	230	232	233	234	236	238	239	241	241	242	244	246	248	249	251	253	256	258	261	264	266	268	270	272	274	276	279	282	286	290	293	296	299	302	304	307	311	314	316	320	325	330	332	334	337	339	341	343	346	349	353	355	357	359	362	365	368	371	374	377	378	381	383	386	391	395	398	400	402	404	406	407	408	408	408	408	409	411	413	416	419	422	426	429	432	434	436	438	439	440	442	443	445	447	448	450	451	452	454	456	458	461	463	465	467	468	469	470	472	473	475	478	480	482	485	487	490	492	495	497	501	505	508	512	516	519	522	525	527	530	533	535	537	540	542	544	544	544	544	542	541	539	537	534	532	529	526	523	519	514	510	507	504	501	499	497	493	490	487	484	480	478	474	469	465	463	461	458	452	448	445	441	438	435	431	429	427	425	421	417	416	416	416	416	415	412	410	408	406	404	403	401	399	397	395	393	391	389	388	386	385	384	381	380	378	375	374	374	373	373	371	368	365	363	362	361	361	361	362	363	363	361	359	357	355	353	352	351	350	349	349	348	346	346	345	343	341	342	343	343	343	343	343	341	338	335	332	330	327	325	324	323	322	318	315	313	313	310	307	304	301	298	296	295	294	294	292	290	288	285	283	282	279	276	275	273	271	270	269	269	269	267	266	264	262	261	259	256	252	251	250	249	246	243	241	238	237	234	232	231	230	231	229	227	227	228	229	229	228	227	225	223	219	215	212	206	205	207	208	206	203	201	198	196	192	184	180	179	178	177	176	176	175	174	174	173	172	172	171	170	170	174	177	179	182	183	183	182	181	181	182	182	180	179	178	178	177	177	177	177	176	174	173	172	169	166	165	164	164	166	167	168	170	170	169	169	169	167	166	170	173	174	174	175	179	183	183	183	184	188	190	191	191	191	191	191	191	192	194	195	196	198	199	201	203	204	205	206	208	209	209	209	209	208	209	209	210	211	213	214	213	213	214	214	215	216	217	218	219	220	221	222	223	223	224	224	224	226	228	229	229	229	230	232	234	234	234	234	236	237	238	240	241	242	243	244	244	244	245	246	247	247	248	251	252	251	251	252	254	256	255	254	255	257	259	262	263	262	262	265	267	269	270	270	270	271	274	276	276	276	276	276	277	279	279	278	276	276	279	282	284	287	289	289	289	291	294	296	297	299	302	303	303	303	303	303	303	304	303	301	300	298	296	294	293	292	292	293	293	292	290	289	287	286	284	282	279	277	274	271	267	265	262	259	256	254	252	251	249	248	246	245	245	245	244	242	240	238	235	234	235	236	235	232	230	229	229	229	228	227	225	222	217	211	209	207	206	206	208	211	213	214	211	211	212	208	202	201	204	208	208	207	207	206	203	203	205	208	209	209	209	209	210	212	213	214	215	217	219	220	221	222	221	219	217	216	215	212	206	201	199	199	198	198	196	193	190	189	189	189	188	186	187	189	186	183	183	183	182	182	181	180	179	177	176	174	174	174	175	172	171	170	169	174	180	182	183	184	187	189	189	190	195	200	203	204	205	206	209	211	213	215	216	218	217	214	212	212	212	213	214	215	216	217	220	225	229	229	231	234	236	235	236	237	238	239	239	238	237	237	236	235	234	234	235	237	237	237	237	236	234	233	230	228	227	227	226	225	224	224	222	218	213	213	216	219	223	223	224	224	224	226	228	229	229	229	230	230	230	230	230	228	227	227	229	230	230	231	233	233	233	233	232	230	228	227	226	225	225	225	225	224	224	222	222	222	221	220	218	217	216	215	213	211	209	207	205	204	203	199	196	192
154	154	156	160	163	165	167	170	174	178	181	182	183	183	182	183	184	186	186	188	190	193	195	197	199	201	202	205	207	209	211	213	215	216	217	219	221	223	224	224	225	226	228	231	233	234	234	234	236	236	236	237	239	240	241	241	242	244	246	249	250	252	255	257	259	262	265	267	269	270	273	275	278	280	283	287	291	293	296	300	303	305	309	312	315	318	322	327	331	334	337	339	342	344	346	349	351	354	356	359	362	365	369	371	374	376	379	381	383	385	388	393	397	400	401	403	406	408	409	410	411	411	411	411	412	414	417	420	423	426	430	432	435	437	439	440	441	443	444	445	447	448	449	451	452	454	456	458	461	463	465	467	468	468	469	470	472	475	477	480	482	484	486	489	491	493	496	500	505	509	512	516	520	522	525	528	530	532	534	536	539	541	542	543	543	542	541	540	538	535	533	530	527	524	521	517	512	509	505	502	500	497	494	490	488	485	482	479	476	473	468	464	461	460	457	452	448	444	440	437	434	430	428	425	424	421	419	415	416	416	415	413	410	409	407	405	402	401	400	398	396	394	392	390	388	386	384	383	382	381	380	378	376	374	373	373	372	371	369	365	362	361	360	360	360	360	361	362	362	360	358	356	355	354	353	352	351	350	349	348	348	347	346	344	343	343	343	343	343	342	341	338	335	331	328	327	326	324	323	321	318	314	312	312	310	308	305	302	298	296	294	294	295	293	291	288	286	285	283	280	277	276	275	274	272	272	272	271	269	267	265	263	262	260	258	254	252	251	249	247	246	243	240	237	235	233	231	232	232	231	228	227	229	230	229	228	226	224	221	218	215	209	204	204	206	207	206	204	202	198	194	190	184	181	181	180	179	177	176	175	174	174	175	174	173	171	170	170	172	175	177	180	182	182	181	180	180	181	181	180	179	180	180	179	178	179	179	177	175	173	172	170	167	165	162	163	166	167	168	170	170	169	169	170	168	167	172	174	175	175	176	180	184	185	185	186	188	190	191	192	193	192	192	193	194	194	195	197	198	199	200	202	203	203	205	207	208	209	208	208	208	208	209	209	209	210	210	210	211	212	213	215	216	217	218	217	217	217	218	220	222	223	223	223	225	227	228	228	228	227	230	233	233	233	234	236	237	239	240	241	241	241	242	242	242	242	244	246	247	248	250	251	250	250	250	252	255	255	254	255	256	258	260	261	263	265	267	269	271	273	273	273	274	276	277	277	278	278	279	280	281	281	279	276	275	277	281	285	288	289	289	290	291	293	295	296	297	300	301	301	301	301	301	300	300	300	298	296	294	292	291	290	290	290	290	290	289	288	287	285	284	282	280	277	275	273	269	265	263	260	258	255	252	250	250	249	246	244	242	242	242	242	240	239	236	233	232	233	234	232	230	228	228	229	228	227	225	223	220	218	214	210	209	207	204	203	203	209	210	206	205	207	205	202	200	201	204	205	204	204	202	200	201	204	207	207	207	208	208	210	211	212	213	215	216	218	219	220	220	219	216	215	215	213	207	201	199	198	197	197	196	194	191	190	189	189	189	187	185	185	186	184	183	182	182	181	181	180	179	177	175	174	173	172	174	176	175	172	170	168	170	177	179	181	183	185	188	189	190	194	198	201	203	203	204	205	208	210	212	215	216	217	216	213	212	211	211	212	214	214	214	214	215	220	224	226	230	232	232	232	233	234	235	236	236	236	235	235	234	233	233	234	235	235	235	235	234	233	230	227	224	224	224	224	223	223	222	218	210	208	211	212	214	219	221	220	219	219	220	221	221	225	227	227	227	226	225	225	225	225	225	226	227	227	229	230	231	232	231	230	228	227	225	224	224	223	222	222	222	221	220	220	220	219	218	216	215	215	214	212	210	209	207	205	202	203	200	197	194
154	154	155	159	162	164	166	170	173	176	179	180	181	181	182	183	184	185	185	187	189	192	195	196	198	199	200	203	208	209	210	213	215	216	218	220	221	223	223	224	225	228	230	233	235	236	236	236	237	237	237	238	240	242	242	243	244	245	247	249	251	254	257	259	261	264	266	268	270	271	274	276	279	281	284	287	290	293	296	300	303	306	309	313	316	319	324	328	332	335	338	342	344	347	349	352	354	356	358	361	364	368	371	373	376	378	381	384	386	388	390	393	397	400	402	404	407	409	411	412	413	414	413	413	414	416	418	421	424	427	430	433	435	438	439	440	442	444	445	446	447	448	449	451	452	454	456	458	460	462	464	465	466	467	468	470	472	474	477	479	481	483	485	487	490	493	496	500	505	509	512	516	519	522	525	527	530	532	534	535	537	539	540	541	541	540	540	538	536	533	531	528	525	522	519	515	511	508	505	501	498	495	491	488	485	482	480	477	474	471	466	462	459	456	452	448	445	441	437	436	434	430	427	424	422	420	417	413	413	414	412	409	407	407	405	403	401	400	398	397	394	392	391	389	387	385	383	382	381	380	379	378	375	373	372	372	371	370	369	366	363	362	361	359	359	358	360	362	362	360	358	356	354	354	354	353	352	351	350	350	349	348	346	344	343	342	342	342	342	341	340	338	335	330	327	326	325	324	322	321	318	313	311	311	310	308	306	302	299	296	294	294	295	294	291	288	286	285	285	282	279	278	277	276	275	274	274	273	271	268	265	264	263	261	258	256	253	251	249	248	247	244	240	237	235	233	231	232	232	231	229	229	230	229	228	227	225	222	221	219	214	207	204	204	205	205	204	202	199	195	191	187	184	182	182	183	181	178	177	176	174	173	174	174	172	171	170	170	170	171	174	176	179	179	179	179	179	180	180	180	181	181	181	180	180	181	181	178	175	173	172	170	170	168	163	161	163	165	168	170	169	169	169	169	167	167	174	178	178	177	178	181	184	186	186	187	188	189	191	193	194	193	192	193	194	194	195	196	197	198	199	201	202	202	203	205	207	209	208	207	207	208	209	208	207	207	207	209	210	211	213	214	215	216	217	217	217	217	217	219	222	223	223	223	224	226	227	228	228	228	230	233	233	233	235	236	238	238	239	239	239	238	239	240	241	241	243	245	246	247	249	250	250	250	250	251	254	255	254	254	257	259	260	262	264	267	269	272	274	276	277	277	277	278	279	280	280	281	281	282	282	281	279	277	276	277	281	286	288	289	290	291	292	293	295	296	297	298	299	299	298	298	298	297	296	296	295	293	291	289	288	288	288	287	287	288	287	286	285	283	282	280	278	276	273	271	268	264	261	259	256	252	250	249	248	247	244	242	241	240	239	239	239	237	234	232	232	232	231	229	227	227	227	227	227	225	223	221	218	217	215	213	212	211	207	204	203	206	206	204	203	204	204	203	200	200	202	203	202	201	200	198	198	201	204	205	206	207	207	208	209	210	212	214	216	217	218	219	219	218	216	215	214	208	200	198	197	197	196	196	196	194	191	190	190	189	187	185	184	184	184	183	182	182	181	180	179	179	178	176	175	174	174	173	174	178	176	171	169	167	169	175	178	180	183	185	188	190	191	194	196	199	200	201	201	202	203	205	208	212	215	217	218	216	213	211	211	211	211	213	214	214	214	214	215	217	221	224	228	229	230	230	231	232	232	233	233	232	232	231	231	231	232	232	232	232	231	230	228	225	223	222	222	222	220	220	219	215	209	208	209	210	211	214	213	211	208	207	209	210	211	214	222	223	223	223	222	222	224	224	224	224	225	225	227	228	229	229	228	228	227	225	224	223	222	221	220	220	219	218	218	217	217	217	216	215	214	214	213	211	210	209	207	204	202	203	200	197	195
154	155	156	159	162	163	166	170	173	175	177	179	180	181	182	183	184	185	185	186	187	190	193	196	197	198	198	201	206	209	210	212	214	216	218	220	222	223	223	224	225	228	234	237	237	238	238	238	238	239	239	241	243	244	244	245	246	247	248	250	252	255	258	260	262	265	266	268	270	272	275	277	280	282	285	287	290	293	296	300	303	307	310	314	317	321	325	329	333	336	340	344	346	349	352	355	356	358	361	364	366	370	372	375	378	380	383	386	389	390	392	394	397	400	403	405	408	410	413	415	416	417	417	417	417	419	420	423	425	428	431	433	436	438	439	441	442	444	446	447	448	448	450	451	452	454	456	457	459	461	462	464	465	467	468	470	472	474	476	478	479	481	483	486	490	493	496	500	504	508	512	515	519	522	524	527	529	531	533	534	535	537	538	539	539	539	538	536	534	532	529	526	523	520	517	513	510	507	503	500	497	493	489	485	483	480	478	476	472	468	464	460	456	453	449	446	442	438	435	435	434	432	429	423	419	416	413	410	410	410	407	404	405	405	404	402	400	398	396	394	392	391	389	388	386	385	384	382	381	380	378	377	375	372	371	371	369	369	369	367	365	363	361	359	358	357	359	362	362	361	359	355	353	354	355	354	352	351	351	351	350	348	345	344	343	342	341	341	341	340	339	337	334	328	325	325	325	324	322	320	316	312	310	310	310	309	305	302	299	297	295	295	295	294	291	289	288	286	285	283	281	280	280	278	277	276	276	274	272	269	266	264	263	261	259	257	254	252	250	248	246	244	240	238	235	232	231	232	232	231	229	230	231	229	227	224	221	220	220	219	212	206	205	203	203	203	201	198	195	192	189	186	185	183	183	183	182	180	178	177	175	173	173	173	171	170	170	170	168	167	168	170	172	176	178	179	179	179	180	182	183	183	182	181	180	180	180	177	174	173	172	172	172	171	167	161	159	162	166	167	168	168	167	165	164	165	173	178	180	180	180	182	184	186	187	188	189	189	190	192	193	192	192	193	194	194	194	196	197	198	199	200	201	202	203	204	206	208	208	206	207	208	208	208	207	206	206	207	209	211	212	214	214	215	216	217	217	218	219	219	220	221	222	222	224	225	225	226	228	229	231	233	233	234	234	236	237	237	237	237	237	237	238	240	241	241	242	242	243	244	246	248	249	251	251	252	253	255	255	256	258	260	261	263	266	269	272	275	277	278	279	280	280	281	282	283	284	284	284	284	283	282	281	279	277	277	281	286	287	288	289	290	291	293	295	297	297	298	298	297	296	296	295	294	294	293	292	291	289	287	286	286	285	285	284	285	285	284	282	281	279	278	277	274	272	270	266	263	261	258	254	251	249	248	247	245	242	240	239	238	237	238	237	236	233	232	232	231	229	228	226	225	225	225	224	222	221	220	217	215	214	213	213	211	207	205	204	205	204	203	202	202	203	202	201	200	200	201	201	200	199	197	196	198	200	202	203	204	206	207	208	209	211	213	215	215	216	217	216	217	217	214	211	203	197	196	196	196	196	196	196	194	191	189	190	188	185	184	184	184	183	182	181	181	180	179	179	179	178	176	175	175	175	174	173	174	172	170	168	166	169	176	178	180	182	185	188	190	192	193	194	196	198	199	199	199	200	201	204	208	213	216	216	215	212	211	211	210	210	210	212	213	213	213	213	213	213	214	219	223	225	226	228	228	229	228	228	229	229	228	228	228	229	230	229	228	227	226	225	223	221	219	219	219	216	215	214	211	208	208	208	208	208	207	203	200	199	198	200	202	204	206	211	218	220	220	219	220	222	223	223	223	223	223	224	225	227	227	226	226	225	224	222	221	219	218	217	217	217	216	216	215	215	215	215	215	214	213	212	211	210	208	205	203	201	203	200	197	195
155	156	158	161	163	164	166	170	173	175	177	178	180	182	184	184	186	186	186	186	188	189	192	194	197	199	198	200	204	207	210	212	214	216	218	220	222	223	224	225	226	228	235	238	239	239	239	240	240	242	243	243	245	246	246	246	247	248	250	252	253	256	258	261	262	264	267	268	270	273	275	278	281	283	285	288	291	294	297	300	305	308	311	315	320	323	327	331	335	338	342	345	348	352	355	357	359	361	363	366	368	371	374	377	380	382	385	388	391	392	393	394	397	400	403	405	408	411	414	417	419	420	420	421	421	422	423	425	426	429	432	434	436	438	440	441	443	445	447	448	449	449	450	451	453	455	456	458	459	461	462	464	465	467	468	470	472	473	475	477	479	480	483	486	490	493	497	500	504	508	511	514	518	521	523	526	528	530	532	533	534	535	536	536	537	537	536	535	533	531	528	525	521	519	516	512	508	505	502	498	495	492	488	484	481	479	476	474	470	466	462	459	455	452	450	446	442	438	435	434	434	433	428	421	417	414	410	408	407	406	404	404	405	404	402	400	399	396	394	392	390	389	388	387	386	385	384	382	381	380	378	377	375	373	371	370	368	368	368	367	365	363	360	358	357	357	357	359	361	360	358	354	353	354	356	354	352	351	350	350	349	348	346	346	345	342	341	340	340	339	338	335	331	327	326	327	326	324	322	319	315	312	310	309	309	307	305	301	299	297	297	297	296	294	292	291	290	288	286	284	283	282	281	280	279	278	277	275	273	270	268	265	263	261	259	258	255	252	250	248	246	243	241	239	236	233	232	233	233	231	229	230	231	230	228	222	218	218	220	218	210	206	204	203	202	201	198	195	193	191	188	187	186	184	184	183	182	181	179	179	177	175	174	173	171	171	170	169	168	166	165	167	172	174	177	178	178	178	181	184	184	183	182	181	179	178	177	173	172	172	173	173	172	170	168	165	162	162	163	163	165	167	167	164	162	164	171	178	181	181	182	183	185	186	187	188	189	189	189	190	191	192	192	193	193	193	194	195	196	197	198	199	200	202	203	204	205	207	207	207	207	208	208	207	207	206	205	207	209	210	211	212	213	214	215	216	217	217	219	219	219	220	221	222	224	224	224	225	228	230	231	233	232	231	232	234	236	235	235	234	234	235	237	240	241	241	241	241	242	243	245	246	248	251	252	252	253	255	256	257	259	261	263	265	268	271	274	278	280	281	282	283	284	285	286	286	287	287	287	286	286	285	284	282	281	280	281	283	284	287	290	291	292	294	296	297	298	298	298	297	296	295	295	293	291	290	290	289	287	286	284	283	283	283	282	282	281	280	279	278	276	276	275	274	272	269	265	263	260	256	253	250	248	247	246	243	240	239	238	236	235	236	236	234	233	231	230	229	228	227	225	223	223	223	222	220	220	219	217	214	212	211	210	208	206	205	204	203	202	202	201	201	201	200	200	200	199	199	199	199	198	196	195	196	198	200	200	201	203	207	208	208	209	212	213	214	215	215	213	212	213	208	204	202	199	196	198	199	197	196	197	194	190	189	189	187	185	184	184	183	182	182	181	181	180	180	179	179	178	177	176	176	176	176	175	172	170	170	169	166	169	176	178	180	182	185	188	190	192	192	193	195	196	197	197	197	198	199	201	205	210	212	212	211	211	212	212	211	210	209	210	210	212	213	213	212	212	212	212	213	214	217	221	223	224	223	223	224	224	225	225	225	226	226	225	224	223	222	221	220	219	217	215	212	210	210	207	203	202	202	202	200	198	197	196	195	194	195	196	197	199	200	202	207	214	215	216	217	217	218	219	219	219	217	218	221	223	225	225	225	224	223	222	219	218	216	215	215	214	215	215	214	214	214	215	214	214	213	212	212	210	207	204	201	199	202	199	197	195
155	157	160	163	164	165	167	170	173	175	177	179	182	184	185	185	187	187	187	188	189	191	192	194	197	198	199	200	203	207	210	212	214	216	218	220	222	224	226	228	230	232	235	238	239	239	238	240	242	245	246	246	247	248	248	248	249	251	253	254	254	256	259	261	262	264	267	269	270	273	276	279	281	284	286	289	292	295	298	301	306	310	313	318	323	327	330	333	337	341	344	347	350	354	357	360	362	364	366	368	370	372	375	378	381	384	387	390	392	394	394	395	396	399	402	405	409	412	415	418	421	422	423	423	424	425	426	427	429	431	433	435	438	440	441	442	444	446	448	449	450	450	451	452	453	455	457	458	460	461	462	464	465	467	469	471	472	474	475	477	479	481	483	486	489	493	496	500	503	507	511	514	517	520	523	525	527	529	531	532	533	534	535	535	535	535	534	533	531	529	527	523	520	517	514	511	507	504	500	497	494	491	487	483	480	477	475	472	468	465	461	458	454	452	450	446	443	439	435	434	433	430	425	419	416	413	410	408	406	404	403	404	405	404	401	398	396	395	393	391	389	387	386	385	384	384	383	382	380	379	378	377	375	374	372	370	369	368	368	367	365	363	361	359	358	357	356	356	357	358	357	356	356	356	356	354	352	352	351	350	350	349	348	347	346	343	340	339	338	337	336	333	330	329	328	327	325	321	318	316	314	312	310	309	308	307	304	302	300	299	298	298	297	296	295	294	292	290	287	286	285	284	282	281	280	278	277	275	273	271	269	267	264	261	258	257	254	251	249	247	245	243	241	240	238	236	234	234	233	231	229	229	230	230	229	223	217	218	220	216	209	206	203	201	200	198	196	194	192	190	188	187	186	185	184	183	182	181	180	180	179	178	176	174	173	172	170	169	168	165	163	166	173	176	176	176	176	177	179	182	183	183	182	181	179	178	176	173	172	173	173	173	171	169	169	167	165	163	163	163	164	166	167	166	163	164	169	177	180	181	182	184	185	186	187	188	188	189	190	190	191	192	193	193	192	192	193	194	195	196	197	198	200	201	203	204	204	206	207	207	208	208	207	206	205	204	204	206	208	210	210	211	212	213	214	215	216	216	217	218	218	219	220	222	224	225	224	225	228	229	229	230	229	228	228	231	233	233	232	230	230	232	235	238	240	241	240	241	242	244	245	246	247	250	252	253	254	256	258	259	260	262	264	267	270	273	276	279	282	284	285	286	286	287	288	289	289	290	290	289	288	287	287	286	285	285	285	284	283	287	292	294	295	296	297	299	300	299	299	298	297	296	294	291	289	288	288	287	285	283	282	281	281	281	280	279	278	277	276	275	274	273	272	272	271	268	264	261	258	255	252	250	248	246	244	241	239	238	236	234	233	233	233	232	231	230	228	227	226	225	223	222	221	221	220	219	219	219	217	213	211	210	208	207	205	205	203	201	200	202	202	201	200	199	200	200	199	198	198	198	197	196	195	196	197	198	198	198	200	204	206	206	207	209	210	212	213	213	209	203	202	200	200	201	198	199	203	203	200	196	196	193	189	189	188	186	184	184	183	182	182	182	182	181	181	181	181	180	179	178	177	177	177	177	177	174	172	171	171	168	168	174	177	179	181	184	186	188	190	191	192	193	194	195	195	195	196	198	199	202	205	208	210	210	211	213	216	215	212	210	209	209	210	211	212	212	212	212	211	210	210	210	212	214	215	216	217	219	220	221	221	221	221	220	219	220	219	219	218	216	214	210	205	202	202	206	201	199	198	197	196	195	195	195	194	194	194	194	193	193	194	197	199	202	209	212	214	214	213	212	213	213	213	213	215	217	220	222	223	224	223	223	221	219	218	216	215	214	213	213	213	212	212	212	212	212	211	211	212	211	208	205	202	200	198	199	197	196	195
155	157	160	163	165	166	168	170	173	176	178	181	183	185	185	185	187	188	189	189	191	192	193	195	196	198	199	201	204	208	211	213	215	217	219	220	223	225	228	230	233	234	235	237	238	237	237	240	243	246	247	248	249	250	251	253	254	255	256	256	255	257	260	262	262	265	267	269	271	273	276	279	281	284	288	291	294	296	299	302	307	311	314	319	324	328	332	336	340	343	346	349	352	356	360	362	364	367	369	371	373	374	377	380	382	386	389	391	394	395	396	396	396	399	402	405	409	412	415	419	421	423	424	425	426	427	429	430	432	434	435	437	439	441	442	444	445	446	448	450	450	451	452	453	454	456	457	459	460	461	463	464	466	467	469	471	473	475	476	477	479	481	483	486	489	492	496	499	503	507	510	514	517	520	522	524	526	528	530	531	533	534	534	534	534	534	532	531	530	528	525	522	519	515	512	509	506	502	499	496	492	490	486	482	478	475	473	470	467	464	460	456	453	451	448	445	442	439	435	432	428	426	422	418	415	413	411	409	406	404	404	405	404	402	398	395	394	393	392	390	388	386	385	383	383	382	381	381	380	379	378	376	375	374	372	370	369	368	368	367	365	364	362	360	359	358	357	355	355	356	355	356	357	357	356	355	354	354	354	353	352	351	349	348	346	343	340	338	337	336	334	331	330	331	329	326	322	318	316	315	314	313	311	310	309	307	305	303	301	300	299	299	298	297	297	295	293	290	288	287	287	286	284	282	280	278	277	275	273	272	270	268	265	262	259	255	252	250	248	246	244	243	241	241	240	238	237	235	232	229	228	228	229	229	227	223	220	219	218	212	207	205	202	200	198	197	196	195	193	191	190	188	185	185	184	184	182	181	181	181	180	179	177	175	174	172	170	169	166	162	161	164	172	176	176	175	176	178	179	180	181	182	182	180	178	177	176	174	173	173	173	173	172	170	169	168	165	162	162	161	163	165	167	166	163	164	168	175	179	181	182	183	184	185	186	186	188	189	190	190	191	192	192	192	191	191	191	192	193	193	195	197	199	201	203	204	204	205	207	208	209	208	207	205	204	204	204	205	207	208	209	209	209	210	211	213	215	215	216	218	218	219	220	221	223	224	225	226	227	228	228	228	227	226	227	229	230	230	230	229	229	231	234	237	239	240	240	240	241	243	245	246	248	250	252	254	256	257	259	260	262	263	265	268	271	274	277	281	284	285	287	287	287	288	289	289	291	292	292	291	290	290	289	289	289	289	289	286	285	290	295	297	299	299	300	301	301	301	300	299	298	296	293	291	289	288	287	285	283	281	279	278	278	278	278	277	277	275	274	273	272	270	268	268	267	265	263	260	257	253	251	249	246	245	243	239	237	236	234	231	231	230	230	229	229	228	226	224	224	223	223	221	220	220	219	218	218	219	217	213	210	209	208	206	205	204	202	200	200	201	201	201	200	199	199	199	198	198	198	197	197	195	194	194	196	197	197	197	197	198	200	202	203	205	207	208	209	210	206	202	201	199	197	198	198	201	204	203	199	196	194	191	189	188	187	185	184	184	182	182	182	182	182	182	182	182	182	181	179	177	178	178	178	178	177	175	171	169	168	166	167	171	175	177	179	181	183	185	187	189	190	190	191	192	192	193	194	195	197	198	200	206	209	210	211	213	217	217	217	215	211	209	208	208	209	210	211	211	211	211	211	210	210	210	209	209	210	210	212	212	212	214	214	214	212	212	213	212	211	206	204	202	200	200	202	209	209	206	203	197	196	195	196	195	194	194	193	193	193	192	192	193	195	200	207	210	211	211	211	211	211	211	211	212	213	215	217	219	221	221	221	221	220	218	217	215	211	209	209	207	205	205	203	202	202	203	204	207	210	209	206	203	200	198	196	196	195	194	193
156	157	159	162	165	167	168	170	173	176	178	181	184	185	186	186	187	189	189	190	191	193	194	195	197	199	200	201	205	209	211	213	215	217	219	221	223	226	228	230	232	235	236	236	237	236	236	240	244	246	248	249	250	252	254	257	258	257	258	258	258	260	262	263	263	265	268	270	272	274	277	279	282	285	289	293	295	298	300	303	307	312	315	319	324	329	335	339	343	346	348	351	355	358	361	364	366	369	372	374	376	377	379	382	385	388	390	393	395	397	397	397	398	399	401	404	408	411	415	418	421	423	424	425	426	428	430	432	434	436	437	438	440	442	444	445	447	448	450	451	451	452	453	453	455	456	458	459	461	462	463	465	466	468	470	472	474	476	477	478	480	482	484	487	489	492	495	499	503	507	510	514	517	519	522	523	525	527	529	530	532	534	535	534	533	532	530	529	528	526	523	520	517	514	510	507	504	501	497	494	491	488	485	481	477	474	471	469	466	463	459	456	452	450	447	443	440	438	434	429	425	423	420	417	414	413	411	409	406	404	403	404	402	400	397	394	393	391	390	389	386	384	383	383	382	381	380	380	379	378	376	375	374	373	372	370	369	368	368	366	365	364	363	361	358	357	357	356	356	354	352	353	355	356	356	356	355	355	356	355	354	353	351	349	346	342	340	337	336	335	333	331	331	330	327	324	320	317	316	316	316	314	312	311	310	308	305	304	302	300	299	299	298	298	298	297	294	291	289	289	288	287	285	283	281	279	278	276	274	272	270	269	266	264	260	256	253	251	249	246	244	243	242	242	242	240	239	236	232	229	228	228	228	227	224	222	221	220	218	211	207	205	203	201	199	198	197	195	193	193	193	190	187	185	185	184	183	182	182	182	181	180	178	176	174	171	169	167	163	161	161	163	171	175	177	177	178	180	180	180	181	181	180	178	177	176	174	173	172	173	174	174	173	172	170	168	164	160	159	159	162	165	165	163	162	164	167	171	176	181	182	182	183	184	185	186	187	189	189	190	190	190	190	189	189	189	189	190	191	192	193	195	197	199	201	203	204	205	207	209	209	208	205	204	203	204	205	205	206	207	209	209	209	209	209	211	213	214	215	217	218	219	219	220	222	223	225	226	226	227	227	227	226	226	227	228	229	230	230	231	231	231	233	235	237	239	240	240	241	243	246	247	249	250	252	254	257	259	260	263	264	266	267	270	273	276	279	282	284	286	287	288	288	288	289	291	293	294	293	292	292	291	291	291	291	291	290	289	288	293	297	300	302	302	302	303	303	302	301	300	298	297	294	292	289	288	286	285	283	281	278	276	275	275	275	275	275	274	272	271	270	268	265	263	262	262	262	261	258	254	250	248	246	244	241	238	236	234	232	230	229	229	228	228	228	227	225	223	222	222	222	221	219	218	217	217	217	216	214	211	210	209	208	206	204	203	202	200	200	200	200	200	200	199	198	198	198	199	198	197	196	194	193	193	194	195	196	196	196	196	197	200	201	204	205	205	206	206	206	205	202	199	196	197	200	203	203	201	198	195	193	192	189	187	185	184	184	183	182	181	182	182	182	182	182	182	182	181	178	175	176	178	179	178	176	174	171	167	165	164	165	168	173	175	177	179	181	184	186	187	187	187	188	189	190	190	191	192	195	197	198	204	209	210	210	212	215	216	219	220	216	211	209	208	207	207	208	209	209	210	210	210	210	209	209	208	208	207	207	207	206	206	206	206	205	204	204	204	203	202	201	201	201	202	206	211	211	210	203	196	195	198	203	202	199	197	195	193	193	192	192	191	192	196	204	207	208	208	210	210	211	210	211	211	212	213	215	218	218	219	219	218	216	212	210	206	202	200	199	198	198	199	199	199	199	199	199	203	206	205	203	200	198	196	194	193	193	193	192
158	157	158	160	163	166	168	170	173	175	178	180	183	185	186	187	188	189	190	191	192	193	195	196	197	200	202	202	206	209	212	213	216	218	220	221	223	225	228	230	232	234	236	237	238	238	238	242	245	247	249	250	251	253	256	258	258	257	259	261	263	265	265	265	266	268	270	271	272	274	277	280	282	285	289	293	296	299	302	304	308	312	315	319	323	330	335	340	344	347	350	353	356	360	363	365	368	371	374	377	379	380	382	385	387	390	392	394	397	398	399	400	400	401	402	405	408	411	414	416	419	422	424	425	426	428	430	432	435	436	437	439	441	443	445	446	448	450	451	452	453	453	454	455	456	457	459	460	462	463	464	465	467	469	471	473	475	477	478	480	482	484	486	488	491	494	496	500	504	507	510	514	517	519	521	523	524	526	528	530	532	534	535	534	532	530	528	527	525	523	521	518	515	511	509	505	502	499	495	492	488	486	483	479	475	473	470	467	464	461	458	456	452	448	445	441	439	437	432	428	425	423	420	417	414	413	411	409	406	404	403	403	401	399	397	395	393	390	389	388	386	384	383	383	382	381	380	379	379	377	376	375	374	372	371	370	368	368	367	366	364	363	362	360	358	356	356	356	356	355	353	353	354	355	355	354	353	354	355	354	353	353	352	349	345	342	340	337	335	334	332	331	330	328	325	323	320	318	318	318	317	315	313	311	310	309	307	305	303	301	299	299	299	299	298	297	295	292	291	290	289	287	285	283	282	281	280	278	275	273	270	268	266	265	261	258	256	253	251	249	247	245	245	244	243	242	240	237	233	229	228	227	226	226	223	219	219	219	215	211	209	208	207	204	200	198	197	196	194	194	194	192	190	188	185	185	185	186	185	184	183	181	180	178	174	170	167	165	163	162	161	163	168	173	174	176	178	179	179	180	182	181	178	176	174	173	172	171	169	170	172	173	173	173	171	169	165	161	159	159	162	165	164	162	161	164	167	170	174	179	181	180	181	182	184	184	185	187	188	189	189	188	188	188	187	188	189	189	190	191	191	193	196	198	200	202	204	206	208	209	209	206	204	202	203	204	206	206	206	208	210	211	210	210	209	210	212	213	215	217	218	219	219	221	221	222	223	224	224	225	226	226	226	226	228	229	230	231	232	232	233	233	233	234	236	239	240	240	241	243	246	248	250	251	252	255	258	260	262	265	267	269	271	272	275	278	282	284	285	286	288	288	288	287	288	291	294	295	293	292	292	292	292	293	293	292	292	291	292	296	299	302	305	306	306	305	305	304	303	301	299	297	296	293	291	288	286	284	283	281	278	276	274	274	273	273	273	272	270	269	267	265	263	262	261	260	260	258	256	253	249	247	245	243	240	237	235	233	231	229	227	227	227	227	226	225	223	221	220	220	221	220	219	217	216	215	215	214	212	209	209	207	206	204	202	201	200	200	199	199	199	199	199	198	197	196	198	199	198	196	195	194	193	191	190	192	194	195	195	195	197	200	202	204	205	204	205	205	206	206	204	201	198	199	203	203	203	202	200	196	194	191	187	185	184	184	183	182	182	182	182	182	182	182	182	182	182	181	179	179	181	182	181	178	175	174	172	168	165	164	165	167	169	171	174	178	181	183	184	184	185	186	186	187	187	188	189	191	194	196	198	202	206	207	208	210	212	215	217	219	219	218	217	213	209	208	207	206	207	207	207	208	208	208	208	208	208	207	207	206	206	205	205	205	204	203	203	203	202	202	202	201	202	204	208	209	205	202	197	194	194	196	202	201	202	206	204	198	194	193	192	191	191	192	200	205	205	206	207	208	208	208	209	211	211	211	214	217	217	215	212	209	207	205	203	200	198	198	198	197	198	199	199	199	199	199	199	201	202	202	201	199	196	194	193	192	193	193	192
160	159	158	158	161	164	166	168	171	174	176	178	181	183	185	187	188	189	191	191	193	194	196	197	199	200	202	203	206	209	211	213	216	218	220	221	222	224	226	229	231	233	236	238	239	240	242	244	246	248	249	250	252	253	256	258	257	258	261	263	265	266	266	267	268	269	271	273	274	275	277	281	284	287	289	293	297	301	303	305	308	312	315	318	323	329	335	340	344	348	351	354	357	360	364	367	370	373	376	378	381	383	385	387	390	392	394	396	399	401	402	402	402	402	404	406	408	410	413	415	418	421	423	424	426	427	429	432	434	436	437	439	442	444	445	447	449	451	453	453	454	454	455	456	457	458	460	461	463	464	465	466	468	471	473	474	476	478	480	482	484	486	488	490	493	495	498	501	504	507	510	513	516	518	520	522	524	526	528	530	532	534	534	533	531	528	526	524	522	520	518	515	512	509	506	503	500	496	493	490	486	484	481	477	474	471	469	466	463	460	457	454	450	447	443	439	437	435	432	428	426	425	421	416	414	412	411	408	405	404	403	401	399	398	398	396	393	390	389	388	386	384	382	381	381	381	380	379	378	377	376	375	373	372	371	369	367	366	366	366	364	362	360	359	357	356	355	355	355	356	355	354	354	354	354	352	351	352	352	351	351	352	351	348	343	341	339	337	335	334	332	331	330	327	325	323	321	320	320	320	319	317	314	312	310	309	308	306	304	302	300	300	299	299	299	298	296	295	293	291	290	288	286	284	283	282	281	279	276	273	271	269	267	265	262	260	258	256	254	251	250	249	247	246	245	243	241	238	234	231	228	226	225	225	223	219	216	215	213	211	211	211	211	207	201	199	198	197	195	193	192	192	191	189	186	187	189	190	189	187	185	183	182	181	177	171	167	165	164	162	161	161	163	167	169	172	177	178	178	180	181	179	177	174	173	172	171	170	168	168	169	171	172	172	172	169	166	163	159	158	160	163	163	161	162	164	168	172	175	177	178	179	180	181	182	182	183	184	185	187	187	187	187	188	188	189	189	190	190	191	192	193	195	197	200	202	204	205	207	208	207	205	203	202	203	204	206	207	208	209	211	212	212	211	211	211	212	213	214	216	217	218	219	220	220	220	220	221	222	223	224	225	226	227	229	231	232	233	233	234	234	235	235	235	236	238	239	240	240	243	245	248	250	251	253	256	260	262	264	267	269	271	273	275	276	279	283	284	285	286	287	286	286	287	288	291	295	295	293	292	292	292	293	294	294	294	294	295	297	299	301	304	307	308	308	307	307	307	305	303	301	299	296	294	292	290	288	285	283	281	278	276	275	274	272	271	270	270	269	267	265	263	261	261	260	259	257	254	251	250	248	246	244	241	238	236	234	232	229	227	225	224	224	225	225	222	220	218	217	217	218	219	218	216	214	213	213	211	210	208	207	205	203	201	199	198	198	198	197	197	197	197	197	196	195	195	196	196	195	194	194	193	192	189	188	189	190	192	192	193	196	200	202	204	205	204	204	204	205	205	204	203	200	198	201	203	202	202	202	199	194	188	184	184	184	184	183	182	181	182	182	182	182	182	182	182	182	184	185	187	188	187	185	180	176	175	172	168	164	164	165	166	166	168	172	176	180	182	183	183	184	185	185	186	186	187	189	191	193	195	198	199	200	201	202	204	208	211	213	215	216	218	220	220	216	213	210	207	206	206	205	205	205	205	205	205	205	205	205	205	205	205	204	204	204	203	203	203	202	201	201	201	202	203	205	203	198	196	195	195	194	194	194	194	196	204	204	197	195	193	192	192	193	194	198	202	203	204	204	204	204	204	206	208	209	211	213	214	213	210	205	203	202	203	202	200	200	201	200	198	197	198	198	198	198	199	200	199	199	198	198	196	194	192	191	192	192	192	191
163	162	159	158	160	163	163	165	169	171	173	175	178	180	183	185	187	188	190	191	193	195	196	197	198	199	201	201	203	206	209	211	214	217	219	220	222	223	225	228	230	231	234	237	239	241	243	244	246	247	247	249	252	253	256	259	257	258	261	263	264	266	266	267	268	270	273	275	276	277	279	282	285	288	290	293	297	301	304	306	309	312	315	318	323	329	335	340	344	347	351	354	357	360	364	367	370	374	377	380	382	385	387	390	392	394	396	398	400	402	404	404	404	404	405	407	408	411	412	415	417	420	422	423	425	427	429	432	434	436	438	440	442	444	446	448	450	452	453	455	455	455	456	457	459	460	462	463	464	465	467	468	470	472	474	475	477	479	482	484	487	489	491	493	495	496	499	502	504	507	510	513	515	517	519	521	524	526	528	531	532	533	534	532	529	527	524	522	520	517	515	512	510	507	504	501	498	494	491	488	485	482	479	475	472	470	467	464	462	459	455	452	448	445	441	438	436	435	433	429	427	425	421	417	414	412	411	408	405	403	402	400	399	398	397	395	393	391	390	388	385	383	381	380	380	380	379	378	377	377	377	375	372	371	370	368	366	364	364	364	362	360	358	357	356	354	353	352	354	355	355	354	354	354	353	351	349	349	350	349	349	349	349	347	342	340	339	337	336	335	333	331	329	327	325	323	322	321	321	321	320	318	316	313	311	310	309	308	306	304	303	302	301	301	300	299	298	296	295	292	290	288	286	285	283	282	281	278	276	274	272	270	268	266	263	260	258	257	255	253	251	250	249	246	245	244	241	238	235	232	228	226	226	226	225	221	217	215	213	212	211	212	211	206	202	199	199	200	199	194	191	191	190	188	188	191	192	193	192	189	186	184	183	182	179	173	168	166	165	163	161	160	159	162	166	170	174	177	179	179	178	176	174	172	172	171	171	170	168	165	164	166	168	170	171	169	168	164	159	157	159	160	160	161	163	165	168	171	174	176	177	178	179	180	182	182	182	182	183	184	185	186	187	188	189	190	191	191	191	191	192	194	195	197	199	202	203	204	205	206	205	204	202	202	203	204	206	207	209	210	212	213	213	213	213	212	212	212	214	215	216	216	217	218	218	219	219	220	221	222	224	225	227	228	230	231	232	234	234	235	235	236	236	236	238	240	241	241	241	243	245	247	249	251	253	257	260	263	266	268	270	273	275	276	278	281	283	284	284	284	284	283	283	284	287	290	292	294	292	291	292	293	293	294	296	296	297	298	299	300	302	304	307	309	309	308	308	308	307	305	303	300	297	294	292	292	293	287	282	280	278	276	274	273	271	270	269	268	267	265	263	261	260	259	258	257	254	251	249	247	246	245	243	240	237	235	233	231	228	225	223	222	222	223	222	220	217	216	215	215	215	215	214	213	211	211	210	209	208	206	204	202	200	198	196	196	197	196	195	194	194	194	194	194	193	192	191	192	191	191	192	191	190	188	187	188	189	189	190	190	193	197	200	203	204	203	203	203	203	203	203	201	198	196	198	199	198	201	201	200	194	188	184	184	184	183	183	182	182	182	182	182	182	182	181	182	185	191	191	190	190	189	185	181	178	176	173	167	162	161	163	164	164	166	170	174	178	181	181	181	182	184	184	185	185	187	188	191	193	194	196	197	197	197	197	200	203	205	205	208	211	214	217	219	220	220	220	216	211	209	207	206	205	204	204	204	203	203	203	203	203	203	204	204	203	202	201	201	200	199	198	199	198	198	198	197	196	196	196	198	198	198	198	196	198	199	195	191	191	191	191	198	201	202	201	201	201	200	196	195	197	201	203	205	207	209	211	211	210	205	201	200	201	203	203	202	202	202	201	198	196	198	198	198	198	199	198	197	196	196	194	193	192	190	188	191	190	190	189
166	165	164	162	162	162	162	164	167	169	170	172	174	177	180	183	185	187	188	190	191	192	193	194	195	197	199	200	201	203	206	209	212	216	218	220	221	222	224	228	230	230	233	237	239	241	243	244	244	245	246	248	251	253	256	259	259	259	261	263	265	266	267	269	270	272	274	276	277	278	280	283	286	288	291	293	296	299	303	307	310	313	316	320	324	329	334	339	343	346	350	353	356	360	363	366	370	373	376	380	383	386	389	392	394	396	398	400	402	404	405	406	406	406	407	408	410	411	413	415	417	419	421	423	425	427	429	431	434	436	438	440	442	444	446	449	451	453	454	455	456	456	457	459	461	463	464	465	466	467	468	470	471	473	474	476	479	481	483	486	488	491	493	495	497	498	500	502	505	507	510	512	515	517	519	522	524	526	529	531	532	533	532	530	528	525	522	520	517	514	512	510	507	504	501	498	495	492	489	486	483	481	477	474	471	468	465	462	460	457	453	450	448	444	440	437	435	435	434	431	427	424	421	417	414	412	410	408	406	404	402	402	401	399	398	396	393	392	391	388	385	382	381	380	379	378	378	377	376	375	374	372	370	369	368	367	366	364	363	363	359	356	356	356	355	353	352	351	352	353	352	352	352	353	353	350	349	349	349	348	347	347	347	345	342	341	340	338	337	336	334	332	331	328	326	324	323	323	322	321	320	320	319	316	313	311	310	309	308	306	305	304	302	301	301	300	298	297	295	293	290	288	286	285	284	282	280	277	275	274	273	272	269	267	264	261	259	258	256	253	252	251	249	246	245	244	241	238	235	232	230	228	228	227	226	223	220	218	214	211	211	211	208	206	204	200	199	202	203	199	193	191	190	189	190	194	194	194	193	191	188	185	183	182	179	174	170	168	166	164	161	159	158	160	166	171	172	175	178	178	176	174	172	171	171	172	171	170	166	160	161	165	167	169	170	170	169	165	159	158	159	159	159	161	162	164	166	169	172	174	176	177	178	179	181	182	182	182	183	184	185	186	188	190	191	191	191	191	192	192	192	194	195	196	198	201	203	203	203	204	204	203	202	201	201	203	205	207	209	210	212	214	214	214	214	212	212	212	213	214	214	214	216	216	217	218	220	222	222	223	225	226	228	229	230	231	233	234	235	236	236	236	236	237	238	241	242	242	242	244	246	247	249	251	254	256	259	263	267	269	271	273	275	277	279	281	282	283	283	282	281	279	280	282	285	288	289	290	289	290	291	292	293	295	297	298	299	300	301	302	303	305	308	310	310	310	309	309	308	306	304	301	298	295	292	291	291	286	282	280	278	276	273	271	270	269	269	268	267	264	262	260	259	258	256	255	252	250	249	247	245	244	241	238	237	236	233	231	228	225	223	221	220	220	220	219	216	215	214	214	213	212	211	210	209	208	208	206	206	204	202	200	198	195	194	195	195	195	193	191	191	191	192	192	190	188	187	187	188	188	188	188	187	187	187	187	187	187	188	189	190	193	197	200	202	202	201	201	202	202	201	198	195	197	198	197	195	196	197	195	192	188	186	185	184	183	183	183	182	182	182	182	182	182	182	184	190	193	192	191	191	190	186	181	179	176	174	167	160	159	159	161	162	164	168	172	176	178	178	179	181	182	183	184	185	186	189	191	192	193	193	194	195	195	196	199	202	203	202	204	208	212	215	217	218	221	224	223	220	217	214	213	212	207	205	204	204	203	203	203	203	205	207	207	205	203	200	199	199	199	199	198	198	199	200	200	202	201	201	203	204	203	203	202	202	201	197	191	190	189	189	192	198	201	202	203	202	197	189	188	189	193	198	201	203	205	207	207	207	204	200	200	200	203	204	203	203	202	201	198	197	201	201	199	199	198	196	195	194	193	191	190	188	188	187	190	189	187	187
167	167	167	167	167	165	163	165	167	169	169	169	170	172	175	178	182	184	185	186	187	188	190	191	193	195	197	199	201	202	205	207	211	214	217	219	221	222	224	229	231	232	234	236	238	241	242	243	244	245	246	248	250	253	257	261	261	261	263	264	265	267	268	270	272	274	276	277	278	279	281	283	286	288	291	293	295	297	301	306	310	313	316	320	324	328	333	338	342	345	349	352	355	359	362	365	369	372	376	380	383	387	390	393	395	397	399	401	403	405	406	407	408	408	409	410	411	412	414	415	417	419	421	423	426	428	430	432	434	436	439	441	442	445	447	449	451	453	455	456	457	457	458	460	462	464	466	467	467	469	470	471	472	474	476	478	480	483	485	487	490	493	496	498	499	501	502	504	506	508	510	513	515	517	519	522	525	527	529	531	532	532	531	529	526	524	521	518	515	513	510	508	505	502	499	496	493	491	487	485	482	479	476	473	470	467	464	461	459	455	451	449	448	444	439	436	436	435	434	431	426	423	420	417	414	412	410	408	406	405	404	404	403	400	398	396	394	393	392	389	386	384	382	380	379	377	377	376	374	372	371	369	368	367	367	366	365	364	362	361	357	353	354	355	354	353	351	350	351	351	350	350	351	351	352	351	350	349	348	347	346	346	345	344	342	342	342	339	337	337	335	334	333	330	327	325	324	324	323	322	321	320	320	318	315	313	312	311	310	308	306	305	303	302	301	300	299	297	295	292	290	289	287	286	284	282	279	277	276	275	274	272	270	268	266	263	260	258	256	254	252	251	249	247	246	244	241	238	235	233	232	231	230	228	226	224	223	221	216	212	211	210	208	207	205	202	201	202	202	200	194	191	191	190	192	194	195	194	193	191	189	187	184	182	180	176	171	170	169	167	163	160	157	158	161	168	171	173	176	176	175	174	174	172	171	170	169	164	160	158	161	166	168	169	170	169	168	165	161	160	159	159	160	161	162	164	165	168	170	172	174	175	176	178	179	181	182	183	184	185	186	188	189	191	192	192	192	192	193	192	192	193	194	196	197	199	201	202	202	203	203	202	201	200	200	202	204	206	208	209	212	214	214	214	213	212	212	211	211	212	212	213	214	215	215	217	219	222	223	225	226	227	228	230	231	232	234	235	235	236	236	236	237	237	238	241	243	243	243	246	247	248	249	251	254	257	259	263	267	269	271	273	275	277	278	279	280	281	281	279	276	275	277	279	282	285	286	287	286	286	288	289	291	294	297	299	300	301	303	304	305	306	309	311	311	311	310	309	308	307	305	302	299	295	292	289	286	284	282	280	278	275	273	271	269	268	268	267	266	263	260	259	258	256	254	253	251	250	248	246	244	242	240	238	237	236	234	231	228	226	223	221	219	219	218	217	215	213	213	212	211	210	209	208	207	206	206	205	204	203	201	200	197	195	194	194	194	194	192	190	190	190	190	190	188	186	185	185	186	185	185	185	184	184	185	184	183	183	185	187	188	191	194	197	199	200	200	199	199	199	199	196	195	198	200	197	194	193	193	192	191	189	187	185	184	183	183	183	183	183	182	182	182	182	182	183	188	190	190	190	191	192	188	181	177	175	173	168	162	159	158	159	160	162	166	170	173	174	175	178	180	181	183	183	184	186	188	190	191	192	191	192	193	194	196	198	200	200	200	203	209	212	213	214	215	215	217	217	217	217	217	217	216	211	207	207	206	206	206	206	207	208	209	209	207	206	205	203	203	203	202	202	204	206	208	207	207	206	205	205	205	205	204	203	204	204	203	197	191	189	189	188	189	192	198	203	203	196	188	187	187	188	191	196	200	198	195	198	202	200	200	200	202	203	204	203	203	202	201	198	198	205	208	205	201	198	196	194	192	190	189	187	186	186	185	188	187	186	185
169	169	169	169	170	168	167	167	169	170	169	168	168	169	172	174	177	180	181	182	184	187	189	191	193	195	197	199	201	202	205	208	211	214	217	220	221	222	224	228	232	234	235	236	238	240	242	242	243	245	246	248	249	253	258	262	263	263	264	265	266	267	269	271	273	275	277	278	280	281	282	284	287	289	291	293	295	297	300	304	309	313	316	320	322	327	332	336	341	345	348	351	355	358	361	364	368	371	375	380	384	388	391	394	397	399	401	402	404	406	408	409	409	410	410	411	412	413	414	415	417	419	421	423	425	428	430	433	435	437	439	441	443	445	448	450	452	454	456	457	457	458	459	461	463	465	466	467	468	470	471	472	473	475	477	479	482	485	487	489	492	495	498	500	502	503	504	505	507	509	511	513	516	518	520	523	525	528	530	531	532	531	529	527	525	522	519	516	514	511	509	506	503	500	497	495	492	489	486	483	481	478	475	472	469	465	462	460	457	454	450	449	448	444	440	438	437	436	434	429	425	422	419	417	414	412	410	408	406	405	405	404	403	401	398	396	394	394	392	389	387	385	383	381	379	378	376	374	372	370	370	369	368	366	365	364	363	362	361	359	355	353	353	353	353	352	349	348	348	350	350	349	349	350	351	351	351	350	348	346	345	345	344	343	342	342	343	341	338	337	336	334	333	331	328	326	325	324	323	322	322	321	321	319	316	314	313	312	311	310	308	306	304	303	302	301	299	297	294	292	290	289	288	286	285	282	279	277	276	275	274	272	270	269	266	263	261	259	256	253	252	251	250	248	248	245	241	238	236	234	233	232	231	228	225	224	224	222	220	214	210	209	209	209	208	208	207	205	202	199	195	192	193	192	192	194	195	194	192	190	190	188	184	182	182	178	172	170	170	169	166	163	158	157	157	161	167	170	174	174	174	175	175	173	171	169	167	160	158	158	161	166	167	168	169	169	168	165	162	161	160	161	162	162	162	164	165	167	168	170	172	174	175	177	179	180	182	183	185	187	188	189	190	192	192	192	193	193	193	193	191	192	193	194	194	196	199	201	201	201	202	201	200	198	198	200	203	206	207	209	211	212	213	213	212	212	212	211	211	211	212	212	213	215	215	216	218	221	224	227	227	227	228	230	232	234	235	235	235	235	237	238	238	238	239	241	242	243	244	247	248	249	250	251	255	257	259	263	266	269	271	273	275	276	276	277	278	279	277	274	272	271	274	276	277	279	280	281	283	284	285	286	289	293	297	299	301	303	304	306	307	308	310	311	311	311	310	310	309	307	305	302	299	296	292	288	285	283	281	279	277	275	272	270	268	267	266	265	263	260	258	258	257	254	252	251	250	249	247	245	243	241	240	238	237	236	233	230	228	226	224	222	219	217	216	215	213	212	211	210	209	208	207	207	206	205	205	205	203	202	200	200	198	195	194	194	193	192	191	190	188	188	188	188	187	185	184	184	184	183	183	182	182	182	183	182	180	178	181	186	188	189	192	194	196	197	197	196	195	195	194	194	194	196	197	194	191	191	191	191	190	189	187	185	183	183	183	183	183	183	183	183	183	183	182	182	184	186	186	187	189	191	190	182	176	175	173	170	165	160	158	158	159	160	165	168	170	172	173	177	179	181	182	182	183	184	187	188	189	190	189	190	191	193	195	197	198	197	197	203	210	212	212	212	213	214	214	213	213	213	214	213	210	208	207	207	207	207	207	208	208	208	209	208	207	207	208	207	207	206	205	205	205	207	208	208	207	206	205	204	204	204	204	204	203	203	203	202	198	194	190	188	187	187	189	196	202	200	191	187	186	186	186	191	198	198	193	190	194	198	200	202	204	204	202	202	201	200	199	198	197	204	209	207	201	197	195	193	191	190	188	186	184	183	181	186	186	184	183
171	171	171	171	171	171	171	171	172	172	172	171	171	171	172	171	173	176	177	180	183	186	189	191	194	196	198	201	202	204	207	209	211	213	217	220	222	222	224	229	232	234	236	238	238	240	241	242	243	245	247	248	250	253	258	262	263	264	265	266	267	268	270	272	274	276	278	280	282	283	284	286	288	290	292	294	296	298	300	304	308	312	316	320	322	325	330	334	339	344	348	351	355	358	361	364	368	371	376	380	385	388	392	395	397	400	401	403	404	406	408	410	411	412	412	412	412	413	414	415	416	418	420	422	424	427	429	432	435	437	439	441	442	445	447	450	452	454	456	457	457	458	459	461	463	464	466	467	468	470	471	472	474	476	478	481	484	486	488	491	494	497	500	502	504	505	506	507	508	510	512	514	516	519	521	524	526	528	530	531	531	530	528	525	523	520	518	515	513	510	507	505	502	499	496	493	491	488	485	483	480	477	474	471	467	464	462	460	457	454	450	448	446	444	441	439	438	435	432	428	424	421	419	417	415	413	411	409	407	406	405	403	402	400	398	396	395	394	392	390	388	387	384	382	381	378	375	372	371	370	371	370	367	364	363	361	360	359	359	358	355	353	352	352	351	350	349	347	347	347	348	348	348	349	350	350	350	349	347	345	344	343	343	342	341	340	342	341	339	337	334	332	332	331	329	327	326	325	324	323	322	322	321	320	317	315	314	313	312	311	309	307	306	304	303	301	299	297	294	292	290	289	288	286	285	282	279	277	272	269	271	272	270	269	266	264	261	259	256	253	252	251	250	249	248	246	241	238	237	235	234	232	230	226	224	225	225	223	221	215	210	210	210	210	211	213	212	210	206	203	199	195	193	192	192	193	194	193	191	190	190	188	184	182	182	180	174	170	169	168	168	165	161	158	157	159	163	168	171	172	173	173	173	172	171	170	167	164	162	161	162	166	167	166	167	168	168	165	163	162	162	162	163	163	163	163	164	165	167	168	170	172	174	176	179	181	182	183	185	187	189	189	190	191	192	193	193	193	193	192	190	190	190	191	191	193	195	198	199	199	200	200	199	198	198	200	203	205	207	209	210	211	212	212	213	213	213	214	214	213	213	212	214	215	216	217	219	222	225	227	227	227	228	231	233	234	235	235	235	236	237	238	239	239	240	241	242	242	245	247	249	250	251	252	255	257	259	262	265	268	270	272	273	275	275	275	276	275	273	271	269	270	273	274	274	275	276	277	281	283	284	285	288	292	296	299	301	303	305	307	308	309	310	311	312	311	310	309	308	306	304	302	299	296	292	289	285	283	281	278	276	273	272	270	268	266	264	262	260	258	257	256	255	252	250	249	249	248	246	244	242	240	239	237	236	235	232	229	227	225	224	222	220	217	215	213	210	209	209	208	208	207	206	205	205	204	204	203	202	200	199	199	198	195	194	193	191	191	190	188	186	186	186	185	184	183	182	182	182	182	181	181	181	182	181	180	178	176	179	184	187	188	189	190	192	193	193	193	191	190	189	190	192	193	194	192	190	189	189	189	189	188	186	184	183	183	183	183	183	183	183	184	184	183	183	182	183	185	186	185	186	189	190	185	179	176	172	170	166	161	158	157	157	160	163	165	167	168	170	174	177	180	182	182	182	183	184	186	186	187	187	187	189	191	193	195	195	195	196	201	208	210	211	211	212	213	212	212	212	212	212	210	206	203	203	204	204	205	205	206	206	207	207	207	206	206	207	206	205	206	206	205	204	204	205	205	204	203	202	201	201	201	202	203	202	201	200	200	201	200	197	192	188	187	186	188	193	196	193	190	188	185	185	187	194	198	197	192	190	195	202	204	204	202	199	199	199	198	198	197	197	198	203	204	200	196	193	191	190	189	187	185	182	179	178	183	183	181	178
174	174	173	173	173	173	174	175	176	176	175	175	174	174	173	172	173	175	176	179	183	186	189	192	195	197	200	203	205	206	208	210	211	213	216	219	222	224	226	230	232	235	237	239	240	241	241	242	244	246	247	249	251	254	258	261	263	264	265	266	267	269	271	273	276	278	279	281	283	284	286	288	290	292	293	295	297	299	301	304	308	312	316	319	322	325	328	333	338	343	347	350	354	357	360	364	367	372	377	381	385	389	392	395	398	400	402	403	405	407	409	410	412	413	413	413	413	413	414	415	416	417	419	421	423	425	428	431	434	436	438	440	442	444	446	449	451	454	455	456	457	458	459	460	462	464	465	466	468	469	471	473	475	477	479	482	484	487	489	492	495	498	501	503	505	505	506	507	509	511	513	515	517	519	521	524	526	528	529	530	529	528	526	524	521	519	516	514	511	509	506	503	500	498	495	492	489	487	484	482	479	475	473	470	466	464	463	461	458	454	450	447	445	443	441	439	437	435	431	429	427	423	421	419	418	415	412	410	408	407	405	403	402	400	398	397	396	394	393	391	390	388	385	383	380	378	375	372	371	371	372	370	367	364	362	360	358	357	357	356	354	352	351	350	349	348	348	347	345	345	345	346	346	348	349	349	349	349	347	345	343	342	342	341	340	338	339	340	339	336	333	332	332	332	330	328	327	326	325	324	323	323	323	321	318	316	315	315	313	311	310	308	306	305	303	301	299	297	294	292	290	289	288	286	284	282	279	277	271	267	271	272	271	269	266	263	261	259	256	253	252	251	249	247	247	244	241	239	238	236	234	232	229	226	224	225	226	225	221	216	211	211	211	211	212	213	213	212	210	207	204	201	196	192	192	192	193	192	191	190	189	187	184	183	183	181	176	172	170	170	169	165	161	160	158	158	160	164	168	170	171	171	171	171	171	170	169	168	167	166	164	166	167	165	165	166	166	165	162	162	162	163	163	162	162	162	163	164	165	167	169	172	173	175	178	180	182	184	186	188	189	190	191	192	192	193	193	193	192	191	189	189	188	188	189	190	192	194	196	198	199	199	198	198	199	201	203	205	207	208	209	210	211	213	214	215	216	216	216	215	214	214	215	216	218	219	221	223	225	226	228	228	229	231	233	234	235	236	236	237	238	239	239	240	241	241	241	242	245	248	249	250	251	253	255	258	260	262	265	267	269	270	271	273	273	271	271	271	270	268	268	270	272	274	273	273	274	275	279	282	283	285	288	291	295	299	302	304	306	308	308	308	309	311	312	312	311	309	307	304	302	299	297	295	292	289	285	282	280	277	275	272	271	269	267	265	263	261	260	258	257	255	253	251	249	247	247	245	244	243	241	239	238	237	235	233	231	228	226	223	222	222	220	217	214	211	208	207	206	206	205	205	204	204	203	201	201	201	200	199	198	198	197	195	194	191	189	189	189	185	183	183	184	184	182	181	180	180	179	179	180	180	181	181	180	178	176	175	178	183	186	187	188	188	187	188	189	190	189	188	186	189	191	193	195	195	191	189	189	189	188	187	185	184	183	183	183	183	183	183	183	183	183	183	183	182	183	184	184	183	184	187	187	185	183	178	171	168	166	162	157	156	157	160	162	163	164	164	165	169	173	177	180	181	181	181	182	183	183	184	185	186	187	189	192	193	193	194	195	198	205	208	208	209	210	210	210	210	211	210	209	207	203	199	198	198	198	197	196	196	199	202	204	204	204	204	205	204	203	204	204	203	201	201	202	202	201	200	199	198	198	198	199	199	199	198	197	197	199	200	200	198	194	189	186	186	186	187	190	194	189	185	185	185	187	194	197	195	191	192	199	202	202	200	198	197	198	197	197	197	196	196	198	199	197	195	191	189	187	186	185	183	180	177	175	179	176	172	170
176	176	176	176	176	176	177	179	180	179	178	177	177	177	177	177	178	177	177	180	183	186	190	193	195	199	202	205	207	208	209	211	212	214	216	219	222	225	228	230	232	235	238	240	241	242	242	244	245	246	247	250	252	255	257	260	262	264	265	266	268	270	272	275	277	279	281	282	284	286	288	290	292	293	295	296	298	300	302	304	308	311	315	318	321	325	328	332	336	341	345	348	352	356	360	363	367	371	376	381	385	388	392	395	397	400	402	404	406	407	409	411	413	414	414	413	413	413	414	415	416	418	419	421	423	425	427	430	433	435	437	439	441	443	445	448	450	452	454	455	456	457	459	460	461	463	464	465	467	469	471	473	475	477	479	482	484	487	489	493	496	499	501	504	505	505	506	507	509	511	513	515	517	519	521	523	526	527	528	528	528	527	525	523	520	518	515	513	510	508	505	503	500	497	494	491	488	486	484	482	478	475	473	470	467	464	463	460	457	454	451	448	445	444	441	439	438	436	434	432	430	427	424	422	421	418	414	412	410	409	406	404	402	400	398	398	397	395	392	391	389	388	385	382	379	376	374	374	372	371	371	371	368	365	362	360	358	357	356	355	353	351	349	348	348	347	347	346	345	344	343	343	344	345	347	347	347	347	346	345	344	342	340	340	339	337	337	338	338	335	332	332	333	332	330	329	328	327	326	325	323	323	322	320	318	316	316	316	315	312	311	309	307	306	304	301	299	297	294	292	290	289	288	286	284	281	279	277	274	271	272	272	270	268	266	263	261	259	256	254	252	250	248	246	244	243	241	240	238	235	233	232	230	227	225	225	226	225	222	217	215	214	213	212	213	214	214	213	211	209	207	205	200	195	192	192	192	192	191	190	188	186	184	184	184	182	178	175	173	171	169	164	161	160	157	156	157	159	164	166	167	169	170	170	170	170	169	168	168	166	164	164	165	165	164	164	164	162	160	161	162	164	164	162	160	161	162	163	165	167	170	173	174	175	177	179	182	184	186	187	189	189	190	192	193	194	194	193	192	190	189	188	187	187	188	188	190	192	195	197	198	198	198	199	201	202	204	205	206	208	209	210	211	213	215	217	217	217	217	217	216	216	217	218	219	220	222	223	225	227	228	230	230	231	232	234	235	236	237	238	239	240	240	241	241	242	242	243	246	248	249	251	252	253	256	258	260	262	264	266	267	268	269	270	269	267	266	267	267	267	268	270	271	272	272	271	272	274	278	282	284	285	287	290	296	301	303	304	307	308	308	307	308	310	311	310	309	307	304	301	299	296	294	292	290	287	284	281	279	277	275	272	270	269	267	265	263	262	260	257	255	253	252	250	248	246	244	242	241	240	239	238	238	236	235	233	230	228	225	223	222	221	219	217	214	211	207	205	204	203	203	202	202	202	200	198	197	198	198	199	199	198	196	194	193	190	187	187	186	184	181	182	183	183	182	180	180	179	177	176	177	178	179	179	178	176	174	174	176	181	186	186	185	185	185	185	185	186	185	183	180	187	191	194	196	196	191	188	188	188	187	185	183	182	182	183	183	183	183	183	183	183	183	183	183	182	182	182	182	182	184	186	186	185	184	180	171	167	166	162	157	156	158	161	161	161	162	163	163	164	168	175	178	180	180	181	181	181	181	182	183	184	186	188	189	190	191	193	194	195	200	204	205	206	207	207	207	208	209	208	206	204	201	197	196	194	193	191	189	191	196	200	201	202	202	203	204	203	201	201	202	202	200	199	200	200	199	199	198	197	197	196	196	196	197	197	197	197	197	198	200	199	197	193	189	186	185	185	186	190	187	185	185	185	185	191	197	198	193	191	193	197	198	198	197	196	196	196	196	196	195	194	195	194	193	191	190	187	185	183	181	180	178	175	173	173	171	170	170
