45	45	45	45	45	45	45	45	45	45	45	45	45	45	45	45	45	45	45	45	44	44	46	49	52	55	58	61	65	68	70	73	76	78	80	80	79	78	77	76	75	75	76	78	80	81	81	81	81	81	80	80	79	79	78	76	73	72	70	68	65	63	63	62	61	60	59	58	60	63	68	73	75	76	79	82	85	88	91	94	97	99	102	104	105	105	105	105	105	105	105	106	106	106	105	104	102	99	94	91	87	84	81	78	75	73	71	68	65	63	61	60	58	56	55	53	51	48	46	45	45	45	45	45	45	45	45	45	45	45	45	45	45	45	45	45	45	45	45	45	45	45	45	45	45	45	45	45	45	45	45	45	45	45	45	45	45	45	45	45	45	45	45	45	45	45	45	45	45	45	45	45	45	45	45	45	46	48	50	53	55	58	62	67	71	73	75	78	80	83	85	87	90	92	93	94	94	93	93	92	92	91	91	90	89	87	85	82	79	77	74	72	70	70	69	69	68	66	66	69	72	74	75	75	76	76	76	75	74	73	72	71	68	67	72	78	83	86	90	92	94	97	98	99	99	100	102	104	105	108	110	112	113	115	116	118	120	121	121	122	122	123	124	124	124	124	123	123	123	123	124	125	126	127	129	129	130	131	131	131	132	133	133	133	134	135	136	137	138	137	136	135	135	135	134	134	133	132	132	131	130	129	128	126	123	122	121	122	123	123	124	124	123	121	120	117	116	114	112	110	108	106	105	103	99	96	93	90	87	85	84	82	79	76	72	70	67	65	64	63	62	61	61	60	60	60	61	63	67	72	73	74	76	76	75	75	76	77	78	78	78	78	78	78	79	80	81	81	80	77	75	72	69	67	65	62	58	54	52	50	48	46	44	43	41	39	39	41	46	49	53	56	58	60	62	64	65	68	70	74	76	78	81	83	86	89	91	92	95	98	102	104	106	108	109	108	109	112	115	117	118	118	118	118	119	120	122	127	129	128	127	128	131	133	133	132	131	129	128	127	125	123	120	118	116	113	111	108	105	101	97	93	90	86	81	77	74	70	65	61	58	54	50	47	44	41	38	36	33	30	27	25	22	19	17	17	16	15	14	15	15	16	15	16	17	17	17	18	18	20	22	23	25	27	29	31	33	35	37	39	41	43	45	46	48	50	53	55	58	62	65	67	69	72	74	78	81	83	84	86	88	89	90	91	91	91	91	91	92	93	94	95	95	95	94	94	92	91	89	89	88	87	87	86	86	86	85	85	85	83	81	80	78	77	76	75	74	73	71	69	67	65	62	60	57	53	50	49	52	56	59	62	65	68	71	73	76	78	79	79	79	77	75	74	74	76	78	80	82	82	83	84	84	86	89	92	93	94	96	97	98	99	100	102	105	107	110	114	117	120	123	126	128	128	129	128	128	127	126	125	125	125	126	126	127	127	126	124	123	121	121	120	118	115	113	109	106	103	100	98	95	94	93	93	92	90	89	87	86	84	82	80	79	76	73	70	65	60	55	51	45	30	11	6	6	4	3	2	1	0	0	0	0	0	0	0	0	0	0	0	0	0	0	0	0	0	0	0	0	0	0	0	0	0	0	0	0	0	0	0	0	0	0	0	0	0	0	0	0	0	0	0	0	0	0	0	0	0	0	0	0	0	0	0	0	0	0	0	0	0	0	0	0	0	0	0	0	0	0	0	0	0	0	0	0	0	0	0	0	0	0	0	0	0	0	0	0	0	0	0	0	0	0	0	0	0	0	0	0	0	0	0	0	0	0	0	0	0	0	0	0	0	0	0	0	0	0	0	0	0	0	0	0	0	0	0	0	0	0	0	0	0	0	0	0	0	0	0	0	0	0	0	0	0	0	0	0	0	0	0	0	0	0	0	0	0	0	0	0	0	0	0	0	0	0	0	0	0	0	0	0	0	0	0	0	0	0	0	0	0	0	0	0	0	0	0	0	0	0	0	0	0	0	0	0	0	0	0	0	0	0	0	0	0	0	0	0	0	0	0	0	0	0	0	0	0	0	0	0	0	0	0	0	0	0	0	0	0	0	0	0	0	0	0	0	0	0	0	0	0	0	0	0	0	0	0	0	0	0	0	0	0	0	0	0	0	0	0	0	0	0	0	0	0	0	0	0	0	0	0	0	0	0	0	0	0	0	0	0	0	0	0	0	0	0	0	0	0	0	0	0	0	0	0	0	0	0	0	0	0	0	0	0	0	0	0	0	0	0	0	0	0	0	0	0	0	0	0	0	0	0	0	0	0	0	0	0	0	0	0
45	45	45	45	45	45	45	45	45	45	45	45	45	45	45	45	45	45	45	45	45	45	46	48	51	54	56	60	64	68	71	74	77	80	81	80	79	79	78	77	77	76	77	79	80	82	82	82	82	83	83	83	82	81	80	78	76	74	73	72	69	67	66	65	64	63	61	60	62	65	69	73	76	79	81	84	87	90	92	95	98	101	104	105	106	107	107	106	106	106	107	108	108	108	107	105	104	100	96	92	89	86	83	80	77	75	73	71	69	66	64	63	61	59	57	55	53	51	49	47	45	45	45	45	45	45	45	45	45	45	45	45	45	45	45	45	45	45	45	45	45	45	45	45	45	45	45	45	45	45	45	45	45	45	45	45	45	45	45	45	45	45	45	45	45	45	45	45	45	45	45	45	45	45	45	45	46	48	51	54	57	59	63	68	71	73	75	78	80	82	84	87	89	90	91	92	92	91	90	89	89	88	88	87	86	84	83	81	78	75	73	70	69	68	67	66	64	61	62	67	70	72	73	73	73	73	73	72	71	71	69	66	65	66	71	77	82	86	91	93	95	97	98	98	99	100	102	104	105	108	110	112	113	115	117	119	120	120	120	121	122	122	122	122	123	123	122	122	121	121	123	124	126	128	129	130	131	131	132	132	133	134	135	135	135	136	137	138	139	138	137	136	136	136	136	136	135	135	135	134	134	132	130	128	125	124	124	124	125	125	126	125	125	123	121	120	118	116	114	112	110	108	106	104	101	99	96	93	90	87	85	83	81	78	74	72	70	68	66	65	65	64	63	62	62	62	63	65	68	74	76	76	78	80	79	78	78	79	81	81	81	80	80	80	80	81	82	82	81	79	77	75	71	68	65	61	57	55	53	52	51	49	47	45	44	42	40	42	45	49	52	55	58	60	62	64	66	68	70	73	76	78	80	83	85	88	90	91	93	96	100	103	106	109	110	110	111	113	116	119	121	122	121	120	120	121	123	128	133	133	132	132	133	135	134	132	131	130	129	127	125	122	119	117	115	113	110	107	104	100	96	92	89	85	80	76	72	68	63	60	56	52	49	46	43	40	38	35	32	30	28	25	22	18	17	16	15	15	15	16	16	16	16	16	17	17	18	18	19	20	22	24	26	28	30	32	34	36	38	40	42	44	46	47	49	51	54	56	59	62	65	68	70	73	76	79	82	84	86	87	89	90	91	92	92	92	92	92	93	93	94	94	94	94	93	92	91	90	89	89	89	88	88	88	87	87	87	86	85	83	81	80	80	78	77	76	75	74	72	70	68	66	63	61	58	55	52	49	52	58	61	64	66	69	72	74	78	79	80	81	81	80	77	75	76	77	79	81	83	84	85	85	86	88	91	93	95	96	98	99	100	101	102	105	107	110	113	116	119	122	124	127	128	130	131	130	130	128	127	126	126	126	126	126	125	125	124	123	121	119	118	117	115	112	110	107	104	102	99	97	96	95	95	94	93	91	89	87	85	83	81	79	77	74	71	67	62	57	52	48	40	20	7	6	5	4	2	1	0	0	0	0	0	0	0	0	0	0	0	0	0	0	0	0	0	0	0	0	0	0	0	0	0	0	0	0	0	0	0	0	0	0	0	0	0	0	0	0	0	0	0	0	0	0	0	0	0	0	0	0	0	0	0	0	0	0	0	0	0	0	0	0	0	0	0	0	0	0	0	0	0	0	0	0	0	0	0	0	0	0	0	0	0	0	0	0	0	0	0	0	0	0	0	0	0	0	0	0	0	0	0	0	0	0	0	0	0	0	0	0	0	0	0	0	0	0	0	0	0	0	0	0	0	0	0	0	0	0	0	0	0	0	0	0	0	0	0	0	0	0	0	0	0	0	0	0	0	0	0	0	0	0	0	0	0	0	0	0	0	0	0	0	0	0	0	0	0	0	0	0	0	0	0	0	0	0	0	0	0	0	0	0	0	0	0	0	0	0	0	0	0	0	0	0	0	0	0	0	0	0	0	0	0	0	0	0	0	0	0	0	0	0	0	0	0	0	0	0	0	0	0	0	0	0	0	0	0	0	0	0	0	0	0	0	0	0	0	0	0	0	0	0	0	0	0	0	0	0	0	0	0	0	0	0	0	0	0	0	0	0	0	0	0	0	0	0	0	0	0	0	0	0	0	0	0	0	0	0	0	0	0	0	0	0	0	0	0	0	0	0	0	0	0	0	0	0	0	0	0	0	0	0	0	0	0	0	0	0	0	0	0	0	0	0	0	0	0	0	0	0	0	0	0	0	0	0	0	0	0	0
45	45	45	45	45	45	45	45	45	45	45	45	45	45	45	45	45	45	45	45	45	45	45	47	50	53	55	59	64	68	72	75	78	81	82	82	81	80	80	79	78	77	78	79	81	82	83	84	84	85	85	85	84	83	82	81	79	78	77	75	74	71	70	69	68	67	65	64	64	66	70	74	77	80	83	86	89	91	94	96	99	102	105	106	108	108	108	108	107	107	108	109	109	109	108	107	105	102	98	94	91	88	85	82	80	78	75	73	71	68	67	65	63	62	60	57	55	53	51	48	46	45	45	45	45	45	45	45	45	45	45	45	45	45	45	45	45	45	45	45	45	45	45	45	45	45	45	45	45	45	45	45	45	45	45	45	45	45	45	45	45	45	45	45	45	45	45	45	45	45	45	45	45	45	45	45	46	49	52	55	58	61	65	68	70	72	75	77	80	81	83	86	87	88	88	89	89	88	87	85	84	84	83	83	82	81	80	78	75	73	71	68	66	64	63	62	60	58	59	65	68	70	70	71	71	71	71	70	69	68	65	62	62	67	71	76	80	86	91	93	95	97	98	98	98	100	101	103	105	107	110	111	113	115	118	120	120	120	120	120	121	121	121	121	121	121	121	120	119	120	122	124	126	128	129	130	131	132	132	133	135	136	136	136	136	137	138	139	139	139	138	138	138	138	138	138	137	137	138	138	137	135	132	129	127	126	126	127	127	128	128	127	127	125	123	121	120	118	116	114	113	110	108	105	103	101	98	95	92	89	87	85	82	79	76	74	72	70	69	68	67	66	65	64	64	64	65	66	70	77	79	79	81	83	82	81	81	82	83	83	82	81	80	80	81	82	82	82	81	80	79	77	72	68	65	61	58	56	55	55	53	51	49	47	45	43	41	42	46	50	52	55	58	60	62	65	67	68	71	74	76	78	80	82	84	87	89	91	93	96	98	101	104	107	110	111	113	115	117	121	124	125	124	123	123	123	125	129	133	135	136	135	134	135	134	133	133	131	129	127	124	121	118	116	114	111	108	105	101	98	95	92	89	84	79	75	71	66	62	59	56	52	49	46	42	39	37	34	31	29	27	25	22	19	17	16	16	16	16	16	16	16	16	17	17	17	18	18	20	21	23	24	26	29	31	33	35	37	39	41	42	44	46	48	51	53	55	57	60	63	65	68	71	74	77	79	81	84	86	88	89	90	91	92	92	92	92	92	93	93	94	94	94	93	92	91	91	91	90	90	90	90	90	89	89	89	88	87	86	84	82	81	81	80	79	78	77	75	73	71	69	67	64	62	59	57	54	50	52	58	62	65	67	70	73	75	79	81	83	83	83	82	80	78	78	79	80	82	84	86	86	87	88	90	92	94	96	98	100	101	103	104	106	107	109	112	115	117	119	123	125	127	129	131	132	132	131	130	129	128	127	127	126	125	125	123	122	121	119	117	115	113	111	109	107	104	102	100	99	98	98	97	97	95	93	91	89	86	84	81	79	76	74	72	69	65	60	55	49	42	29	15	8	6	4	3	2	0	0	0	0	0	0	0	0	0	0	0	0	0	0	0	0	0	0	0	0	0	0	0	0	0	0	0	0	0	0	0	0	0	0	0	0	0	0	0	0	0	0	0	0	0	0	0	0	0	0	0	0	0	0	0	0	0	0	0	0	0	0	0	0	0	0	0	0	0	0	0	0	0	0	0	0	0	0	0	0	0	0	0	0	0	0	0	0	0	0	0	0	0	0	0	0	0	0	0	0	0	0	0	0	0	0	0	0	0	0	0	0	0	0	0	0	0	0	0	0	0	0	0	0	0	0	0	0	0	0	0	0	0	0	0	0	0	0	0	0	0	0	0	0	0	0	0	0	0	0	0	0	0	0	0	0	0	0	0	0	0	0	0	0	0	0	0	0	0	0	0	0	0	0	0	0	0	0	0	0	0	0	0	0	0	0	0	0	0	0	0	0	0	0	0	0	0	0	0	0	0	0	0	0	0	0	0	0	0	0	0	0	0	0	0	0	0	0	0	0	0	0	0	0	0	0	0	0	0	0	0	0	0	0	0	0	0	0	0	0	0	0	0	0	0	0	0	0	0	0	0	0	0	0	0	0	0	0	0	0	0	0	0	0	0	0	0	0	0	0	0	0	0	0	0	0	0	0	0	0	0	0	0	0	0	0	0	0	0	0	0	0	0	0	0	0	0	0	0	0	0	0	0	0	0	0	0	0	0	0	0	0	0	0	0	0	0	0	0	0	0	0	0	0	0	0	0	0	0	0	0	0	0
45	45	45	45	45	45	45	45	45	45	45	45	45	45	45	45	45	45	45	45	45	45	46	47	50	53	55	59	65	70	73	76	79	81	82	83	83	82	81	80	79	78	78	80	81	83	85	86	86	87	87	87	86	85	85	84	83	81	80	78	76	74	73	72	71	70	69	67	66	67	70	74	78	81	84	87	90	92	95	97	100	103	106	108	109	110	110	109	108	108	109	110	111	111	111	109	107	104	100	96	92	90	87	85	83	80	77	75	72	70	69	67	66	64	61	59	57	55	53	50	47	45	45	45	45	45	45	45	45	45	45	45	45	45	45	45	45	45	45	45	45	45	45	45	45	45	45	45	45	45	45	45	45	45	45	45	45	45	45	45	45	45	45	45	45	45	45	45	45	45	45	45	45	45	45	45	46	49	52	55	58	61	65	68	70	72	74	76	79	81	82	84	85	86	86	86	85	84	83	81	80	79	79	79	78	77	76	75	73	71	69	66	63	60	59	58	57	57	57	62	67	68	68	69	69	69	68	67	66	64	60	59	63	69	72	76	80	85	90	93	94	96	98	98	98	100	101	103	104	106	109	110	112	115	117	119	120	120	119	119	119	119	119	120	120	120	119	118	117	119	121	124	126	128	129	130	131	132	132	134	135	137	137	137	137	137	138	140	140	139	139	139	139	140	140	140	140	140	141	141	140	137	134	131	129	128	129	130	130	131	131	130	129	128	125	123	122	120	119	117	115	113	110	107	104	102	100	97	94	90	88	86	83	81	78	76	74	72	71	70	69	69	68	67	66	66	67	68	73	79	81	81	83	85	85	84	84	84	84	83	81	80	80	81	81	83	84	83	81	79	78	76	71	68	66	63	60	58	58	57	55	53	51	49	47	44	41	41	46	50	53	56	59	61	63	66	68	70	73	75	77	79	81	83	85	88	90	92	94	96	98	101	103	106	109	112	116	118	120	124	127	128	127	126	125	125	126	128	131	135	137	138	137	135	134	135	134	132	130	127	124	121	118	115	113	109	106	103	99	96	94	91	88	83	78	74	69	65	61	59	55	52	49	45	41	38	36	33	30	28	26	24	21	19	18	17	16	16	16	16	16	17	17	17	17	17	18	19	20	22	23	24	26	29	31	33	36	37	39	41	42	43	45	48	51	54	56	58	60	63	65	68	72	75	77	79	81	84	86	88	90	91	91	92	92	92	92	93	93	93	94	94	94	93	93	92	92	92	92	92	92	92	91	91	90	90	89	88	87	85	84	83	82	81	80	80	79	77	75	73	70	68	65	63	60	58	55	52	52	57	62	65	68	71	74	77	80	83	85	86	86	85	83	81	80	80	81	83	86	87	88	89	90	91	94	96	98	100	102	103	105	107	108	109	111	113	116	118	120	124	126	128	130	132	133	133	133	132	130	129	128	128	127	126	124	123	121	119	118	116	115	113	110	108	106	104	103	101	100	100	100	99	97	95	93	90	87	84	82	79	76	74	72	70	67	63	59	54	47	37	23	14	8	5	3	2	2	0	0	0	0	0	0	0	0	0	0	0	0	0	0	0	0	0	0	0	0	0	0	0	0	0	0	0	0	0	0	0	0	0	0	0	0	0	0	0	0	0	0	0	0	0	0	0	0	0	0	0	0	0	0	0	0	0	0	0	0	0	0	0	0	0	0	0	0	0	0	0	0	0	0	0	0	0	0	0	0	0	0	0	0	0	0	0	0	0	0	0	0	0	0	0	0	0	0	0	0	0	0	0	0	0	0	0	0	0	0	0	0	0	0	0	0	0	0	0	0	0	0	0	0	0	0	0	0	0	0	0	0	0	0	0	0	0	0	0	0	0	0	0	0	0	0	0	0	0	0	0	0	0	0	0	0	0	0	0	0	0	0	0	0	0	0	0	0	0	0	0	0	0	0	0	0	0	0	0	0	0	0	0	0	0	0	0	0	0	0	0	0	0	0	0	0	0	0	0	0	0	0	0	0	0	0	0	0	0	0	0	0	0	0	0	0	0	0	0	0	0	0	0	0	0	0	0	0	0	0	0	0	0	0	0	0	0	0	0	0	0	0	0	0	0	0	0	0	0	0	0	0	0	0	0	0	0	0	0	0	0	0	0	0	0	0	0	0	0	0	0	0	0	0	0	0	0	0	0	0	0	0	0	0	0	0	0	0	0	0	0	0	0	0	0	0	0	0	0	0	0	0	0	0	0	0	0	0	0	0	0	0	0	0	0	0	0	0	0	0	0	0	0	0	0	0	0	0	0	0	0	0	0
45	45	45	45	45	45	45	45	45	45	45	45	45	45	45	45	45	45	45	45	44	45	47	49	52	54	57	61	67	72	75	78	81	82	82	83	84	83	82	82	80	78	79	80	82	84	86	87	88	89	89	89	88	88	87	87	86	84	83	81	79	77	76	75	74	73	72	70	69	69	71	74	77	80	83	87	90	93	96	98	101	104	107	109	111	111	111	110	110	110	110	111	112	112	112	111	108	105	102	98	95	92	90	88	85	82	79	76	74	72	70	68	66	65	62	60	58	56	54	52	49	46	45	45	45	45	45	45	45	45	45	45	45	45	45	45	45	45	45	45	45	45	45	45	45	45	45	45	45	45	45	45	45	45	45	45	45	45	45	45	45	45	45	45	45	45	45	45	45	45	45	45	45	45	45	45	46	49	52	55	58	62	66	68	70	72	74	76	78	80	81	82	83	84	84	83	83	82	80	78	77	76	75	75	75	74	73	72	70	69	67	64	60	58	56	56	55	55	56	60	64	66	66	66	66	66	64	62	60	59	58	60	66	71	74	77	80	85	90	92	95	96	97	98	98	99	100	102	104	106	108	110	112	114	117	118	119	119	118	117	117	117	117	118	118	118	117	116	115	117	121	124	126	127	128	128	130	131	133	134	136	137	138	138	138	138	139	140	140	139	140	140	140	141	143	142	142	142	143	142	141	138	134	132	131	131	132	132	133	133	133	132	132	130	128	125	124	123	121	119	118	115	112	109	106	103	101	99	95	92	89	87	85	83	80	78	76	74	73	72	71	70	69	69	69	69	69	70	75	81	83	82	83	85	85	86	86	86	85	84	81	80	80	81	82	85	86	84	80	78	76	73	70	68	66	64	62	61	61	59	57	55	53	51	49	46	42	42	45	50	53	56	59	61	63	66	69	72	74	76	77	79	82	85	87	90	92	94	96	98	100	102	104	107	110	113	117	121	124	127	129	130	129	128	128	128	128	129	131	136	139	140	138	136	136	136	135	132	129	127	124	121	118	115	112	109	105	102	99	96	93	90	87	82	77	73	68	64	62	58	55	52	49	45	41	38	35	32	29	27	24	22	21	19	18	17	16	16	16	16	16	17	18	18	18	18	18	19	21	22	23	24	26	29	31	33	35	37	38	40	41	42	44	47	50	53	56	58	61	63	66	68	72	75	77	79	81	83	86	87	89	90	91	91	92	92	93	93	94	94	94	95	94	94	94	94	94	94	94	94	94	93	93	92	92	91	91	89	88	87	86	85	84	83	82	82	80	79	77	74	72	68	66	63	61	59	56	53	52	57	62	65	68	73	76	78	81	84	86	87	87	86	85	83	82	82	83	85	87	89	90	91	92	94	95	97	100	102	103	105	107	108	110	111	113	115	117	119	122	125	128	129	131	132	133	134	134	133	132	131	130	129	127	126	125	123	121	120	119	118	117	114	112	110	108	106	104	103	103	103	102	100	97	95	92	89	85	82	80	77	74	71	69	67	64	61	57	53	45	34	21	13	6	3	3	3	3	1	0	0	0	0	0	0	0	0	0	0	0	0	0	0	0	0	0	0	0	0	0	0	0	0	0	0	0	0	0	0	0	0	0	0	0	0	0	0	0	0	0	0	0	0	0	0	0	0	0	0	0	0	0	0	0	0	0	0	0	0	0	0	0	0	0	0	0	0	0	0	0	0	0	0	0	0	0	0	0	0	0	0	0	0	0	0	0	0	0	0	0	0	0	0	0	0	0	0	0	0	0	0	0	0	0	0	0	0	0	0	0	0	0	0	0	0	0	0	0	0	0	0	0	0	0	0	0	0	0	0	0	0	0	0	0	0	0	0	0	0	0	0	0	0	0	0	0	0	0	0	0	0	0	0	0	0	0	0	0	0	0	0	0	0	0	0	0	0	0	0	0	0	0	0	0	0	0	0	0	0	0	0	0	0	0	0	0	0	0	0	0	0	0	0	0	0	0	0	0	0	0	0	0	0	0	0	0	0	0	0	0	0	0	0	0	0	0	0	0	0	0	0	0	0	0	0	0	0	0	0	0	0	0	0	0	0	0	0	0	0	0	0	0	0	0	0	0	0	0	0	0	0	0	0	0	0	0	0	0	0	0	0	0	0	0	0	0	0	0	0	0	0	0	0	0	0	0	0	0	0	0	0	0	0	0	0	0	0	0	0	0	0	0	0	0	0	0	0	0	0	0	0	0	0	0	0	0	0	0	0	0	0	0	0	0	0	0	0	0	0	0	0	0	0	0	0	0	0	0	0	0	0
45	45	45	45	45	45	45	45	45	45	45	45	45	45	45	45	45	45	45	44	44	45	48	50	54	56	59	63	69	73	76	80	83	84	84	85	85	84	84	82	80	79	79	81	82	85	86	88	89	90	90	91	90	90	90	89	88	87	86	84	82	80	79	78	77	76	75	74	72	71	72	74	77	80	84	87	90	93	96	100	103	106	108	111	112	112	112	111	111	111	112	113	113	114	113	112	110	107	104	100	97	94	92	89	86	83	80	78	76	73	71	69	67	65	63	61	59	57	55	52	49	47	45	45	45	45	45	45	45	45	45	45	45	45	45	45	45	45	45	45	45	45	45	45	45	45	45	45	45	45	45	45	45	45	45	45	45	45	45	45	45	45	45	45	45	45	45	45	45	45	45	45	45	45	45	45	46	48	51	55	58	61	65	68	70	71	73	75	77	78	79	80	81	82	81	81	80	79	77	76	75	73	73	72	72	71	70	69	68	66	65	62	59	56	55	53	53	54	56	58	61	63	63	62	61	60	58	56	56	56	58	63	69	73	75	78	82	87	90	92	94	96	97	97	98	98	99	101	103	105	107	109	112	114	116	117	118	118	117	116	115	116	116	116	116	116	114	113	113	115	119	123	125	126	127	127	129	131	133	135	136	137	138	139	139	139	139	140	140	140	140	141	142	143	144	144	143	143	144	144	141	138	135	134	133	134	134	135	135	135	135	134	133	132	130	128	126	125	124	122	120	117	114	111	108	105	102	100	97	94	91	89	87	85	82	80	78	76	75	73	72	72	71	71	71	71	72	72	74	80	83	84	84	84	84	86	88	88	87	87	84	82	83	85	85	87	87	84	81	78	75	73	70	68	67	65	64	64	63	61	59	57	55	53	51	49	46	44	44	48	51	55	58	60	63	66	69	72	74	76	78	80	82	85	88	91	93	96	98	100	102	103	106	109	111	114	117	122	126	129	130	130	130	130	131	131	131	131	133	136	139	139	138	137	138	137	135	132	130	128	125	121	118	114	111	108	105	101	98	95	92	89	85	80	76	72	68	64	61	58	55	51	48	44	40	37	34	32	29	26	24	22	20	19	17	17	16	16	16	16	16	17	18	18	18	18	19	20	21	22	22	23	25	28	30	32	34	36	38	40	41	43	44	47	49	52	55	58	60	64	66	69	72	75	77	79	81	83	85	87	88	89	90	91	92	93	93	94	95	95	95	96	95	95	95	95	95	95	95	95	96	96	95	94	94	93	92	91	89	88	87	87	86	86	85	84	82	80	78	75	73	69	67	64	61	59	57	54	53	57	62	66	69	74	77	80	83	85	87	88	89	88	87	86	84	84	84	86	88	90	92	93	94	96	97	99	101	103	105	106	108	110	111	113	115	117	119	121	124	127	130	131	132	133	134	134	134	134	133	132	131	130	128	127	126	124	123	121	120	120	119	117	115	113	111	109	108	107	106	105	103	100	97	94	90	87	84	81	78	75	72	69	67	64	61	58	54	49	44	33	18	9	3	2	3	3	3	2	1	0	0	0	0	0	0	0	0	0	0	0	0	0	0	0	0	0	0	0	0	0	0	0	0	0	0	0	0	0	0	0	0	0	0	0	0	0	0	0	0	0	0	0	0	0	0	0	0	0	0	0	0	0	0	0	0	0	0	0	0	0	0	0	0	0	0	0	0	0	0	0	0	0	0	0	0	0	0	0	0	0	0	0	0	0	0	0	0	0	0	0	0	0	0	0	0	0	0	0	0	0	0	0	0	0	0	0	0	0	0	0	0	0	0	0	0	0	0	0	0	0	0	0	0	0	0	0	0	0	0	0	0	0	0	0	0	0	0	0	0	0	0	0	0	0	0	0	0	0	0	0	0	0	0	0	0	0	0	0	0	0	0	0	0	0	0	0	0	0	0	0	0	0	0	0	0	0	0	0	0	0	0	0	0	0	0	0	0	0	0	0	0	0	0	0	0	0	0	0	0	0	0	0	0	0	0	0	0	0	0	0	0	0	0	0	0	0	0	0	0	0	0	0	0	0	0	0	0	0	0	0	0	0	0	0	0	0	0	0	0	0	0	0	0	0	0	0	0	0	0	0	0	0	0	0	0	0	0	0	0	0	0	0	0	0	0	0	0	0	0	0	0	0	0	0	0	0	0	0	0	0	0	0	0	0	0	0	0	0	0	0	0	0	0	0	0	0	0	0	0	0	0	0	0	0	0	0	0	0	0	0	0	0	0	0	0	0	0	0	0	0	0	0	0	0	0	0	0	0	0	0
45	45	45	45	45	45	45	45	45	45	45	45	45	45	45	45	45	45	45	45	45	46	49	52	55	57	60	65	70	74	77	81	84	86	86	86	85	85	84	83	81	80	79	81	83	85	87	88	90	91	92	92	93	92	92	91	90	89	88	86	85	83	82	81	81	80	79	77	75	74	73	74	76	80	84	87	91	94	97	100	104	107	110	112	113	113	112	112	113	113	114	115	115	115	115	114	111	109	105	102	98	95	93	90	87	84	81	79	77	74	71	69	67	65	63	61	59	57	55	53	50	47	46	45	45	45	45	45	45	45	45	45	45	45	45	45	45	45	45	45	45	45	45	45	45	45	45	45	45	45	45	45	45	45	45	45	45	45	45	45	45	45	45	45	45	45	45	45	45	45	45	45	45	45	45	45	45	47	50	54	57	60	65	67	69	70	72	73	75	76	77	78	79	79	78	78	77	76	75	74	73	71	70	70	69	69	68	66	65	63	61	59	57	54	52	51	52	53	55	57	59	60	59	57	56	55	54	54	54	55	58	65	70	74	77	80	84	88	91	92	94	95	96	97	97	98	99	101	103	105	107	109	111	114	115	117	117	117	116	115	114	114	114	114	113	112	111	111	112	113	118	122	124	125	126	127	129	132	134	135	136	137	138	138	139	139	139	139	140	140	141	142	143	145	146	145	144	144	144	143	141	138	136	136	136	136	137	137	138	137	137	136	134	133	131	130	129	127	126	124	121	119	116	113	110	107	104	101	99	96	93	91	89	87	84	82	80	78	76	75	74	74	73	73	73	73	74	74	75	80	84	87	88	87	86	87	89	89	89	89	88	89	90	90	89	88	87	84	81	78	75	73	70	68	67	67	67	66	65	63	61	59	58	56	54	52	49	46	44	46	50	54	57	59	62	65	68	71	73	76	78	80	82	86	89	91	94	96	99	101	103	105	107	111	113	115	118	121	125	129	131	131	130	132	134	134	133	133	134	136	139	139	139	139	140	139	136	134	132	130	127	122	118	115	111	108	104	100	97	94	90	87	83	79	75	71	67	63	61	58	54	51	47	44	40	37	35	32	29	27	24	22	20	19	18	17	17	16	16	16	16	17	18	18	18	18	18	19	21	21	22	24	25	27	29	31	34	36	38	40	42	44	46	47	49	51	54	57	60	63	66	69	72	75	77	79	81	83	85	86	88	89	90	91	92	93	94	95	95	95	96	96	96	96	97	97	97	97	97	98	98	97	97	96	96	94	94	93	91	89	89	88	88	88	87	85	83	81	78	76	74	71	68	65	62	60	58	55	54	57	63	67	70	74	78	81	84	86	89	90	91	91	90	88	87	86	86	87	89	91	93	94	95	97	99	100	102	104	106	107	109	111	112	114	116	119	120	122	125	128	131	133	134	134	134	135	135	134	134	133	132	131	130	129	128	126	124	122	122	122	121	120	118	115	114	112	111	110	108	106	104	101	97	94	90	87	84	81	78	75	72	69	65	62	59	55	51	47	44	32	14	5	2	2	3	3	2	1	1	0	0	0	0	0	0	0	0	0	0	0	0	0	0	0	0	0	0	0	0	0	0	0	0	0	0	0	0	0	0	0	0	0	0	0	0	0	0	0	0	0	0	0	0	0	0	0	0	0	0	0	0	0	0	0	0	0	0	0	0	0	0	0	0	0	0	0	0	0	0	0	0	0	0	0	0	0	0	0	0	0	0	0	0	0	0	0	0	0	0	0	0	0	0	0	0	0	0	0	0	0	0	0	0	0	0	0	0	0	0	0	0	0	0	0	0	0	0	0	0	0	0	0	0	0	0	0	0	0	0	0	0	0	0	0	0	0	0	0	0	0	0	0	0	0	0	0	0	0	0	0	0	0	0	0	0	0	0	0	0	0	0	0	0	0	0	0	0	0	0	0	0	0	0	0	0	0	0	0	0	0	0	0	0	0	0	0	0	0	0	0	0	0	0	0	0	0	0	0	0	0	0	0	0	0	0	0	0	0	0	0	0	0	0	0	0	0	0	0	0	0	0	0	0	0	0	0	0	0	0	0	0	0	0	0	0	0	0	0	0	0	0	0	0	0	0	0	0	0	0	0	0	0	0	0	0	0	0	0	0	0	0	0	0	0	0	0	0	0	0	0	0	0	0	0	0	0	0	0	0	0	0	0	0	0	0	0	0	0	0	0	0	0	0	0	0	0	0	0	0	0	0	0	0	0	0	0	0	0	0	0	0	0	0	0	0	0	0	0	0	0	0	0	0	0	0	0	0	0	0	0
45	45	45	45	45	45	45	45	45	45	45	45	45	45	45	45	45	45	45	45	46	47	50	53	56	59	62	67	71	74	78	82	85	86	86	86	86	85	85	84	82	81	80	81	83	86	87	89	90	91	93	94	94	94	94	93	93	91	90	89	88	87	87	86	85	84	83	81	79	77	76	75	77	81	85	88	91	94	98	101	104	108	111	113	114	114	113	113	114	114	115	116	117	117	116	115	113	110	107	103	100	97	94	91	88	85	82	80	78	75	72	69	67	65	63	61	60	58	55	53	50	48	46	45	45	45	45	45	45	45	45	45	45	45	45	45	45	45	45	45	45	45	45	45	45	45	45	45	45	45	45	45	45	45	45	45	45	45	45	45	45	45	45	45	45	45	45	45	45	45	45	45	45	45	45	45	45	46	49	52	55	59	63	66	68	69	70	72	73	74	75	75	75	75	75	75	74	73	72	72	70	69	68	67	67	66	65	63	61	60	59	57	55	52	50	49	51	53	55	56	57	57	56	55	53	52	52	52	53	56	60	66	71	75	79	82	86	89	91	92	93	95	95	96	97	98	99	101	102	104	106	109	111	113	114	115	116	115	114	113	113	112	112	111	110	109	108	109	110	112	116	120	121	123	125	127	130	132	134	135	135	137	137	138	138	138	138	139	140	141	142	142	143	145	147	147	145	144	144	143	141	139	139	139	139	139	139	140	140	140	139	137	136	134	133	132	131	129	127	125	123	121	118	115	112	109	106	103	101	98	95	93	91	88	86	84	82	80	79	78	77	76	76	76	76	75	76	76	76	80	86	90	91	90	89	89	91	92	92	92	91	92	93	92	90	88	86	83	81	78	75	73	71	70	70	70	69	68	66	65	63	62	60	59	57	54	51	48	46	46	50	54	57	59	61	65	68	71	73	76	78	80	83	86	89	91	93	96	98	101	103	105	108	112	114	116	119	122	125	130	132	132	132	133	135	135	135	135	136	137	139	139	140	141	141	140	138	136	134	132	129	125	120	116	111	108	103	99	96	93	89	85	82	78	75	70	66	62	60	57	53	50	46	43	40	37	34	31	29	26	24	22	21	19	18	17	17	16	16	16	17	17	18	19	19	18	19	20	21	22	24	25	26	28	29	32	34	37	39	41	44	46	48	50	51	53	55	57	60	63	66	69	72	75	77	79	81	83	85	87	88	90	91	92	93	93	94	95	96	96	96	96	97	97	98	99	99	99	100	100	99	98	98	98	97	95	95	94	92	90	90	90	89	89	88	87	84	81	79	77	74	71	69	66	63	61	59	57	56	58	63	67	70	74	78	81	84	87	89	91	92	93	92	91	89	89	89	89	90	92	93	94	95	98	100	101	103	105	107	108	110	112	113	115	117	119	121	123	126	129	131	134	135	135	135	135	135	135	135	134	134	133	131	130	129	127	125	124	124	124	123	121	119	118	116	115	115	113	111	108	106	103	99	95	92	89	86	82	79	76	73	70	66	62	59	55	52	49	45	28	10	3	2	3	3	3	1	1	1	1	1	1	2	1	1	1	0	0	0	0	0	0	0	0	0	0	0	0	0	0	0	0	0	0	0	0	0	0	0	0	0	0	0	0	0	0	0	0	0	0	0	0	0	0	0	0	0	0	0	0	0	0	0	0	0	0	0	0	0	0	0	0	0	0	0	0	0	0	0	0	0	0	0	0	0	0	0	0	0	0	0	0	0	0	0	0	0	0	0	0	0	0	0	0	0	0	0	0	0	0	0	0	0	0	0	0	0	0	0	0	0	0	0	0	0	0	0	0	0	0	0	0	0	0	0	0	0	0	0	0	0	0	0	0	0	0	0	0	0	0	0	0	0	0	0	0	0	0	0	0	0	0	0	0	0	0	0	0	0	0	0	0	0	0	0	0	0	0	0	0	0	0	0	0	0	0	0	0	0	0	0	0	0	0	0	0	0	0	0	0	0	0	0	0	0	0	0	0	0	0	0	0	0	0	0	0	0	0	0	0	0	0	0	0	0	0	0	0	0	0	0	0	0	0	0	0	0	0	0	0	0	0	0	0	0	0	0	0	0	0	0	0	0	0	0	0	0	0	0	0	0	0	0	0	0	0	0	0	0	0	0	0	0	0	0	0	0	0	0	0	0	0	0	0	0	0	0	0	0	0	0	0	0	0	0	0	0	0	0	0	0	0	0	0	0	0	0	0	0	0	0	0	0	0	0	0	0	0	0	0	0	0	0	0	0	0	0	0	0	0	0	0	0	0	0	0	0	0	0	0
45	45	45	45	45	45	45	45	45	45	45	45	45	45	45	45	45	45	45	45	47	49	52	55	58	60	64	68	72	75	78	82	84	86	87	86	86	86	85	85	83	82	81	82	84	86	88	89	90	92	93	95	95	96	96	96	95	95	93	92	91	92	91	90	89	88	87	86	83	81	79	78	78	81	85	89	92	95	98	101	105	108	111	113	114	115	115	115	115	116	117	118	118	118	117	115	113	110	107	104	101	99	95	92	89	86	83	81	78	75	73	70	68	66	64	62	60	58	56	53	51	49	47	46	45	45	45	45	45	45	45	45	45	45	45	45	45	45	45	45	45	45	45	45	45	45	45	45	45	45	45	45	45	45	45	45	45	45	45	45	45	45	45	45	45	45	45	45	45	45	45	45	45	45	45	45	45	46	48	51	54	58	61	65	67	68	69	70	71	72	72	72	72	72	72	72	71	71	69	68	66	65	64	63	63	63	62	60	59	58	57	55	53	50	48	48	50	51	53	55	56	55	55	53	51	50	50	52	54	57	63	68	72	76	81	84	86	89	91	92	93	94	95	96	97	98	99	100	102	104	106	108	111	112	113	114	114	114	112	111	110	109	109	108	107	106	105	106	108	111	115	118	119	121	123	126	129	132	133	134	134	135	136	136	136	137	138	139	141	142	143	143	143	144	146	146	145	145	145	144	143	142	141	141	142	142	142	142	142	142	140	139	138	136	135	134	132	131	128	126	124	122	120	117	114	111	108	105	102	99	96	94	92	89	87	85	84	82	81	80	80	79	79	79	79	79	78	79	79	81	86	90	92	92	91	92	93	94	95	95	92	93	93	92	90	88	85	82	80	78	76	74	74	73	73	72	71	69	67	66	65	64	62	60	58	55	52	50	47	47	50	54	57	59	62	65	68	71	74	76	79	81	83	85	88	90	92	94	97	100	102	105	108	111	113	116	119	122	126	131	135	135	134	135	136	137	137	138	138	139	140	140	142	144	143	141	140	138	136	134	131	127	122	116	112	107	102	98	95	91	87	83	80	77	73	69	65	62	58	55	52	49	46	43	40	37	34	31	28	26	24	22	21	19	18	17	17	16	15	16	16	17	18	19	19	19	19	21	22	24	25	27	28	30	31	33	35	37	40	43	45	48	51	52	54	55	57	59	61	63	66	70	73	75	77	79	81	83	85	87	89	90	91	93	93	94	95	96	97	97	97	97	98	98	100	101	101	101	102	101	101	100	99	99	97	96	96	95	93	92	91	91	91	91	89	87	85	82	79	77	75	72	69	66	63	61	60	58	58	59	63	67	70	74	78	81	84	87	90	92	94	94	94	93	92	92	91	91	91	92	93	94	96	98	100	102	104	106	108	109	111	112	114	116	118	120	122	123	126	129	131	133	134	134	135	135	135	135	135	135	135	134	132	131	129	128	127	127	126	126	125	123	121	120	119	119	118	116	113	110	108	105	101	96	93	90	87	83	80	77	74	72	68	64	60	57	54	49	43	24	7	2	2	3	3	3	2	2	3	3	3	4	4	3	2	1	0	0	0	0	0	0	0	0	0	0	0	0	0	0	0	0	0	0	0	0	0	0	0	0	0	0	0	0	0	0	0	0	0	0	0	0	0	0	0	0	0	0	0	0	0	0	0	0	0	0	0	0	0	0	0	0	0	0	0	0	0	0	0	0	0	0	0	0	0	0	0	0	0	0	0	0	0	0	0	0	0	0	0	0	0	0	0	0	0	0	0	0	0	0	0	0	0	0	0	0	0	0	0	0	0	0	0	0	0	0	0	0	0	0	0	0	0	0	0	0	0	0	0	0	0	0	0	0	0	0	0	0	0	0	0	0	0	0	0	0	0	0	0	0	0	0	0	0	0	0	0	0	0	0	0	0	0	0	0	0	0	0	0	0	0	0	0	0	0	0	0	0	0	0	0	0	0	0	0	0	0	0	0	0	0	0	0	0	0	0	0	0	0	0	0	0	0	0	0	0	0	0	0	0	0	0	0	0	0	0	0	0	0	0	0	0	0	0	0	0	0	0	0	0	0	0	0	0	0	0	0	0	0	0	0	0	0	0	0	0	0	0	0	0	0	0	0	0	0	0	0	0	0	0	0	0	0	0	0	0	0	0	0	0	0	0	0	0	0	0	0	0	0	0	0	0	0	0	0	0	0	0	0	0	0	0	0	0	0	0	0	0	0	0	0	0	0	0	0	0	0	0	0	0	0	0	0	0	0	0	0	0	0	0	0	0	0	0	0	0	0	0	0	0
45	45	45	45	45	45	45	45	45	45	45	45	45	45	45	45	45	45	45	46	48	50	54	57	59	63	67	70	73	76	79	82	84	86	87	87	86	86	86	85	84	83	82	82	84	87	89	90	91	92	94	95	96	97	97	98	98	98	97	96	95	95	95	94	92	91	91	90	87	84	82	80	80	82	86	90	94	97	100	103	105	108	111	113	115	116	116	116	117	118	119	119	119	119	117	116	113	110	107	105	102	100	96	93	90	87	84	82	79	76	74	71	69	66	64	62	60	58	56	54	52	50	48	47	46	46	45	45	45	45	45	45	45	45	45	45	45	45	45	45	45	45	45	45	45	45	45	45	45	45	45	45	45	45	45	45	45	45	45	45	45	45	45	45	45	45	45	45	45	45	45	45	45	45	45	45	45	45	47	50	54	57	60	63	65	66	67	68	69	70	70	70	69	69	69	69	70	68	66	63	61	60	59	59	59	59	59	58	57	56	55	54	51	48	46	47	48	50	52	54	54	54	53	51	49	49	50	52	55	59	65	69	73	77	81	84	86	88	90	91	93	94	95	96	98	99	99	100	102	103	105	107	110	111	112	113	113	112	111	109	107	107	106	106	105	104	104	105	107	110	114	116	118	120	123	126	128	131	132	133	133	134	135	135	135	136	137	138	140	142	143	143	143	144	145	145	145	145	146	146	145	144	144	144	145	145	145	145	144	143	142	141	140	139	137	136	134	132	130	128	126	124	121	119	116	112	109	106	103	101	98	95	93	91	89	87	86	84	83	82	82	82	82	81	81	82	81	81	81	82	85	90	94	94	94	94	94	95	97	97	94	93	93	93	91	88	85	82	80	78	76	76	76	76	76	75	73	70	69	68	67	65	64	62	59	56	53	50	48	48	51	54	57	59	62	65	69	72	74	77	80	82	83	85	87	90	91	94	96	99	102	104	107	110	113	115	119	122	126	131	134	135	136	137	139	139	140	140	141	142	141	142	144	146	145	143	141	139	137	134	131	127	121	116	112	107	102	98	94	89	85	82	80	76	72	68	64	60	57	54	51	49	46	43	40	37	33	31	28	25	23	22	20	19	18	17	16	16	16	16	16	17	18	19	19	19	20	21	23	25	26	28	29	31	33	34	36	38	41	43	46	49	52	54	56	58	60	62	64	66	68	71	73	75	77	80	82	84	86	87	89	90	91	93	94	95	96	97	97	97	97	98	99	99	101	102	103	103	104	103	102	101	101	100	99	99	98	96	95	94	93	92	92	91	89	87	85	82	79	77	75	72	69	66	64	61	60	59	59	61	63	67	70	74	77	81	84	87	90	93	95	95	95	95	94	94	94	93	93	93	94	95	97	99	101	102	104	106	108	109	110	112	115	117	119	121	122	123	125	128	130	131	133	133	133	134	134	135	136	136	137	135	134	132	130	130	129	129	128	128	127	125	124	123	122	121	120	118	116	113	109	105	102	97	94	90	87	84	81	78	75	72	69	66	62	58	54	49	40	19	4	3	6	8	7	4	4	5	6	6	6	6	5	4	3	2	0	0	0	0	0	0	0	0	0	0	0	0	0	0	0	0	0	0	0	0	0	0	0	0	0	0	0	0	0	0	0	0	0	0	0	0	0	0	0	0	0	0	0	0	0	0	0	0	0	0	0	0	0	0	0	0	0	0	0	0	0	0	0	0	0	0	0	0	0	0	0	0	0	0	0	0	0	0	0	0	0	0	0	0	0	0	0	0	0	0	0	0	0	0	0	0	0	0	0	0	0	0	0	0	0	0	0	0	0	0	0	0	0	0	0	0	0	0	0	0	0	0	0	0	0	0	0	0	0	0	0	0	0	0	0	0	0	0	0	0	0	0	0	0	0	0	0	0	0	0	0	0	0	0	0	0	0	0	0	0	0	0	0	0	0	0	0	0	0	0	0	0	0	0	0	0	0	0	0	0	0	0	0	0	0	0	0	0	0	0	0	0	0	0	0	0	0	0	0	0	0	0	0	0	0	0	0	0	0	0	0	0	0	0	0	0	0	0	0	0	0	0	0	0	0	0	0	0	0	0	0	0	0	0	0	0	0	0	0	0	0	0	0	0	0	0	0	0	0	0	0	0	0	0	0	0	0	0	0	0	0	0	0	0	0	0	0	0	0	0	0	0	0	0	0	0	0	0	0	0	0	0	0	0	0	0	0	0	0	0	0	0	0	0	0	0	0	0	0	0	0	0	0	0	0	0	0	0	0	0	0	0	0	0	0	0	0	0	0	0	0	0	0	0
45	45	45	45	45	45	45	45	45	45	45	45	45	45	45	45	45	44	45	46	49	52	55	58	62	66	69	72	75	78	80	82	84	86	87	87	87	87	86	86	85	84	83	83	84	86	89	90	91	93	95	96	97	98	99	100	101	101	100	99	98	98	98	96	95	95	94	93	91	88	85	83	82	83	86	90	94	97	100	103	106	108	111	113	115	117	117	118	119	120	120	120	120	119	118	116	113	111	108	105	103	100	97	94	91	88	85	83	80	77	75	72	70	67	64	62	61	58	56	54	52	50	49	48	47	46	45	45	45	45	45	45	45	45	45	45	45	45	45	45	45	45	45	45	45	45	45	45	45	45	45	45	45	45	45	45	45	45	45	45	45	45	45	45	45	45	45	45	45	45	45	45	45	45	45	45	45	45	46	49	52	55	58	60	62	64	65	66	67	67	68	67	66	65	65	66	66	65	62	60	58	57	56	56	56	57	56	56	55	54	53	51	49	46	45	46	47	49	51	52	53	52	51	49	47	48	50	54	57	62	67	71	73	77	81	84	86	88	90	91	93	94	95	96	98	100	100	101	102	103	105	107	109	110	111	112	112	111	109	107	105	104	104	103	102	101	102	104	105	108	112	115	117	120	123	125	128	130	131	132	133	134	134	134	134	135	136	138	140	141	142	143	143	144	145	145	145	146	147	148	147	147	146	147	148	148	147	147	146	145	144	143	142	140	139	137	136	134	132	130	128	125	122	119	116	114	111	108	105	102	99	97	94	93	91	89	88	87	85	84	84	84	84	83	83	84	84	84	84	84	86	90	95	96	96	96	96	96	98	98	96	94	94	93	92	90	87	84	81	79	79	79	79	79	78	76	74	72	70	70	69	67	65	63	60	57	54	51	49	50	52	54	56	59	63	66	69	72	75	77	80	82	84	85	87	90	92	94	97	100	103	106	109	111	113	116	119	122	126	129	132	134	136	139	141	141	142	143	144	144	143	143	146	147	146	144	143	140	137	133	130	127	121	115	111	106	101	98	93	89	85	82	79	74	70	66	63	60	57	54	51	48	45	42	39	36	33	31	28	25	23	21	20	19	18	17	16	17	17	17	17	18	19	19	20	20	20	22	24	26	28	29	31	33	34	36	37	39	41	44	46	49	52	55	58	60	62	64	67	69	70	72	74	76	78	81	83	84	86	88	89	90	92	93	94	95	97	97	98	98	98	99	99	100	102	103	104	105	105	104	103	103	102	102	101	101	99	97	96	95	94	93	92	91	89	86	84	82	79	77	74	72	69	67	64	62	60	60	60	62	64	67	70	74	77	81	83	87	90	93	95	96	97	97	97	97	97	96	95	94	95	96	98	100	101	103	104	106	108	109	110	113	115	117	119	121	122	123	125	127	128	130	131	132	132	133	134	135	135	136	137	136	134	133	132	132	131	130	129	129	128	127	126	124	123	122	120	119	117	114	110	106	102	98	94	91	88	84	82	79	77	73	70	67	63	59	55	48	37	14	4	6	12	20	21	13	8	8	9	8	7	6	5	4	3	1	0	0	0	0	0	0	0	0	0	0	0	0	0	0	0	0	0	0	0	0	0	0	0	0	0	0	0	0	0	0	0	0	0	0	0	0	0	0	0	0	0	0	0	0	0	0	0	0	0	0	0	0	0	0	0	0	0	0	0	0	0	0	0	0	0	0	0	0	0	0	0	0	0	0	0	0	0	0	0	0	0	0	0	0	0	0	0	0	0	0	0	0	0	0	0	0	0	0	0	0	0	0	0	0	0	0	0	0	0	0	0	0	0	0	0	0	0	0	0	0	0	0	0	0	0	0	0	0	0	0	0	0	0	0	0	0	0	0	0	0	0	0	0	0	0	0	0	0	0	0	0	0	0	0	0	0	0	0	0	0	0	0	0	0	0	0	0	0	0	0	0	0	0	0	0	0	0	0	0	0	0	0	0	0	0	0	0	0	0	0	0	0	0	0	0	0	0	0	0	0	0	0	0	0	0	0	0	0	0	0	0	0	0	0	0	0	0	0	0	0	0	0	0	0	0	0	0	0	0	0	0	0	0	0	0	0	0	0	0	0	0	0	0	0	0	0	0	0	0	0	0	0	0	0	0	0	0	0	0	0	0	0	0	0	0	0	0	0	0	0	0	0	0	0	0	0	0	0	0	0	0	0	0	0	0	0	0	0	0	0	0	0	0	0	0	0	0	0	0	0	0	0	0	0	0	0	0	0	0	0	0	0	0	0	0	0	0	0	0	0	0	0	0	0
45	45	45	45	45	45	45	45	45	45	45	45	45	45	45	45	44	44	45	47	50	54	57	60	64	68	72	74	77	80	82	84	85	87	88	88	88	87	87	87	87	86	85	84	85	86	88	91	92	93	95	97	98	99	101	102	103	104	103	102	101	100	99	98	98	98	98	97	95	92	88	86	84	85	87	90	93	97	101	104	107	109	111	114	116	118	119	119	120	121	121	121	121	120	118	116	113	111	108	106	103	101	97	94	92	90	87	84	81	78	75	73	70	67	65	62	61	59	56	54	52	51	50	49	47	46	45	45	45	45	45	45	45	45	45	45	45	45	45	45	45	45	45	45	45	45	45	45	45	45	45	45	45	45	45	45	45	45	45	45	45	45	45	45	45	45	45	45	45	45	45	45	45	45	45	45	45	45	45	47	50	53	56	58	59	60	61	62	63	64	64	63	62	61	61	61	61	61	59	57	56	55	54	54	54	54	54	54	52	51	51	49	47	46	45	45	46	47	49	51	51	51	49	48	47	47	51	55	58	64	69	72	74	78	81	84	86	88	90	91	93	94	95	97	99	100	101	101	102	103	105	106	108	109	110	111	111	109	107	105	103	102	101	100	98	98	100	102	104	106	110	113	117	120	123	125	128	130	131	132	133	133	133	133	133	134	136	138	139	140	141	142	143	144	145	146	146	147	148	149	149	149	149	150	150	150	150	149	148	146	146	145	144	143	141	139	137	135	132	130	128	126	123	120	117	114	112	109	106	103	100	98	96	94	93	91	90	89	87	87	87	87	87	86	86	87	87	87	87	87	88	91	95	97	98	98	98	99	100	100	98	97	95	94	93	91	88	86	83	82	81	82	82	81	80	78	77	74	73	72	70	68	66	64	60	58	55	52	50	51	53	54	55	59	62	66	69	72	75	77	80	82	84	86	88	91	94	96	99	102	105	108	111	113	115	118	121	123	126	129	131	134	137	140	142	143	144	145	146	146	144	145	147	148	147	146	144	141	137	133	130	126	120	115	111	106	102	97	93	89	85	81	78	73	69	66	62	59	57	54	51	48	44	41	38	36	33	31	28	25	23	21	20	19	18	17	16	17	17	18	18	18	19	20	21	21	21	23	25	28	30	31	32	34	36	38	39	40	42	45	47	49	53	56	59	61	64	66	68	70	72	74	76	78	80	82	84	85	87	89	90	92	93	94	95	96	97	98	98	99	100	100	101	102	103	104	105	106	106	106	105	104	103	103	102	101	99	98	97	96	95	93	91	90	88	85	83	80	78	76	74	72	70	68	65	62	61	61	62	64	66	68	71	73	77	80	83	86	89	92	95	97	98	99	100	100	99	99	97	96	96	97	99	100	102	103	105	107	108	109	111	113	115	117	119	121	122	124	125	126	127	129	130	131	132	133	134	134	135	136	136	136	135	134	133	133	133	132	130	129	128	128	126	125	123	121	120	119	117	114	110	106	102	98	95	92	89	86	83	81	78	75	71	67	64	59	55	47	31	10	6	10	18	26	29	26	17	13	11	10	8	6	4	3	2	1	0	0	0	0	0	0	0	0	0	0	0	0	0	0	0	0	0	0	0	0	0	0	0	0	0	0	0	0	0	0	0	0	0	0	0	0	0	0	0	0	0	0	0	0	0	0	0	0	0	0	0	0	0	0	0	0	0	0	0	0	0	0	0	0	0	0	0	0	0	0	0	0	0	0	0	0	0	0	0	0	0	0	0	0	0	0	0	0	0	0	0	0	0	0	0	0	0	0	0	0	0	0	0	0	0	0	0	0	0	0	0	0	0	0	0	0	0	0	0	0	0	0	0	0	0	0	0	0	0	0	0	0	0	0	0	0	0	0	0	0	0	0	0	0	0	0	0	0	0	0	0	0	0	0	0	0	0	0	0	0	0	0	0	0	0	0	0	0	0	0	0	0	0	0	0	0	0	0	0	0	0	0	0	0	0	0	0	0	0	0	0	0	0	0	0	0	0	0	0	0	0	0	0	0	0	0	0	0	0	0	0	0	0	0	0	0	0	0	0	0	0	0	0	0	0	0	0	0	0	0	0	0	0	0	0	0	0	0	0	0	0	0	0	0	0	0	0	0	0	0	0	0	0	0	0	0	0	0	0	0	0	0	0	0	0	0	0	0	0	0	0	0	0	0	0	0	0	0	0	0	0	0	0	0	0	0	0	0	0	0	0	0	0	0	0	0	0	0	0	0	0	0	0	0	0	0	0	0	0	0	0	0	0	0	0	0	0	0	0	0	0	0	0	0
45	45	45	45	45	45	45	45	45	45	45	45	45	45	45	45	44	44	45	48	51	55	58	62	67	71	73	76	78	81	83	85	87	88	89	90	89	89	89	88	88	87	87	87	86	87	89	91	93	94	96	97	98	100	102	104	105	106	105	104	103	102	101	100	100	100	100	99	97	95	92	89	87	86	87	90	94	97	101	104	107	110	112	115	117	119	120	120	121	122	122	122	122	120	118	116	113	111	108	106	104	101	98	95	93	91	88	84	81	78	75	73	71	68	65	63	61	59	56	54	52	51	50	49	47	46	45	45	45	45	45	45	45	45	45	45	45	45	45	45	45	45	45	45	45	45	45	45	45	45	45	45	45	45	45	45	45	45	45	45	45	45	45	45	45	45	45	45	45	45	45	45	45	45	45	45	45	45	45	46	48	51	53	55	57	57	57	58	59	59	60	60	59	58	58	58	58	58	57	56	54	53	51	51	51	52	52	51	50	49	49	47	46	45	45	45	45	46	48	49	50	49	48	47	46	47	51	55	59	64	70	72	75	79	82	84	87	89	90	91	93	94	96	98	100	100	101	101	102	103	105	106	107	108	109	110	109	107	105	104	102	100	98	96	95	95	97	100	102	105	108	112	116	120	122	125	128	130	131	132	132	132	132	132	132	133	135	137	139	140	141	143	144	145	146	147	148	149	149	150	151	151	152	152	152	152	152	151	150	148	148	147	146	145	143	140	138	135	133	130	128	126	124	121	118	115	112	110	107	104	102	100	98	96	94	93	92	91	90	90	90	90	90	90	90	90	90	90	89	90	91	93	96	100	100	100	101	102	102	102	101	100	97	94	93	92	90	87	85	85	85	85	85	84	82	81	79	78	76	74	72	69	66	64	61	58	56	53	52	53	54	54	55	57	61	65	68	71	74	77	79	82	84	87	89	92	95	98	101	104	107	110	113	115	117	120	123	126	128	130	132	135	137	140	144	146	147	148	148	148	147	146	148	148	148	147	145	141	137	133	129	125	120	115	110	106	102	97	92	88	84	81	77	73	69	65	61	59	56	53	50	47	44	41	38	35	33	31	28	26	24	22	20	19	18	17	16	17	18	19	19	20	21	21	21	21	22	24	27	30	32	34	35	36	38	39	41	42	44	45	47	50	54	57	60	62	65	67	69	71	73	76	79	81	83	85	86	87	89	91	92	94	95	96	96	96	98	99	100	101	102	102	103	104	105	106	107	108	108	107	106	105	105	104	102	101	100	99	98	96	95	93	91	89	87	84	81	79	78	76	74	73	71	69	66	63	61	62	63	66	67	69	71	73	76	80	83	86	89	92	95	97	99	101	101	102	101	100	99	98	98	98	99	101	103	104	106	108	109	110	111	113	115	116	118	120	122	123	125	126	127	129	130	131	132	132	133	134	135	136	136	135	135	135	134	133	133	132	131	130	129	127	126	124	122	120	119	117	115	112	109	105	102	98	96	93	91	89	86	83	80	76	72	68	65	61	55	46	25	9	8	14	22	29	32	29	25	18	14	11	8	5	3	1	0	0	0	0	0	0	0	0	0	0	0	0	0	0	0	0	0	0	0	0	0	0	0	0	0	0	0	0	0	0	0	0	0	0	0	0	0	0	0	0	0	0	0	0	0	0	0	0	0	0	0	0	0	0	0	0	0	0	0	0	0	0	0	0	0	0	0	0	0	0	0	0	0	0	0	0	0	0	0	0	0	0	0	0	0	0	0	0	0	0	0	0	0	0	0	0	0	0	0	0	0	0	0	0	0	0	0	0	0	0	0	0	0	0	0	0	0	0	0	0	0	0	0	0	0	0	0	0	0	0	0	0	0	0	0	0	0	0	0	0	0	0	0	0	0	0	0	0	0	0	0	0	0	0	0	0	0	0	0	0	0	0	0	0	0	0	0	0	0	0	0	0	0	0	0	0	0	0	0	0	0	0	0	0	0	0	0	0	0	0	0	0	0	0	0	0	0	0	0	0	0	0	0	0	0	0	0	0	0	0	0	0	0	0	0	0	0	0	0	0	0	0	0	0	0	0	0	0	0	0	0	0	0	0	0	0	0	0	0	0	0	0	0	0	0	0	0	0	0	0	0	0	0	0	0	0	0	0	0	0	0	0	0	0	0	0	0	0	0	0	0	0	0	0	0	0	0	0	0	0	0	0	0	0	0	0	0	0	0	0	0	0	0	0	0	0	0	0	0	0	0	0	0	0	0	0	0	0	0	0	0	0	0	0	0	0	0	0	0	0	0	0	0	0	0	0
45	45	45	45	45	45	45	45	45	45	45	45	45	45	45	45	44	44	46	48	52	55	58	64	69	72	74	76	79	82	84	86	87	89	90	91	91	91	91	91	90	89	89	89	89	89	90	92	93	95	96	98	99	101	103	105	107	108	108	107	105	104	103	102	102	101	102	101	99	97	94	92	90	88	89	91	95	98	102	105	108	111	113	116	118	119	120	121	122	123	123	123	122	120	118	115	113	110	108	106	104	102	99	96	94	91	88	84	81	78	75	73	71	68	66	63	61	59	56	54	53	51	50	49	48	46	45	45	45	45	45	45	45	45	45	45	45	45	45	45	45	45	45	45	45	45	45	45	45	45	45	45	45	45	45	45	45	45	45	45	45	45	45	45	45	45	45	45	45	45	45	45	45	45	45	45	45	45	45	45	46	48	50	52	53	54	54	55	55	56	56	57	57	56	56	55	56	55	55	54	52	50	49	48	48	49	49	49	48	48	47	46	46	45	45	45	45	45	47	48	48	47	46	46	46	48	51	54	58	64	70	73	76	79	82	84	86	88	89	91	92	94	96	98	100	101	101	101	102	103	104	105	106	107	108	108	107	105	103	102	100	97	94	93	93	93	95	98	102	106	109	112	116	119	122	125	128	130	131	131	131	130	130	130	131	133	135	137	138	140	142	143	144	145	147	148	150	151	151	152	153	153	154	154	155	154	153	153	152	151	150	148	147	146	144	142	138	135	133	130	128	126	125	122	119	116	113	110	107	105	103	101	100	98	97	95	94	94	94	93	93	93	93	93	93	92	92	92	92	93	94	95	98	102	103	104	103	104	105	105	104	103	99	95	93	92	91	89	88	88	88	88	87	86	85	83	82	80	79	76	73	70	67	64	61	59	57	54	54	55	56	56	55	56	60	63	67	71	74	76	78	81	84	87	90	93	96	100	103	106	109	112	115	117	120	123	126	129	131	133	135	136	138	141	146	150	151	151	150	150	149	148	149	150	149	148	145	141	137	133	128	124	120	115	110	106	101	97	92	88	84	80	76	73	69	65	61	58	56	53	49	46	43	40	37	35	33	30	28	26	24	22	20	19	18	17	17	17	18	20	21	22	22	22	21	21	22	25	28	31	34	36	38	39	40	41	42	44	45	47	48	51	54	57	60	63	65	68	70	72	75	78	82	84	86	88	89	91	92	92	94	95	97	97	97	98	99	100	101	102	103	104	105	106	106	107	108	109	109	108	107	106	106	105	103	102	100	100	98	96	95	93	90	88	86	84	82	80	78	77	75	73	72	70	68	64	63	63	65	67	68	70	72	74	76	80	83	86	88	91	94	97	99	101	102	103	102	101	100	99	99	99	100	102	103	105	107	109	109	110	111	113	115	116	117	119	121	123	125	127	129	130	131	132	132	133	134	134	135	135	136	135	135	134	134	133	133	133	132	131	129	127	125	122	120	119	117	115	113	110	107	104	101	99	96	94	92	90	88	85	81	77	73	69	66	62	56	47	23	10	11	18	25	33	34	31	26	21	16	11	7	4	2	0	0	0	0	0	0	0	0	0	0	0	0	0	0	0	0	0	0	0	0	0	0	0	0	0	0	0	0	0	0	0	0	0	0	0	0	0	0	0	0	0	0	0	0	0	0	0	0	0	0	0	0	0	0	0	0	0	0	0	0	0	0	0	0	0	0	0	0	0	0	0	0	0	0	0	0	0	0	0	0	0	0	0	0	0	0	0	0	0	0	0	0	0	0	0	0	0	0	0	0	0	0	0	0	0	0	0	0	0	0	0	0	0	0	0	0	0	0	0	0	0	0	0	0	0	0	0	0	0	0	0	0	0	0	0	0	0	0	0	0	0	0	0	0	0	0	0	0	0	0	0	0	0	0	0	0	0	0	0	0	0	0	0	0	0	0	0	0	0	0	0	0	0	0	0	0	0	0	0	0	0	0	0	0	0	0	0	0	0	0	0	0	0	0	0	0	0	0	0	0	0	0	0	0	0	0	0	0	0	0	0	0	0	0	0	0	0	0	0	0	0	0	0	0	0	0	0	0	0	0	0	0	0	0	0	0	0	0	0	0	0	0	0	0	0	0	0	0	0	0	0	0	0	0	0	0	0	0	0	0	0	0	0	0	0	0	0	0	0	0	0	0	0	0	0	0	0	0	0	0	0	0	0	0	0	0	0	0	0	0	0	0	0	0	0	0	0	0	0	0	0	0	0	0	0	0	0	0	0	0	0	0	0	0	0	0	0	0	0	0	0	0	0	0	0	0	0
45	45	45	45	45	45	45	45	45	45	45	45	45	45	45	45	45	45	47	49	53	56	59	64	69	72	74	77	79	82	84	87	88	90	91	92	92	92	92	93	93	92	91	91	92	91	91	92	93	95	97	98	100	102	103	105	108	110	110	109	108	107	105	105	104	103	102	102	100	98	96	93	92	91	90	92	95	99	103	106	109	112	115	118	119	121	122	122	123	123	123	123	122	119	117	115	112	110	108	106	104	101	99	96	93	91	87	84	81	78	75	73	71	68	66	63	61	59	57	55	54	52	51	50	49	47	46	45	45	45	45	45	45	45	45	45	45	45	45	45	45	45	45	45	45	45	45	45	45	45	45	45	45	45	45	45	45	45	45	45	45	45	45	45	45	45	45	45	45	45	45	45	45	45	45	45	45	45	45	45	45	46	48	49	50	51	51	52	53	53	54	55	55	54	54	53	53	53	53	52	50	48	47	46	46	46	46	46	46	46	46	45	45	45	45	45	45	45	45	46	46	46	45	45	46	48	52	55	59	64	69	72	75	78	81	83	85	87	89	90	92	94	96	98	100	101	101	102	102	103	104	105	105	106	106	106	105	103	101	99	97	94	92	91	91	93	95	99	103	107	110	112	115	119	122	126	128	129	130	130	129	129	129	129	131	133	135	136	138	141	143	144	145	146	148	149	151	152	153	154	155	156	156	157	157	156	155	154	153	152	151	150	149	147	145	142	139	136	133	131	129	127	125	122	120	117	113	110	108	106	105	103	102	101	99	98	97	97	97	97	96	96	96	96	95	95	95	95	95	96	96	96	98	102	105	106	104	105	106	107	106	105	102	98	95	93	93	92	91	91	91	90	90	89	88	86	84	82	80	77	74	70	67	65	62	60	57	55	56	58	59	59	58	58	60	64	67	70	74	76	79	82	84	87	89	93	97	100	104	107	110	113	116	119	122	125	129	131	133	136	137	139	140	142	147	152	153	152	152	153	152	151	151	151	151	149	146	142	138	133	128	124	120	115	110	106	102	97	92	87	83	80	76	73	70	65	61	58	55	52	49	46	43	40	37	35	32	29	27	25	23	21	20	19	18	17	17	18	20	21	23	24	24	23	22	22	22	25	29	32	36	38	40	41	42	43	45	46	47	48	49	51	54	57	60	63	65	68	71	73	75	79	83	85	88	90	92	94	94	95	96	97	98	98	99	99	100	101	102	103	105	106	107	108	108	109	110	110	110	110	109	108	107	106	104	103	101	100	98	96	95	93	91	89	87	85	83	81	80	78	76	75	73	71	69	66	64	65	67	68	69	71	73	75	77	80	82	85	88	91	94	97	99	101	103	103	103	102	101	100	100	101	101	103	104	106	108	110	111	111	113	114	116	117	118	119	121	123	125	128	130	131	132	132	133	133	134	135	135	136	136	135	135	134	133	133	133	133	132	130	128	127	124	122	119	117	115	113	111	108	105	102	100	98	95	93	91	90	88	85	82	77	73	70	66	62	57	49	31	15	14	22	30	37	37	33	27	22	17	11	6	3	1	0	0	0	0	0	0	0	0	0	0	0	0	0	0	0	0	0	0	0	0	0	0	0	0	0	0	0	0	0	0	0	0	0	0	0	0	0	0	0	0	0	0	0	0	0	0	0	0	0	0	0	0	0	0	0	0	0	0	0	0	0	0	0	0	0	0	0	0	0	0	0	0	0	0	0	0	0	0	0	0	0	0	0	0	0	0	0	0	0	0	0	0	0	0	0	0	0	0	0	0	0	0	0	0	0	0	0	0	0	0	0	0	0	0	0	0	0	0	0	0	0	0	0	0	0	0	0	0	0	0	0	0	0	0	0	0	0	0	0	0	0	0	0	0	0	0	0	0	0	0	0	0	0	0	0	0	0	0	0	0	0	0	0	0	0	0	0	0	0	0	0	0	0	0	0	0	0	0	0	0	0	0	0	0	0	0	0	0	0	0	0	0	0	0	0	0	0	0	0	0	0	0	0	0	0	0	0	0	0	0	0	0	0	0	0	0	0	0	0	0	0	0	0	0	0	0	0	0	0	0	0	0	0	0	0	0	0	0	0	0	0	0	0	0	0	0	0	0	0	0	0	0	0	0	0	0	0	0	0	0	0	0	0	0	0	0	0	0	0	0	0	0	0	0	0	0	0	0	0	0	0	0	0	0	0	0	0	0	0	0	0	0	0	0	0	0	0	0	0	0	0	0	0	0	0	0	0	0	0	0	0	0	0	0	0	0	0	0	0	0	0	0	0	0	0	0	0
45	45	45	45	45	45	45	45	45	45	45	45	45	45	45	45	45	46	48	50	54	57	60	64	69	72	74	77	79	82	85	87	89	91	93	93	93	94	94	94	95	94	93	93	94	93	92	92	94	96	97	99	100	102	103	105	108	110	111	110	110	109	108	107	105	104	103	102	101	99	97	95	93	92	91	92	95	99	104	107	110	113	116	119	121	122	123	124	124	124	123	123	121	119	117	114	111	109	107	105	103	101	98	95	93	90	86	83	80	78	76	73	70	68	66	64	61	59	57	56	55	54	53	52	50	48	47	46	45	45	45	45	45	45	45	45	45	45	45	45	45	45	45	45	45	45	45	45	45	45	45	45	45	45	45	45	45	45	45	45	45	45	45	45	45	45	45	45	45	45	45	45	45	45	45	45	45	45	45	45	45	45	46	46	47	48	48	49	49	50	51	52	52	52	51	51	51	51	51	49	48	46	45	45	45	45	45	45	45	45	45	44	44	45	45	45	45	45	45	45	45	45	45	46	47	49	53	56	60	65	69	72	75	77	80	82	85	87	89	91	93	94	96	98	100	101	102	102	102	102	103	103	104	104	104	104	103	101	99	96	94	91	89	88	89	92	96	100	104	108	111	112	115	118	121	125	128	128	129	128	127	127	127	129	130	132	135	136	138	141	143	144	145	147	148	150	153	154	155	156	157	158	158	158	158	157	156	155	154	153	153	152	150	148	146	143	140	137	134	132	129	127	124	122	120	117	114	112	110	108	107	105	104	103	101	100	99	100	100	99	99	98	98	98	98	98	98	98	98	98	98	98	99	102	106	106	106	107	108	108	107	107	105	101	97	96	96	96	95	94	94	93	92	91	90	88	86	83	81	78	74	70	68	66	63	60	58	57	59	61	62	62	61	61	61	64	68	71	74	77	80	83	85	87	90	93	97	100	104	107	111	114	118	121	124	127	130	132	135	138	139	140	142	144	147	151	153	152	153	155	154	153	153	153	152	151	148	144	139	134	129	125	121	116	112	108	103	98	92	87	83	79	76	73	69	65	61	58	55	52	49	46	43	39	36	34	31	29	27	25	23	21	19	18	18	17	18	20	22	23	24	25	25	24	23	22	22	26	30	34	37	40	42	43	44	45	47	48	49	50	50	51	54	57	61	63	65	68	71	74	77	80	83	85	89	92	94	95	96	97	97	98	99	100	101	101	102	103	104	105	106	108	109	109	110	111	111	112	112	111	111	109	108	107	105	104	102	101	99	97	96	94	92	90	88	87	85	83	81	80	78	76	75	72	69	67	65	66	68	70	71	73	76	77	79	81	83	85	88	90	93	96	99	101	103	104	104	103	102	101	101	102	103	104	105	107	109	110	112	113	114	115	117	118	119	120	122	124	126	129	130	131	132	133	134	134	135	135	136	136	136	135	135	134	134	133	132	132	131	129	128	126	124	122	119	116	113	111	109	106	103	101	99	96	93	91	89	88	87	84	81	78	74	70	66	63	59	52	37	24	21	28	36	40	38	34	27	23	17	9	4	2	1	0	0	0	0	0	0	0	0	0	0	0	0	0	0	0	0	0	0	0	0	0	0	0	0	0	0	0	0	0	0	0	0	0	0	0	0	0	0	0	0	0	0	0	0	0	0	0	0	0	0	0	0	0	0	0	0	0	0	0	0	0	0	0	0	0	0	0	0	0	0	0	0	0	0	0	0	0	0	0	0	0	0	0	0	0	0	0	0	0	0	0	0	0	0	0	0	0	0	0	0	0	0	0	0	0	0	0	0	0	0	0	0	0	0	0	0	0	0	0	0	0	0	0	0	0	0	0	0	0	0	0	0	0	0	0	0	0	0	0	0	0	0	0	0	0	0	0	0	0	0	0	0	0	0	0	0	0	0	0	0	0	0	0	0	0	0	0	0	0	0	0	0	0	0	0	0	0	0	0	0	0	0	0	0	0	0	0	0	0	0	0	0	0	0	0	0	0	0	0	0	0	0	0	0	0	0	0	0	0	0	0	0	0	0	0	0	0	0	0	0	0	0	0	0	0	0	0	0	0	0	0	0	0	0	0	0	0	0	0	0	0	0	0	0	0	0	0	0	0	0	0	0	0	0	0	0	0	0	0	0	0	0	0	0	0	0	0	0	0	0	0	0	0	0	0	0	0	0	0	0	0	0	0	0	0	0	0	0	0	0	0	0	0	0	0	0	0	0	0	0	0	0	0	0	0	0	0	0	0	0	0	0	0	0	0	0	0	0	0	0	0	0	0	0	0	0	0
45	45	45	45	45	45	45	45	45	45	45	45	45	45	45	45	45	46	49	52	55	58	61	65	69	72	75	77	80	83	85	87	90	92	93	94	94	95	96	96	96	95	95	95	95	95	94	93	94	96	98	99	100	101	103	104	106	109	110	110	110	110	109	108	107	106	104	103	102	101	99	97	95	94	93	93	96	100	104	107	111	114	117	120	122	123	124	124	124	124	123	122	121	119	116	113	110	109	107	104	102	100	97	94	91	88	85	83	80	78	76	73	70	68	67	65	63	61	59	57	56	55	54	53	52	51	49	47	46	45	45	45	45	45	45	45	45	45	45	45	45	45	45	45	45	45	45	45	45	45	45	45	45	45	45	45	45	45	45	45	45	45	45	45	45	45	45	45	45	45	45	45	45	45	45	45	45	45	45	45	45	45	45	45	45	45	46	47	47	47	48	50	51	50	50	49	49	49	48	47	46	45	44	45	45	45	45	45	45	45	45	45	45	45	45	45	45	45	45	45	45	45	46	47	48	51	54	57	61	66	70	72	75	78	80	82	85	87	89	90	92	94	95	97	99	101	102	102	101	101	102	102	102	102	102	101	100	98	96	93	90	88	86	87	88	91	96	100	104	108	110	112	114	117	120	124	126	127	127	126	125	125	126	128	130	132	134	136	138	141	143	144	145	147	149	152	154	156	157	158	159	160	160	159	159	158	157	157	156	155	154	154	152	150	147	144	141	138	136	133	130	127	125	122	120	118	116	114	112	111	109	108	106	105	104	102	102	103	103	102	102	101	101	102	102	101	101	101	102	102	101	101	101	104	107	109	109	110	110	110	109	109	107	103	100	99	99	99	99	98	97	97	95	93	91	89	87	84	81	78	74	71	69	66	63	60	59	60	63	64	65	65	65	64	62	64	69	73	76	78	81	84	87	89	91	95	98	100	103	107	111	114	118	122	125	128	130	133	136	139	140	141	143	145	147	150	151	153	155	156	156	155	155	154	153	152	150	146	141	136	130	125	121	117	112	109	104	98	92	87	82	79	75	72	69	65	62	58	55	51	49	46	43	40	36	34	32	29	27	25	24	22	19	18	17	17	19	21	24	25	26	27	27	26	24	23	23	26	31	34	37	40	43	45	46	47	48	49	50	52	52	53	55	58	61	63	66	68	71	74	77	81	84	86	89	93	95	96	98	98	99	100	100	102	103	103	104	105	106	107	108	109	110	111	112	112	113	113	113	113	113	111	109	108	106	105	103	102	101	99	98	96	93	91	89	88	86	84	83	81	79	78	76	73	70	68	66	68	70	72	73	75	78	80	82	84	85	86	88	90	93	96	99	101	103	104	104	104	104	103	103	103	104	105	106	108	109	111	113	114	116	117	119	120	121	123	124	125	127	129	131	132	133	134	134	135	136	136	136	136	136	136	135	135	134	133	132	131	130	128	127	125	124	121	119	116	113	110	108	105	102	100	97	94	92	89	87	85	84	82	80	77	74	70	66	62	58	53	42	31	29	33	39	41	38	32	27	21	13	5	3	1	0	0	0	0	0	0	0	0	0	0	0	0	0	0	0	0	0	0	0	0	0	0	0	0	0	0	0	0	0	0	0	0	0	0	0	0	0	0	0	0	0	0	0	0	0	0	0	0	0	0	0	0	0	0	0	0	0	0	0	0	0	0	0	0	0	0	0	0	0	0	0	0	0	0	0	0	0	0	0	0	0	0	0	0	0	0	0	0	0	0	0	0	0	0	0	0	0	0	0	0	0	0	0	0	0	0	0	0	0	0	0	0	0	0	0	0	0	0	0	0	0	0	0	0	0	0	0	0	0	0	0	0	0	0	0	0	0	0	0	0	0	0	0	0	0	0	0	0	0	0	0	0	0	0	0	0	0	0	0	0	0	0	0	0	0	0	0	0	0	0	0	0	0	0	0	0	0	0	0	0	0	0	0	0	0	0	0	0	0	0	0	0	0	0	0	0	0	0	0	0	0	0	0	0	0	0	0	0	0	0	0	0	0	0	0	0	0	0	0	0	0	0	0	0	0	0	0	0	0	0	0	0	0	0	0	0	0	0	0	0	0	0	0	0	0	0	0	0	0	0	0	0	0	0	0	0	0	0	0	0	0	0	0	0	0	0	0	0	0	0	0	0	0	0	0	0	0	0	0	0	0	0	0	0	0	0	0	0	0	0	0	0	0	0	0	0	0	0	0	0	0	0	0	0	0	0	0	0	0	0	0	0	0	0	0	0	0	0	0	0	0	0	0	0	0	0	0	0
45	45	45	45	45	45	45	45	45	45	45	45	45	45	45	45	45	48	51	54	57	60	63	67	70	73	76	78	81	84	86	88	90	93	94	95	95	96	97	98	97	97	97	97	96	96	95	95	95	96	98	99	100	101	102	104	106	108	109	110	110	110	110	109	108	107	105	104	104	103	101	100	98	96	95	95	97	100	104	108	112	115	118	120	123	125	125	124	124	124	123	122	120	118	115	112	110	108	106	104	101	99	96	93	91	88	85	83	81	78	76	74	72	70	69	67	65	63	60	59	57	56	55	55	54	53	52	49	47	46	45	45	45	45	45	45	45	45	45	45	45	45	45	45	45	45	45	45	45	45	45	45	45	45	45	45	45	45	45	45	45	45	45	45	45	45	45	45	45	45	45	45	45	45	45	45	45	45	45	45	45	45	45	45	45	45	45	45	45	46	46	48	48	49	48	47	47	47	46	46	45	44	44	45	45	45	45	45	45	45	45	45	45	45	45	45	45	45	45	45	45	45	47	49	51	53	56	59	63	68	71	73	76	78	80	82	84	86	88	90	92	93	94	96	98	99	101	101	100	101	101	101	101	100	100	98	97	95	93	90	87	85	84	85	87	90	94	99	103	106	108	110	113	116	119	122	124	125	124	124	123	124	126	128	130	132	134	136	138	140	142	144	146	148	151	153	155	157	158	160	161	161	161	160	159	159	159	159	158	158	157	155	154	152	149	145	142	140	137	135	131	128	126	124	122	120	118	116	114	113	112	111	109	107	106	105	105	106	106	105	105	104	104	105	105	104	103	105	108	108	107	105	107	110	112	112	113	113	113	112	111	110	109	106	104	103	103	102	102	101	101	100	97	95	92	90	87	83	80	77	74	72	69	67	64	61	61	64	66	67	68	68	68	66	64	64	70	74	77	79	83	85	88	91	94	97	99	101	103	107	111	114	118	122	125	128	131	134	137	139	141	142	144	147	149	150	152	154	156	157	157	157	157	156	155	154	151	147	142	136	131	126	121	116	112	108	104	98	92	87	82	78	75	72	68	65	62	58	55	52	49	46	43	40	37	35	32	30	28	26	24	22	20	17	15	18	20	23	25	27	28	29	29	28	26	24	24	26	30	34	37	40	43	46	48	49	50	51	52	54	54	55	57	59	61	64	67	69	72	75	78	82	85	87	89	92	95	97	98	99	100	101	102	104	105	106	107	108	108	108	109	111	112	113	113	114	114	115	115	115	114	113	111	109	108	107	105	104	103	101	99	97	95	92	90	89	87	86	85	83	81	79	77	74	71	69	68	69	71	73	75	77	80	82	84	86	88	89	90	92	94	96	99	101	103	105	105	106	106	105	105	105	106	107	107	108	110	111	113	115	118	120	121	122	124	125	126	127	128	130	132	133	134	135	135	136	136	137	137	137	137	136	135	135	134	133	132	130	129	127	126	124	122	120	118	115	113	110	107	104	101	99	96	93	91	88	85	83	82	80	78	75	73	69	65	62	59	54	48	41	37	38	42	41	37	32	25	15	6	4	3	1	0	0	0	0	0	0	0	0	0	0	0	0	0	0	0	0	0	0	0	0	0	0	0	0	0	0	0	0	0	0	0	0	0	0	0	0	0	0	0	0	0	0	0	0	0	0	0	0	0	0	0	0	0	0	0	0	0	0	0	0	0	0	0	0	0	0	0	0	0	0	0	0	0	0	0	0	0	0	0	0	0	0	0	0	0	0	0	0	0	0	0	0	0	0	0	0	0	0	0	0	0	0	0	0	0	0	0	0	0	0	0	0	0	0	0	0	0	0	0	0	0	0	0	0	0	0	0	0	0	0	0	0	0	0	0	0	0	0	0	0	0	0	0	0	0	0	0	0	0	0	0	0	0	0	0	0	0	0	0	0	0	0	0	0	0	0	0	0	0	0	0	0	0	0	0	0	0	0	0	0	0	0	0	0	0	0	0	0	0	0	0	0	0	0	0	0	0	0	0	0	0	0	0	0	0	0	0	0	0	0	0	0	0	0	0	0	0	0	0	0	0	0	0	0	0	0	0	0	0	0	0	0	0	0	0	0	0	0	0	0	0	0	0	0	0	0	0	0	0	0	0	0	0	0	0	0	0	0	0	0	0	0	0	0	0	0	0	0	0	0	0	0	0	0	0	0	0	0	0	0	0	0	0	0	0	0	0	0	0	0	0	0	0	0	0	0	0	0	0	0	0	0	0	0	0	0	0	0	0	0	0	0	0	0	0	0	0	0	0	0	0	0	0	0	0	0	0	0
45	45	45	45	45	45	45	45	45	45	45	45	45	45	45	45	46	49	53	56	59	62	65	68	71	74	76	79	82	84	87	89	91	93	95	96	96	97	98	99	99	98	98	98	98	97	97	97	97	97	98	99	100	101	102	103	105	107	108	109	110	111	110	110	109	108	107	106	105	105	103	102	101	99	98	97	98	101	105	109	113	116	119	121	125	127	125	124	125	124	123	121	119	117	115	112	109	107	105	103	100	98	96	94	92	88	86	84	82	80	78	77	75	74	71	69	67	65	62	60	59	57	56	56	56	55	54	52	49	47	45	45	45	45	45	45	45	45	45	45	45	45	45	45	45	45	45	45	45	45	45	45	45	45	45	45	45	45	45	45	45	45	45	45	45	45	45	45	45	45	45	45	45	45	45	45	45	45	45	45	45	45	45	45	45	45	45	45	45	45	45	46	47	47	46	46	46	45	45	45	45	45	45	45	45	45	45	45	45	45	45	45	45	45	45	45	45	45	45	45	45	46	49	52	54	56	58	61	64	68	71	73	76	78	80	82	83	85	87	89	91	93	94	95	96	97	98	99	99	100	101	100	99	98	98	96	94	92	91	88	85	83	82	83	87	89	93	98	101	104	106	109	112	115	118	120	122	122	122	122	123	124	126	129	131	133	135	136	138	140	142	144	146	149	152	154	157	158	160	161	161	162	162	161	161	161	161	161	161	160	159	158	156	153	150	147	144	142	140	137	133	130	128	126	124	121	119	118	117	116	114	113	111	110	109	108	108	109	109	108	108	107	107	108	107	106	106	109	113	112	111	111	113	115	115	115	116	116	116	115	113	111	109	108	108	108	107	105	104	104	104	102	100	96	93	90	87	84	81	78	75	73	71	68	64	62	64	67	70	71	71	71	70	69	66	66	70	75	78	81	84	86	89	93	96	99	101	103	105	108	111	114	117	121	124	128	131	135	138	140	142	144	146	148	150	151	153	155	157	159	159	159	159	157	156	154	152	147	142	136	131	126	121	116	111	107	102	97	92	86	81	77	75	72	68	65	61	58	55	52	49	47	44	41	38	36	33	31	29	27	25	23	20	16	16	19	22	25	27	29	30	31	31	31	28	26	25	27	30	34	37	40	43	46	49	50	51	52	54	55	56	57	58	60	62	65	68	70	73	77	79	82	85	87	88	91	94	97	99	100	101	103	104	106	107	108	109	110	110	111	112	113	114	115	115	116	116	117	117	117	116	114	112	111	110	109	107	106	105	102	100	98	96	94	91	90	88	88	86	84	82	80	78	75	72	70	70	71	73	75	78	80	82	84	87	88	90	91	92	94	96	98	100	102	104	106	107	107	108	108	107	108	108	108	109	109	110	112	114	116	119	121	123	124	125	127	128	129	130	131	132	134	135	136	136	137	137	137	137	137	137	136	136	135	134	133	131	129	127	126	124	122	121	119	117	115	113	110	107	104	102	99	96	94	91	88	85	83	80	78	76	73	71	68	65	63	61	57	54	50	46	45	45	42	36	31	20	7	3	6	6	1	0	0	0	0	0	0	0	0	0	0	0	0	0	0	0	0	0	0	0	0	0	0	0	0	0	0	0	0	0	0	0	0	0	0	0	0	0	0	0	0	0	0	0	0	0	0	0	0	0	0	0	0	0	0	0	0	0	0	0	0	0	0	0	0	0	0	0	0	0	0	0	0	0	0	0	0	0	0	0	0	0	0	0	0	0	0	0	0	0	0	0	0	0	0	0	0	0	0	0	0	0	0	0	0	0	0	0	0	0	0	0	0	0	0	0	0	0	0	0	0	0	0	0	0	0	0	0	0	0	0	0	0	0	0	0	0	0	0	0	0	0	0	0	0	0	0	0	0	0	0	0	0	0	0	0	0	0	0	0	0	0	0	0	0	0	0	0	0	0	0	0	0	0	0	0	0	0	0	0	0	0	0	0	0	0	0	0	0	0	0	0	0	0	0	0	0	0	0	0	0	0	0	0	0	0	0	0	0	0	0	0	0	0	0	0	0	0	0	0	0	0	0	0	0	0	0	0	0	0	0	0	0	0	0	0	0	0	0	0	0	0	0	0	0	0	0	0	0	0	0	0	0	0	0	0	0	0	0	0	0	0	0	0	0	0	0	0	0	0	0	0	0	0	0	0	0	0	0	0	0	0	0	0	0	0	0	0	0	0	0	0	0	0	0	0	0	0	0	0	0	0	0	0	0	0	0	0	0	0	0	0	0	0	0	0	0	0	0	0	0	0	0	0	0	0	0	0	0
45	45	45	45	45	45	45	45	45	45	45	45	45	45	45	45	47	51	55	58	60	64	67	70	73	75	78	80	83	85	88	90	92	95	97	98	98	98	99	100	99	99	99	99	99	98	99	99	99	99	99	99	100	101	102	103	104	106	107	108	110	110	111	110	110	110	108	107	107	106	106	105	103	102	101	100	100	102	105	110	114	117	119	122	126	128	126	125	125	124	123	121	119	117	114	112	110	107	105	102	100	99	97	95	93	90	88	86	84	82	80	79	77	75	73	71	69	67	64	62	60	59	58	58	57	57	56	54	51	48	46	45	45	45	45	45	45	45	45	45	45	45	45	45	45	45	45	45	45	45	45	45	45	45	45	45	45	45	45	45	45	45	45	45	45	45	45	45	45	45	45	45	45	45	45	45	45	45	45	45	45	45	45	45	45	45	45	45	45	45	45	45	45	45	45	45	45	45	45	45	45	45	45	45	45	45	45	45	45	45	45	45	45	45	46	46	45	45	45	45	46	47	50	53	55	57	59	61	65	68	70	72	75	78	80	81	83	84	87	89	91	92	93	94	95	96	96	97	98	99	100	100	99	97	96	94	92	90	88	86	83	81	80	82	86	89	93	97	100	103	105	108	111	115	117	118	119	119	120	121	123	125	127	130	133	134	136	137	138	140	142	144	146	149	153	156	158	160	161	161	162	162	162	162	162	162	163	163	164	163	162	160	158	155	152	149	147	144	142	139	135	132	130	128	126	124	122	120	120	118	117	115	114	113	112	111	112	112	112	112	111	110	111	111	110	109	109	112	115	115	114	116	118	118	118	118	119	119	119	118	116	114	111	111	111	111	111	111	109	107	106	104	102	97	93	90	88	85	82	79	76	74	72	69	65	64	67	71	74	75	75	74	73	72	69	68	69	74	78	82	84	87	90	94	97	100	104	106	108	110	112	115	117	120	124	128	131	135	139	142	144	146	148	150	151	153	155	157	159	161	162	161	161	160	158	155	152	147	141	136	131	126	120	115	109	104	100	95	90	85	80	77	74	71	68	64	61	58	56	53	50	47	44	42	39	36	34	31	29	27	26	23	20	17	17	20	24	27	29	31	32	33	33	33	31	28	27	27	30	34	38	40	43	46	49	50	51	53	55	56	58	59	60	61	64	66	69	71	74	77	80	82	84	86	89	91	94	97	99	101	103	105	107	109	110	111	112	113	113	113	114	115	116	117	118	118	119	120	119	118	117	115	114	113	113	111	109	108	106	103	101	99	97	95	92	90	90	89	88	85	83	81	78	76	73	71	71	72	74	77	80	82	85	87	89	90	92	93	94	96	98	101	103	104	106	107	108	109	109	110	110	111	111	110	110	110	112	113	115	117	119	121	123	124	126	127	129	130	131	132	133	134	136	136	137	138	138	138	138	137	136	136	135	135	135	133	131	129	126	125	123	121	120	118	115	114	112	109	106	104	102	100	97	94	92	89	85	83	80	78	75	73	70	67	65	63	61	59	57	55	51	48	46	41	36	27	14	6	4	4	3	1	0	0	0	0	0	0	0	0	0	0	0	0	0	0	0	0	0	0	0	0	0	0	0	0	0	0	0	0	0	0	0	0	0	0	0	0	0	0	0	0	0	0	0	0	0	0	0	0	0	0	0	0	0	0	0	0	0	0	0	0	0	0	0	0	0	0	0	0	0	0	0	0	0	0	0	0	0	0	0	0	0	0	0	0	0	0	0	0	0	0	0	0	0	0	0	0	0	0	0	0	0	0	0	0	0	0	0	0	0	0	0	0	0	0	0	0	0	0	0	0	0	0	0	0	0	0	0	0	0	0	0	0	0	0	0	0	0	0	0	0	0	0	0	0	0	0	0	0	0	0	0	0	0	0	0	0	0	0	0	0	0	0	0	0	0	0	0	0	0	0	0	0	0	0	0	0	0	0	0	0	0	0	0	0	0	0	0	0	0	0	0	0	0	0	0	0	0	0	0	0	0	0	0	0	0	0	0	0	0	0	0	0	0	0	0	0	0	0	0	0	0	0	0	0	0	0	0	0	0	0	0	0	0	0	0	0	0	0	0	0	0	0	0	0	0	0	0	0	0	0	0	0	0	0	0	0	0	0	0	0	0	0	0	0	0	0	0	0	0	0	0	0	0	0	0	0	0	0	0	0	0	0	0	0	0	0	0	0	0	0	0	0	0	0	0	0	0	0	0	0	0	0	0	0	0	0	0	0	0	0	0	0	0	0	0	0	0	0	0	0	0	0	0	0	0	0	0	0
45	45	45	45	45	45	45	45	45	45	45	45	45	45	45	46	48	52	56	59	62	66	69	72	74	77	79	82	84	87	89	91	93	96	98	98	98	98	99	100	100	100	100	100	100	100	100	100	100	100	100	100	100	101	101	102	103	105	106	107	108	110	110	111	111	110	110	109	108	108	107	107	106	105	104	103	102	103	106	110	114	117	120	123	125	126	127	126	125	124	123	121	119	116	114	112	110	107	105	103	101	100	99	97	94	92	90	88	85	83	82	80	78	76	74	72	69	68	66	64	62	60	59	59	59	58	57	55	53	50	47	46	45	45	45	45	45	45	45	45	45	45	45	45	45	45	45	45	45	45	45	45	45	45	45	45	45	45	45	45	45	45	45	45	45	45	45	45	45	45	45	45	45	45	45	45	45	45	45	45	45	45	45	45	45	45	45	45	45	45	45	45	45	45	45	45	45	45	45	45	45	45	45	45	45	45	45	45	45	45	45	45	45	46	46	46	46	45	45	45	46	47	49	51	54	56	58	60	64	67	69	71	74	77	79	80	82	84	86	88	90	92	92	93	94	95	95	97	98	99	99	99	97	96	94	92	90	88	86	84	81	80	80	82	86	91	94	97	100	102	105	108	111	113	114	115	116	118	119	121	124	126	129	132	134	135	136	137	139	141	143	145	147	151	154	157	159	161	162	162	163	163	163	163	164	165	166	166	166	165	164	162	160	157	154	151	149	146	143	140	137	134	131	129	128	126	125	124	123	121	119	117	116	115	115	115	115	115	116	115	114	114	114	114	114	112	112	113	115	116	118	120	121	121	121	121	121	121	121	120	119	117	114	113	113	113	115	116	114	109	107	106	103	99	95	91	89	87	84	81	78	76	73	70	66	66	70	74	76	77	78	77	76	75	73	70	70	73	77	81	84	87	90	94	98	101	106	109	110	112	115	117	119	122	125	129	132	136	140	143	146	148	150	151	153	154	157	159	162	165	164	163	162	161	160	157	153	148	141	135	130	125	119	113	108	102	98	93	89	84	81	78	74	70	67	64	60	58	56	53	50	47	45	42	39	37	34	32	30	27	25	22	19	18	19	22	26	29	31	33	34	35	35	35	33	31	29	28	30	34	37	41	44	46	48	50	52	54	56	57	59	60	61	63	65	68	70	72	73	76	78	81	84	87	90	93	95	97	100	102	105	107	110	112	113	114	115	115	116	116	117	117	119	120	120	121	121	121	121	120	118	117	116	115	114	113	111	109	107	104	102	100	98	95	93	91	90	89	88	86	83	81	79	76	74	72	73	74	76	79	82	85	87	90	91	93	94	95	96	97	100	102	104	105	107	109	110	110	111	112	112	113	113	112	112	112	113	114	116	117	119	121	123	125	126	128	129	130	132	133	134	135	136	137	138	138	139	139	138	138	137	135	135	134	134	133	131	128	126	123	121	120	118	116	114	112	110	108	106	103	102	100	97	95	92	90	87	84	81	79	76	73	71	67	65	62	59	57	55	53	50	48	45	38	33	22	10	6	4	2	0	0	0	0	0	0	0	0	0	0	0	0	0	0	0	0	0	0	0	0	0	0	0	0	0	0	0	0	0	0	0	0	0	0	0	0	0	0	0	0	0	0	0	0	0	0	0	0	0	0	0	0	0	0	0	0	0	0	0	0	0	0	0	0	0	0	0	0	0	0	0	0	0	0	0	0	0	0	0	0	0	0	0	0	0	0	0	0	0	0	0	0	0	0	0	0	0	0	0	0	0	0	0	0	0	0	0	0	0	0	0	0	0	0	0	0	0	0	0	0	0	0	0	0	0	0	0	0	0	0	0	0	0	0	0	0	0	0	0	0	0	0	0	0	0	0	0	0	0	0	0	0	0	0	0	0	0	0	0	0	0	0	0	0	0	0	0	0	0	0	0	0	0	0	0	0	0	0	0	0	0	0	0	0	0	0	0	0	0	0	0	0	0	0	0	0	0	0	0	0	0	0	0	0	0	0	0	0	0	0	0	0	0	0	0	0	0	0	0	0	0	0	0	0	0	0	0	0	0	0	0	0	0	0	0	0	0	0	0	0	0	0	0	0	0	0	0	0	0	0	0	0	0	0	0	0	0	0	0	0	0	0	0	0	0	0	0	0	0	0	0	0	0	0	0	0	0	0	0	0	0	0	0	0	0	0	0	0	0	0	0	0	0	0	0	0	0	0	0	0	0	0	0	0	0	0	0	0	0	0	0	0	0	0	0	0	0	0	0	0	0	0	0	0	0	0	0	0	0	0
45	45	45	45	45	45	45	45	45	45	45	45	45	45	45	46	50	53	57	60	64	68	71	73	75	78	81	83	86	88	90	92	95	97	98	99	99	99	99	100	100	100	100	100	101	101	101	101	101	101	100	100	100	101	101	102	103	104	105	106	107	109	110	111	111	111	110	109	109	109	109	108	108	107	106	104	104	105	107	111	114	117	120	123	124	125	126	126	125	124	122	120	118	116	114	112	110	108	106	105	103	101	99	97	95	92	90	89	86	84	83	81	78	76	74	72	70	68	67	66	63	62	61	61	60	59	58	57	54	52	49	47	46	46	45	45	45	45	45	45	45	45	45	45	45	45	45	45	45	45	45	45	45	45	45	45	45	45	45	45	45	45	45	45	45	45	45	45	45	45	45	45	45	45	45	45	45	45	45	45	45	45	45	45	45	45	45	45	45	45	45	45	45	45	45	45	45	45	45	45	45	45	45	45	45	45	45	45	45	45	45	45	45	46	47	47	47	45	45	45	46	47	47	49	50	52	55	57	61	65	68	70	72	75	77	79	80	82	85	88	90	91	92	92	94	95	95	96	97	98	98	97	96	94	92	90	88	86	84	81	80	79	80	82	87	92	95	96	99	101	104	106	109	110	112	113	115	117	120	122	125	127	130	132	134	136	137	137	139	141	143	145	148	152	155	157	159	161	162	163	163	163	164	164	166	167	168	168	167	166	164	162	160	158	155	153	150	147	144	141	138	136	133	132	131	129	128	127	126	124	122	120	118	118	118	118	119	119	118	118	118	117	117	117	117	116	115	115	116	118	120	123	124	123	124	123	123	123	123	123	122	120	116	114	115	116	118	119	118	112	108	107	104	100	96	93	90	88	85	83	80	77	74	71	68	69	73	77	79	80	80	80	79	78	76	73	72	73	76	80	83	86	90	94	98	102	106	110	112	114	117	120	122	124	127	130	133	137	140	143	146	149	151	153	154	157	159	162	166	168	167	165	164	163	161	158	155	148	140	135	130	123	118	112	107	101	97	92	88	84	82	78	74	70	67	64	61	58	56	53	50	47	45	42	39	37	34	32	29	27	25	22	19	18	21	24	28	31	33	34	36	37	37	37	36	34	32	30	30	33	36	40	43	45	47	50	52	54	56	58	59	61	63	65	66	69	71	73	74	76	78	81	84	87	91	94	96	98	100	104	107	110	113	114	116	117	117	118	119	119	119	120	121	122	122	122	122	122	122	121	120	119	118	117	116	114	112	110	107	105	102	100	98	96	94	92	91	89	88	86	84	82	79	77	75	74	74	76	78	81	83	87	89	92	94	95	96	96	97	98	101	103	105	106	108	109	111	112	113	113	114	114	113	113	113	113	114	115	116	118	119	121	123	125	127	129	130	131	132	133	134	135	136	137	138	138	139	139	139	139	137	134	133	133	133	131	130	127	125	122	120	118	116	114	111	109	108	106	104	102	100	99	97	95	93	90	88	85	83	80	77	74	71	68	64	61	58	55	52	50	48	46	42	34	24	14	6	3	2	0	0	0	0	0	0	0	0	0	0	0	0	0	0	0	0	0	0	0	0	0	0	0	0	0	0	0	0	0	0	0	0	0	0	0	0	0	0	0	0	0	0	0	0	0	0	0	0	0	0	0	0	0	0	0	0	0	0	0	0	0	0	0	0	0	0	0	0	0	0	0	0	0	0	0	0	0	0	0	0	0	0	0	0	0	0	0	0	0	0	0	0	0	0	0	0	0	0	0	0	0	0	0	0	0	0	0	0	0	0	0	0	0	0	0	0	0	0	0	0	0	0	0	0	0	0	0	0	0	0	0	0	0	0	0	0	0	0	0	0	0	0	0	0	0	0	0	0	0	0	0	0	0	0	0	0	0	0	0	0	0	0	0	0	0	0	0	0	0	0	0	0	0	0	0	0	0	0	0	0	0	0	0	0	0	0	0	0	0	0	0	0	0	0	0	0	0	0	0	0	0	0	0	0	0	0	0	0	0	0	0	0	0	0	0	0	0	0	0	0	0	0	0	0	0	0	0	0	0	0	0	0	0	0	0	0	0	0	0	0	0	0	0	0	0	0	0	0	0	0	0	0	0	0	0	0	0	0	0	0	0	0	0	0	0	0	0	0	0	0	0	0	0	0	0	0	0	0	0	0	0	0	0	0	0	0	0	0	0	0	0	0	0	0	0	0	0	0	0	0	0	0	0	0	0	0	0	0	0	0	0	0	0	0	0	0	0	0	0	0	0	0	0	0	0	0	0	0	0	0	0
45	45	45	45	45	45	45	45	45	45	45	45	45	45	45	47	51	54	58	61	65	70	73	75	77	79	82	84	87	89	91	93	95	97	98	98	99	99	99	100	100	100	100	101	102	102	102	102	102	102	101	101	101	102	103	103	104	104	105	106	107	108	109	111	111	111	111	111	110	110	110	109	109	108	107	105	105	106	108	111	114	117	120	122	123	123	124	124	124	123	121	120	118	116	114	112	111	109	107	106	104	101	99	98	95	92	91	89	88	86	84	82	79	77	75	73	71	69	68	66	65	64	63	63	61	60	59	58	56	54	52	50	48	47	46	45	45	45	45	45	45	45	45	45	45	45	45	45	45	45	45	45	45	45	45	45	45	45	45	45	45	45	45	45	45	45	45	45	45	45	45	45	45	45	45	45	45	45	45	45	45	45	45	45	45	45	45	45	45	45	45	45	45	45	45	45	45	45	45	45	45	45	45	45	45	45	45	45	45	45	45	45	45	47	48	49	48	47	46	46	47	49	49	49	50	52	53	55	57	61	66	69	71	73	75	77	79	82	85	87	89	90	91	92	93	94	95	95	97	97	97	95	94	91	89	87	86	84	81	78	77	78	80	84	88	92	94	95	97	99	101	104	106	108	110	112	114	118	120	123	125	127	130	132	134	135	136	137	138	140	143	145	149	152	155	157	159	161	162	163	164	164	165	166	168	169	170	169	167	166	164	162	160	158	155	153	150	147	145	142	139	137	136	135	134	133	131	129	128	126	124	122	121	121	122	122	122	122	122	121	120	120	120	120	120	119	118	118	119	121	123	125	125	126	126	125	125	125	126	125	124	123	120	118	118	119	120	120	118	113	110	108	105	101	98	95	92	89	87	84	82	79	75	72	70	73	76	79	82	83	83	83	82	81	79	76	73	73	75	79	82	85	89	93	97	102	106	110	113	116	119	122	125	127	130	132	135	137	141	144	146	149	151	153	156	159	163	165	168	170	169	167	165	164	162	159	155	147	140	135	130	124	118	113	107	101	96	92	88	85	82	80	75	71	68	65	62	59	56	53	49	47	45	42	39	37	34	32	29	27	24	21	19	20	23	27	30	33	34	36	38	39	39	40	39	38	36	34	32	33	36	39	42	44	46	49	52	54	56	57	59	61	64	66	68	70	72	73	75	77	79	82	86	89	91	95	98	100	102	105	108	112	115	117	118	119	119	120	121	122	122	122	123	124	124	124	124	124	123	122	121	120	119	118	117	115	113	111	108	105	103	101	99	97	95	93	92	90	88	86	85	83	80	78	76	75	75	77	80	82	85	88	91	94	96	97	98	98	98	99	101	103	105	106	108	110	112	113	114	114	114	115	114	114	114	114	115	116	118	119	120	122	124	126	128	129	131	132	133	134	135	136	137	137	138	138	138	138	138	137	136	134	132	131	131	130	128	126	124	121	119	116	114	112	109	107	106	104	102	100	98	97	95	94	92	90	88	85	83	81	78	75	72	68	65	61	58	54	50	47	44	40	31	18	9	4	2	1	0	0	0	0	0	0	0	0	0	0	0	0	0	0	0	0	0	0	0	0	0	0	0	0	0	0	0	0	0	0	0	0	0	0	0	0	0	0	0	0	0	0	0	0	0	0	0	0	0	0	0	0	0	0	0	0	0	0	0	0	0	0	0	0	0	0	0	0	0	0	0	0	0	0	0	0	0	0	0	0	0	0	0	0	0	0	0	0	0	0	0	0	0	0	0	0	0	0	0	0	0	0	0	0	0	0	0	0	0	0	0	0	0	0	0	0	0	0	0	0	0	0	0	0	0	0	0	0	0	0	0	0	0	0	0	0	0	0	0	0	0	0	0	0	0	0	0	0	0	0	0	0	0	0	0	0	0	0	0	0	0	0	0	0	0	0	0	0	0	0	0	0	0	0	0	0	0	0	0	0	0	0	0	0	0	0	0	0	0	0	0	0	0	0	0	0	0	0	0	0	0	0	0	0	0	0	0	0	0	0	0	0	0	0	0	0	0	0	0	0	0	0	0	0	0	0	0	0	0	0	0	0	0	0	0	0	0	0	0	0	0	0	0	0	0	0	0	0	0	0	0	0	0	0	0	0	0	0	0	0	0	0	0	0	0	0	0	0	0	0	0	0	0	0	0	0	0	0	0	0	0	0	0	0	0	0	0	0	0	0	0	0	0	0	0	0	0	0	0	0	0	0	0	0	0	0	0	0	0	0	0	0	0	0	0	0	0	0	0	0	0	0	0	0	0	0	0	0	0	0	0	0
45	45	45	45	45	45	45	45	45	45	45	45	45	45	45	48	52	56	59	62	66	70	73	76	78	80	82	84	87	89	92	94	96	97	97	98	98	99	100	100	101	101	101	102	102	103	103	103	104	104	103	102	103	104	104	105	105	106	106	107	107	108	109	111	112	112	112	112	112	111	111	110	110	109	107	106	107	108	109	111	114	118	120	121	122	122	122	123	123	123	121	119	118	116	114	113	111	109	108	106	104	101	99	98	95	93	91	90	88	86	85	83	80	78	76	74	72	70	68	67	66	65	65	64	63	61	60	59	57	56	55	53	51	49	47	46	46	45	45	45	45	45	45	45	45	45	45	45	45	45	45	45	45	45	45	45	45	45	45	45	45	45	45	45	45	45	45	45	45	45	45	45	45	45	45	45	45	45	45	45	45	45	45	45	45	45	45	45	45	45	45	45	45	45	45	45	45	45	45	45	45	45	45	45	45	45	45	45	44	44	45	45	46	47	48	49	49	48	47	48	50	52	53	54	55	55	55	55	57	60	65	68	70	72	74	76	78	81	84	86	88	89	91	92	93	94	95	95	96	96	95	94	92	89	87	84	83	81	78	75	74	77	80	84	88	91	92	93	94	96	99	102	104	107	109	112	115	118	121	123	125	127	129	131	133	134	135	136	137	140	142	145	149	152	154	157	158	160	162	163	164	165	166	167	169	170	170	169	168	166	164	162	160	158	156	153	150	148	145	143	141	140	139	139	138	136	134	132	130	129	127	125	124	124	125	125	125	125	125	125	124	123	123	123	123	122	121	122	125	127	127	127	128	128	128	127	127	127	128	127	126	126	124	122	122	122	122	121	119	115	113	110	107	104	100	97	93	91	88	86	83	80	76	73	73	75	78	81	83	85	86	86	86	84	82	78	75	74	76	78	82	86	89	93	97	101	106	111	114	117	120	124	127	130	132	135	137	139	142	145	147	150	152	154	157	161	165	168	171	171	170	168	167	165	163	159	155	148	141	136	131	125	120	114	108	103	98	93	89	86	83	80	76	72	69	65	62	60	56	53	49	47	44	42	39	37	34	31	29	26	24	21	20	21	24	28	31	33	35	37	39	40	41	41	41	40	39	37	35	35	36	38	41	43	46	50	52	54	55	56	58	60	63	65	68	71	73	74	75	77	80	83	87	90	93	96	99	101	103	106	109	112	116	118	120	120	121	122	123	124	124	124	125	125	126	126	125	125	124	123	122	121	120	119	117	115	113	111	108	106	103	101	100	98	96	94	92	91	89	87	85	83	81	79	77	76	77	78	81	84	87	90	93	96	98	99	100	100	100	101	102	104	105	107	109	111	112	114	114	115	115	116	116	116	115	115	116	117	118	120	121	123	124	126	128	130	132	133	134	135	136	137	138	138	138	138	138	137	136	136	135	134	132	131	129	128	126	125	123	120	118	115	113	110	107	105	103	102	99	97	96	94	93	92	90	89	87	85	83	81	79	76	73	70	66	63	59	55	51	46	41	30	14	6	2	1	0	0	0	1	1	1	1	0	0	0	0	0	0	0	0	0	0	0	0	0	0	0	0	0	0	0	0	0	0	0	0	0	0	0	0	0	0	0	0	0	0	0	0	0	0	0	0	0	0	0	0	0	0	0	0	0	0	0	0	0	0	0	0	0	0	0	0	0	0	0	0	0	0	0	0	0	0	0	0	0	0	0	0	0	0	0	0	0	0	0	0	0	0	0	0	0	0	0	0	0	0	0	0	0	0	0	0	0	0	0	0	0	0	0	0	0	0	0	0	0	0	0	0	0	0	0	0	0	0	0	0	0	0	0	0	0	0	0	0	0	0	0	0	0	0	0	0	0	0	0	0	0	0	0	0	0	0	0	0	0	0	0	0	0	0	0	0	0	0	0	0	0	0	0	0	0	0	0	0	0	0	0	0	0	0	0	0	0	0	0	0	0	0	0	0	0	0	0	0	0	0	0	0	0	0	0	0	0	0	0	0	0	0	0	0	0	0	0	0	0	0	0	0	0	0	0	0	0	0	0	0	0	0	0	0	0	0	0	0	0	0	0	0	0	0	0	0	0	0	0	0	0	0	0	0	0	0	0	0	0	0	0	0	0	0	0	0	0	0	0	0	0	0	0	0	0	0	0	0	0	0	0	0	0	0	0	0	0	0	0	0	0	0	0	0	0	0	0	0	0	0	0	0	0	0	0	0	0	0	0	0	0	0	0	0	0	0	0	0	0	0	0	0	0	0	0	0	0	0	0	0	0	0	0
45	45	45	45	45	45	45	45	45	45	45	45	45	45	46	49	53	57	60	63	67	70	73	75	78	80	82	84	87	89	92	94	95	96	97	98	99	99	100	100	101	101	102	102	103	103	104	104	105	105	105	104	104	105	106	107	107	108	108	109	109	109	110	111	112	113	114	114	113	113	112	112	111	110	109	108	109	110	111	112	115	118	120	121	121	121	121	121	122	121	119	118	117	116	115	114	112	110	108	106	104	102	99	97	95	92	91	90	88	87	85	83	81	79	77	75	72	70	68	67	67	66	66	65	64	62	61	59	58	57	56	55	53	51	49	48	47	46	45	45	45	45	45	45	45	45	45	45	45	45	45	45	45	45	45	45	45	45	45	45	45	45	45	45	45	45	45	45	45	45	45	45	45	45	45	45	45	45	45	45	45	45	45	45	45	45	45	45	45	45	45	45	45	45	45	45	45	45	45	45	45	45	45	45	45	45	45	45	44	45	45	45	47	48	49	50	50	50	49	49	51	54	56	57	58	58	57	56	58	62	66	69	70	72	74	76	79	81	83	85	86	88	90	91	93	95	96	96	96	95	94	92	89	87	84	82	80	78	75	72	73	76	79	83	86	89	90	91	93	94	97	101	103	107	110	113	116	119	121	123	125	126	127	129	131	132	133	134	137	140	142	145	148	151	153	156	158	160	162	164	165	166	167	168	170	171	171	170	168	166	165	163	161	159	156	153	151	148	146	145	144	143	143	142	140	139	137	134	132	131	130	128	127	127	127	128	129	129	129	129	128	127	127	127	127	125	124	126	130	131	130	130	130	131	131	129	129	129	130	129	128	128	128	126	125	125	124	123	120	118	115	112	109	106	103	98	95	92	89	87	84	80	77	75	75	77	79	82	85	87	88	89	88	86	84	81	77	77	78	80	84	89	92	95	98	102	106	111	114	118	122	126	128	131	134	138	140	143	146	148	149	151	153	156	159	162	166	170	172	173	172	170	169	166	163	160	155	149	142	138	133	127	122	117	111	106	100	95	90	87	84	80	76	73	69	66	63	60	57	53	50	47	44	41	39	36	34	31	28	26	23	21	20	22	24	28	32	34	36	38	40	42	43	43	43	42	41	39	38	37	37	40	42	45	48	51	53	54	56	56	57	59	61	64	68	71	73	74	75	77	80	83	87	90	94	97	100	103	105	107	110	113	117	119	121	122	123	124	125	126	127	127	127	127	127	127	126	126	125	123	122	121	120	119	117	115	113	111	108	106	104	102	100	98	96	94	92	91	90	88	86	84	82	80	78	78	78	80	83	85	88	92	95	97	99	100	101	101	102	102	103	105	106	108	109	111	113	114	115	116	116	117	117	117	117	117	117	118	119	120	122	123	124	126	128	131	133	134	136	136	137	138	139	139	139	138	137	137	136	136	135	134	132	130	128	126	125	123	121	119	117	114	112	109	106	103	101	99	97	95	93	92	91	89	88	87	85	83	82	81	79	77	75	72	68	64	60	56	51	46	40	18	8	3	1	0	0	1	2	3	4	3	2	1	1	0	0	0	0	0	0	0	0	0	0	0	0	0	0	0	0	0	0	0	0	0	0	0	0	0	0	0	0	0	0	0	0	0	0	0	0	0	0	0	0	0	0	0	0	0	0	0	0	0	0	0	0	0	0	0	0	0	0	0	0	0	0	0	0	0	0	0	0	0	0	0	0	0	0	0	0	0	0	0	0	0	0	0	0	0	0	0	0	0	0	0	0	0	0	0	0	0	0	0	0	0	0	0	0	0	0	0	0	0	0	0	0	0	0	0	0	0	0	0	0	0	0	0	0	0	0	0	0	0	0	0	0	0	0	0	0	0	0	0	0	0	0	0	0	0	0	0	0	0	0	0	0	0	0	0	0	0	0	0	0	0	0	0	0	0	0	0	0	0	0	0	0	0	0	0	0	0	0	0	0	0	0	0	0	0	0	0	0	0	0	0	0	0	0	0	0	0	0	0	0	0	0	0	0	0	0	0	0	0	0	0	0	0	0	0	0	0	0	0	0	0	0	0	0	0	0	0	0	0	0	0	0	0	0	0	0	0	0	0	0	0	0	0	0	0	0	0	0	0	0	0	0	0	0	0	0	0	0	0	0	0	0	0	0	0	0	0	0	0	0	0	0	0	0	0	0	0	0	0	0	0	0	0	0	0	0	0	0	0	0	0	0	0	0	0	0	0	0	0	0	0	0	0	0	0	0	0	0	0	0	0	0	0	0	0	0	0	0	0	0	0	0	0	0	0
45	45	45	45	45	45	45	45	45	45	45	45	45	45	46	50	54	58	61	65	68	70	73	76	78	80	82	84	87	89	92	93	95	96	97	98	99	99	100	100	101	101	102	103	104	104	104	105	106	107	106	106	105	106	108	109	110	110	110	111	111	112	112	112	113	114	115	115	115	115	114	114	113	112	111	110	111	112	113	114	116	119	121	121	121	120	120	120	121	120	118	117	117	116	115	114	113	110	108	106	104	102	99	97	95	92	90	89	88	86	85	83	81	79	77	75	72	70	69	68	67	67	66	66	64	62	61	60	59	58	58	56	54	52	50	48	47	46	45	45	45	45	45	45	45	45	45	45	45	45	45	45	45	45	45	45	45	45	45	45	45	45	45	45	45	45	45	45	45	45	45	45	45	45	45	45	45	45	45	45	45	45	45	45	45	45	45	45	45	45	45	45	45	45	45	45	45	45	45	45	45	45	45	45	45	45	45	45	45	45	46	46	47	49	50	51	52	51	51	51	52	55	57	59	60	60	59	58	59	63	67	69	70	72	74	76	79	81	83	85	86	88	90	92	94	95	96	96	95	94	92	89	87	84	81	79	77	75	72	71	72	75	77	80	83	86	88	90	92	94	97	100	104	107	110	114	117	119	121	122	123	124	125	127	128	129	131	134	137	140	142	145	148	150	153	156	158	161	163	164	166	167	168	170	171	171	171	170	168	167	167	165	163	160	157	154	152	150	148	147	147	147	146	145	143	141	139	137	135	134	133	131	130	129	130	131	132	133	132	132	131	131	130	130	129	128	127	129	132	133	133	134	134	134	133	132	131	131	131	130	129	130	129	128	128	127	126	125	123	120	117	114	111	108	104	100	96	94	91	88	85	81	78	77	77	78	80	82	86	88	90	91	90	88	86	83	80	79	80	82	87	93	96	98	100	103	108	113	116	119	124	127	129	131	136	140	143	146	148	150	152	154	155	157	160	163	167	171	174	174	174	173	171	168	164	160	155	150	145	140	135	130	125	119	114	108	102	97	92	88	84	80	76	73	70	66	63	60	57	53	50	47	44	41	39	36	33	30	28	26	24	22	20	21	24	27	32	35	37	38	41	43	44	45	45	44	43	42	40	38	38	42	45	48	50	53	54	56	57	58	58	59	61	64	68	71	72	72	74	76	79	82	85	89	94	98	102	104	107	108	111	114	118	121	123	124	125	126	128	128	129	129	129	129	129	129	128	127	125	124	123	122	121	120	118	115	113	110	108	106	104	102	101	99	96	94	93	92	90	88	87	86	84	81	79	78	78	81	84	86	90	93	96	98	99	101	102	103	103	104	105	107	108	108	109	111	113	115	116	117	117	118	119	119	119	120	120	120	120	121	122	124	125	126	128	130	133	135	136	137	138	139	139	139	139	138	137	136	135	135	135	135	133	131	128	125	123	121	119	117	115	113	111	108	105	102	100	98	96	94	92	91	89	88	87	85	84	82	81	80	79	77	76	74	70	65	61	56	51	46	41	15	4	1	0	0	0	2	4	6	7	6	3	2	1	0	0	0	0	0	0	0	0	0	0	0	0	0	0	0	0	0	0	0	0	0	0	0	0	0	0	0	0	0	0	0	0	0	0	0	0	0	0	0	0	0	0	0	0	0	0	0	0	0	0	0	0	0	0	0	0	0	0	0	0	0	0	0	0	0	0	0	0	0	0	0	0	0	0	0	0	0	0	0	0	0	0	0	0	0	0	0	0	0	0	0	0	0	0	0	0	0	0	0	0	0	0	0	0	0	0	0	0	0	0	0	0	0	0	0	0	0	0	0	0	0	0	0	0	0	0	0	0	0	0	0	0	0	0	0	0	0	0	0	0	0	0	0	0	0	0	0	0	0	0	0	0	0	0	0	0	0	0	0	0	0	0	0	0	0	0	0	0	0	0	0	0	0	0	0	0	0	0	0	0	0	0	0	0	0	0	0	0	0	0	0	0	0	0	0	0	0	0	0	0	0	0	0	0	0	0	0	0	0	0	0	0	0	0	0	0	0	0	0	0	0	0	0	0	0	0	0	0	0	0	0	0	0	0	0	0	0	0	0	0	0	0	0	0	0	0	0	0	0	0	0	0	0	0	0	0	0	0	0	0	0	0	0	0	0	0	0	0	0	0	0	0	0	0	0	0	0	0	0	0	0	0	0	0	0	0	0	0	0	0	0	0	0	0	0	0	0	0	0	0	0	0	0	0	0	0	0	0	0	0	0	0	0	0	0	0	0	0	0	0	0	0	0	0	0
45	45	45	45	45	45	45	45	45	45	45	45	45	45	47	51	55	59	62	66	69	71	74	77	79	81	83	85	87	90	92	93	95	96	96	97	99	99	100	101	101	102	102	103	104	104	105	106	107	108	108	107	107	108	109	111	112	112	113	114	114	115	114	114	114	115	115	116	117	117	116	116	116	115	114	113	113	114	115	116	118	120	122	122	121	120	119	119	120	119	118	117	117	116	116	115	113	111	108	106	104	102	100	97	95	92	90	89	87	85	83	82	80	78	76	75	73	71	70	69	67	67	66	66	64	63	61	60	60	59	58	57	55	53	51	50	48	47	46	45	45	45	45	45	45	45	45	45	45	45	45	45	45	45	45	45	45	45	45	45	45	45	45	45	45	45	45	45	45	45	45	45	45	45	45	45	45	45	45	45	45	45	45	45	45	45	45	45	45	45	45	45	45	45	45	45	45	45	45	45	45	45	45	45	45	45	45	45	45	45	46	46	48	50	51	52	53	53	52	52	54	56	59	60	60	60	60	59	59	63	67	69	70	72	74	76	78	81	82	84	86	88	89	92	94	95	95	94	93	92	89	87	84	82	79	76	73	70	69	70	72	74	76	78	81	84	86	89	91	94	97	100	103	107	110	113	116	118	120	121	122	122	123	125	127	129	131	134	138	141	142	144	147	150	153	156	159	161	164	165	167	168	169	171	171	172	171	170	169	169	168	166	163	161	158	155	153	152	151	151	151	150	149	147	146	144	142	140	138	137	135	134	133	132	132	134	135	136	135	135	134	134	133	133	132	131	130	131	132	134	136	137	138	137	136	135	134	133	131	130	130	131	131	130	130	130	128	127	125	123	120	117	114	110	106	102	98	96	92	89	85	81	79	78	78	79	81	84	88	90	92	93	92	90	88	85	82	81	82	84	89	94	98	101	102	105	111	115	118	122	126	128	129	132	137	141	144	147	150	153	155	157	158	160	162	165	168	172	175	176	176	174	172	169	165	160	155	150	146	143	138	133	127	122	117	110	104	98	94	89	85	81	77	73	70	66	63	60	57	53	50	47	45	42	39	36	33	30	28	26	24	22	20	20	22	26	31	35	37	39	41	43	45	46	46	46	45	44	43	41	40	43	47	50	52	54	56	58	59	60	60	61	62	65	68	71	72	72	74	77	79	82	85	89	94	98	102	105	107	109	111	115	119	122	124	126	127	129	130	131	131	131	132	131	131	130	129	128	127	126	125	123	122	121	119	116	113	111	109	107	105	103	101	99	97	95	94	93	91	89	88	87	86	83	80	79	79	81	85	87	91	94	97	99	100	102	103	104	105	105	107	108	109	109	110	111	113	115	117	118	119	119	120	120	121	122	122	122	123	123	124	125	125	127	128	130	132	135	137	138	139	140	140	139	139	137	136	135	133	133	134	135	133	130	127	124	122	120	118	116	114	112	110	107	105	102	100	98	96	94	92	91	89	87	86	85	83	81	79	78	77	76	75	74	71	66	62	57	51	47	40	16	2	1	2	2	3	5	7	9	9	7	3	2	1	0	0	0	0	0	0	0	0	0	0	0	0	0	0	0	0	0	0	0	0	0	0	0	0	0	0	0	0	0	0	0	0	0	0	0	0	0	0	0	0	0	0	0	0	0	0	0	0	0	0	0	0	0	0	0	0	0	0	0	0	0	0	0	0	0	0	0	0	0	0	0	0	0	0	0	0	0	0	0	0	0	0	0	0	0	0	0	0	0	0	0	0	0	0	0	0	0	0	0	0	0	0	0	0	0	0	0	0	0	0	0	0	0	0	0	0	0	0	0	0	0	0	0	0	0	0	0	0	0	0	0	0	0	0	0	0	0	0	0	0	0	0	0	0	0	0	0	0	0	0	0	0	0	0	0	0	0	0	0	0	0	0	0	0	0	0	0	0	0	0	0	0	0	0	0	0	0	0	0	0	0	0	0	0	0	0	0	0	0	0	0	0	0	0	0	0	0	0	0	0	0	0	0	0	0	0	0	0	0	0	0	0	0	0	0	0	0	0	0	0	0	0	0	0	0	0	0	0	0	0	0	0	0	0	0	0	0	0	0	0	0	0	0	0	0	0	0	0	0	0	0	0	0	0	0	0	0	0	0	0	0	0	0	0	0	0	0	0	0	0	0	0	0	0	0	0	0	0	0	0	0	0	0	0	0	0	0	0	0	0	0	0	0	0	0	0	0	0	0	0	0	0	0	0	0	0	0	0	0	0	0	0	0	0	0	0	0	0	0	0	0	0	0	0	0
45	45	45	45	45	45	45	45	45	45	45	45	45	45	48	52	56	59	63	67	70	73	76	78	80	82	84	86	88	90	92	94	95	96	97	98	99	99	100	101	102	102	103	103	104	105	105	107	108	108	109	108	109	110	111	113	114	115	115	116	117	118	117	116	116	116	117	118	119	119	119	118	118	117	116	116	117	117	118	119	120	121	122	122	121	120	118	118	118	118	117	116	116	116	115	114	113	111	109	106	105	103	101	99	96	93	90	88	86	84	82	81	79	78	76	75	73	71	70	69	68	67	67	66	65	64	62	61	60	60	59	57	55	54	52	51	49	47	46	45	45	45	45	45	45	45	45	45	45	45	45	45	45	45	45	45	45	45	45	45	45	45	45	45	45	45	45	45	45	45	45	45	45	45	45	45	45	45	45	45	45	45	45	45	45	45	45	45	45	45	45	45	45	45	45	45	45	45	45	45	45	45	45	45	45	45	45	45	45	46	47	48	49	51	52	53	54	54	54	54	55	57	60	61	62	61	61	61	62	64	67	69	71	73	74	76	78	80	82	83	85	87	89	91	93	94	94	92	91	89	87	85	82	80	77	73	69	66	66	69	72	74	75	78	80	83	85	88	91	94	97	100	103	107	110	112	115	117	119	119	120	120	122	124	127	130	132	135	139	141	143	145	148	151	153	156	159	161	164	166	168	169	170	172	172	172	172	171	171	170	169	166	164	161	159	157	156	155	154	154	154	153	152	150	148	146	144	142	141	139	138	136	135	135	135	137	138	139	138	137	137	137	136	136	135	135	134	134	135	137	139	139	139	139	138	138	137	135	133	132	131	132	132	133	134	133	131	130	128	126	123	120	116	112	108	104	100	97	94	89	85	82	80	80	81	82	83	86	90	92	94	95	94	93	90	87	84	83	84	86	90	95	100	103	105	107	112	117	120	123	126	129	131	134	138	142	145	149	152	155	158	160	162	163	165	167	170	173	175	177	177	176	173	169	165	161	156	151	148	144	140	135	129	125	119	113	106	100	96	91	86	82	78	74	70	67	63	60	57	53	50	48	45	42	39	36	34	31	28	27	25	23	21	19	21	25	30	33	36	38	41	43	45	46	47	47	47	46	45	43	41	43	48	51	54	57	59	60	61	62	63	63	64	66	69	71	73	74	76	78	80	83	86	90	94	98	102	106	108	110	113	117	121	123	125	127	129	131	133	133	134	134	134	133	133	131	130	129	128	127	126	125	123	121	120	117	114	111	109	107	106	104	102	100	99	97	96	94	92	91	90	88	87	84	82	80	80	82	85	88	91	94	97	100	101	102	104	105	106	107	108	110	111	111	112	113	115	117	118	119	120	121	121	122	123	124	124	125	125	126	126	126	127	127	128	130	132	135	137	138	140	140	140	140	139	138	136	134	132	132	133	134	133	130	127	124	122	120	117	115	113	111	109	107	104	102	101	99	97	95	93	91	89	88	86	85	83	81	78	77	76	75	74	72	70	66	62	57	51	46	37	15	7	6	6	7	8	9	10	10	9	6	3	1	0	0	0	0	0	0	0	0	0	0	0	0	0	0	0	0	0	0	0	0	0	0	0	0	0	0	0	0	0	0	0	0	0	0	0	0	0	0	0	0	0	0	0	0	0	0	0	0	0	0	0	0	0	0	0	0	0	0	0	0	0	0	0	0	0	0	0	0	0	0	0	0	0	0	0	0	0	0	0	0	0	0	0	0	0	0	0	0	0	0	0	0	0	0	0	0	0	0	0	0	0	0	0	0	0	0	0	0	0	0	0	0	0	0	0	0	0	0	0	0	0	0	0	0	0	0	0	0	0	0	0	0	0	0	0	0	0	0	0	0	0	0	0	0	0	0	0	0	0	0	0	0	0	0	0	0	0	0	0	0	0	0	0	0	0	0	0	0	0	0	0	0	0	0	0	0	0	0	0	0	0	0	0	0	0	0	0	0	0	0	0	0	0	0	0	0	0	0	0	0	0	0	0	0	0	0	0	0	0	0	0	0	0	0	0	0	0	0	0	0	0	0	0	0	0	0	0	0	0	0	0	0	0	0	0	0	0	0	0	0	0	0	0	0	0	0	0	0	0	0	0	0	0	0	0	0	0	0	0	0	0	0	0	0	0	0	0	0	0	0	0	0	0	0	0	0	0	0	0	0	0	0	0	0	0	0	0	0	0	0	0	0	0	0	0	0	0	0	0	0	0	0	0	0	0	0	0	0	0	0	0	0	0	0	0	0	0	0	0	0	0	0	0	0	0	0
45	45	45	45	45	45	45	45	45	45	45	45	45	46	48	52	56	60	64	68	71	74	77	79	81	83	85	87	89	91	93	94	95	96	97	98	99	100	100	101	102	102	103	103	104	105	106	107	108	109	109	110	111	112	113	114	116	117	118	118	119	120	120	119	118	118	119	121	122	123	122	121	120	119	118	119	119	120	120	121	122	122	122	122	121	119	117	116	116	116	116	115	115	115	114	114	113	111	109	107	105	104	102	100	98	95	92	89	86	83	82	81	78	77	76	75	73	71	70	69	68	68	67	66	65	63	61	60	60	59	58	57	55	53	52	50	49	47	45	44	44	44	45	45	45	45	45	45	45	45	45	45	45	45	45	45	45	45	45	45	45	45	45	45	45	45	45	45	45	45	45	45	45	45	45	45	45	45	45	45	45	45	45	45	45	45	45	45	45	45	45	45	45	45	45	45	45	45	45	45	45	45	45	45	45	45	45	46	47	47	48	50	51	52	53	54	55	55	55	56	57	58	61	63	63	63	64	64	65	66	67	69	71	73	74	76	77	79	81	83	84	86	88	91	92	92	91	90	88	87	85	83	80	78	74	69	64	61	65	70	72	73	75	78	80	83	85	88	91	94	97	101	104	107	109	111	114	116	117	118	118	119	121	125	128	131	133	136	139	141	143	146	149	152	154	156	159	162	165	167	169	170	172	173	173	173	173	172	172	171	169	167	164	162	161	159	159	159	158	157	157	156	155	153	150	148	146	144	143	142	140	139	138	138	138	139	141	141	141	140	140	140	140	139	138	137	137	138	139	140	141	142	141	140	140	141	140	139	137	135	133	133	134	136	137	137	135	133	131	129	126	122	117	114	109	105	102	98	94	88	84	82	82	83	84	84	86	89	92	94	96	97	97	95	93	90	87	86	87	88	92	96	100	104	106	108	113	117	120	124	128	132	135	137	139	142	146	150	153	157	160	163	165	167	169	170	172	174	177	179	179	177	174	171	167	162	157	152	149	145	141	136	131	126	121	115	109	103	98	93	89	84	79	75	71	67	63	60	57	54	51	48	45	42	39	36	34	31	29	27	26	24	22	20	21	25	29	32	35	37	40	42	44	46	47	48	48	48	47	46	44	45	48	52	55	59	61	62	64	65	65	66	67	68	70	72	75	77	79	80	82	84	87	91	94	97	102	106	109	112	114	118	121	123	125	128	131	133	135	136	137	137	137	136	135	133	132	131	129	128	127	125	124	122	120	117	113	110	108	107	106	104	103	101	100	99	97	95	93	92	90	88	87	85	83	82	82	84	86	89	91	95	98	100	102	103	104	106	107	109	111	112	113	114	115	116	117	119	120	121	121	122	123	125	125	126	126	127	127	128	128	128	128	128	129	131	133	135	137	139	140	140	141	140	140	139	137	135	133	131	131	132	131	129	126	123	121	119	117	114	112	110	108	106	104	102	100	99	97	94	93	91	89	87	86	84	83	80	77	75	74	73	72	70	68	65	61	56	50	45	31	14	12	12	11	11	12	13	13	11	8	5	2	0	0	0	0	0	0	0	0	0	0	0	0	0	0	0	0	0	0	0	0	0	0	0	0	0	0	0	0	0	0	0	0	0	0	0	0	0	0	0	0	0	0	0	0	0	0	0	0	0	0	0	0	0	0	0	0	0	0	0	0	0	0	0	0	0	0	0	0	0	0	0	0	0	0	0	0	0	0	0	0	0	0	0	0	0	0	0	0	0	0	0	0	0	0	0	0	0	0	0	0	0	0	0	0	0	0	0	0	0	0	0	0	0	0	0	0	0	0	0	0	0	0	0	0	0	0	0	0	0	0	0	0	0	0	0	0	0	0	0	0	0	0	0	0	0	0	0	0	0	0	0	0	0	0	0	0	0	0	0	0	0	0	0	0	0	0	0	0	0	0	0	0	0	0	0	0	0	0	0	0	0	0	0	0	0	0	0	0	0	0	0	0	0	0	0	0	0	0	0	0	0	0	0	0	0	0	0	0	0	0	0	0	0	0	0	0	0	0	0	0	0	0	0	0	0	0	0	0	0	0	0	0	0	0	0	0	0	0	0	0	0	0	0	0	0	0	0	0	0	0	0	0	0	0	0	0	0	0	0	0	0	0	0	0	0	0	0	0	0	0	0	0	0	0	0	0	0	0	0	0	0	0	0	0	0	0	0	0	0	0	0	0	0	0	0	0	0	0	0	0	0	0	0	0	0	0	0	0	0	0	0	0	0	0	0	0	0	0	0	0	0	0	0	0	0	0	0
45	45	45	45	45	45	45	45	45	45	45	45	45	46	49	53	56	60	64	69	72	74	78	80	83	84	86	88	90	92	94	95	96	97	98	99	100	100	100	101	102	103	103	103	104	105	106	107	109	110	110	111	113	114	114	115	117	119	120	120	121	121	122	122	121	121	122	124	126	127	126	125	123	122	121	122	122	122	123	124	123	123	122	121	120	118	116	115	115	115	115	114	114	114	114	113	112	110	109	108	106	105	103	101	99	96	93	89	86	84	83	81	79	77	76	75	73	71	70	69	69	69	68	67	65	63	60	60	59	58	58	56	55	53	51	49	48	46	45	44	44	45	45	45	45	45	45	45	45	45	45	45	45	45	45	45	45	45	45	45	45	45	45	45	45	45	45	45	45	45	45	45	45	45	45	45	45	45	45	45	45	45	45	45	45	45	45	45	45	45	45	45	45	45	45	45	45	45	45	45	45	45	45	45	45	45	45	46	48	49	50	51	51	53	54	55	56	56	56	57	58	60	62	64	64	64	65	66	66	67	68	69	70	72	74	75	77	79	80	82	84	86	88	89	90	89	88	87	85	84	83	80	78	75	71	65	60	58	64	69	72	73	75	77	80	82	85	87	90	92	96	99	103	105	107	110	112	114	116	117	117	118	121	125	128	131	133	135	138	141	143	146	149	152	154	157	159	162	165	167	169	171	173	173	173	173	173	173	172	171	170	168	166	164	163	163	162	162	162	161	159	158	156	155	152	150	148	147	145	144	143	142	142	141	141	141	143	144	144	144	143	143	143	143	141	139	139	141	143	143	144	144	143	143	143	143	143	142	140	137	134	135	137	138	139	139	137	135	133	131	128	124	119	115	111	106	102	98	94	88	86	86	86	86	87	87	88	91	94	96	98	99	99	98	97	94	90	89	89	91	94	97	100	104	106	109	113	117	122	126	131	135	138	140	141	144	147	151	155	158	161	165	168	171	173	174	175	176	179	180	181	180	177	173	170	165	160	154	150	146	142	137	132	128	123	117	111	106	100	95	90	85	80	76	72	68	64	61	58	55	51	48	45	42	39	37	34	32	30	28	26	25	23	21	21	24	28	31	34	36	39	42	43	45	47	48	49	49	48	48	47	47	48	52	56	60	62	64	65	67	68	69	70	70	72	74	76	79	81	83	85	86	89	93	95	98	103	107	110	112	115	118	122	124	126	129	132	135	137	138	139	139	139	138	137	135	134	133	131	129	127	125	123	121	118	115	112	110	108	107	106	105	104	102	101	100	98	96	94	92	90	88	87	86	85	84	84	86	87	89	93	96	98	100	102	103	105	107	109	111	113	114	115	116	117	118	119	121	121	122	123	124	126	127	128	129	129	130	130	130	130	129	129	130	131	132	134	136	137	139	140	141	141	141	141	140	138	136	134	131	130	130	130	129	126	123	121	119	116	114	111	109	107	105	103	101	100	98	96	94	92	90	88	87	85	84	82	79	76	74	72	71	69	68	66	63	59	55	50	45	29	19	19	19	18	15	15	15	13	10	7	3	1	0	0	0	0	0	0	0	0	0	0	0	0	0	0	0	0	0	0	0	0	0	0	0	0	0	0	0	0	0	0	0	0	0	0	0	0	0	0	0	0	0	0	0	0	0	0	0	0	0	0	0	0	0	0	0	0	0	0	0	0	0	0	0	0	0	0	0	0	0	0	0	0	0	0	0	0	0	0	0	0	0	0	0	0	0	0	0	0	0	0	0	0	0	0	0	0	0	0	0	0	0	0	0	0	0	0	0	0	0	0	0	0	0	0	0	0	0	0	0	0	0	0	0	0	0	0	0	0	0	0	0	0	0	0	0	0	0	0	0	0	0	0	0	0	0	0	0	0	0	0	0	0	0	0	0	0	0	0	0	0	0	0	0	0	0	0	0	0	0	0	0	0	0	0	0	0	0	0	0	0	0	0	0	0	0	0	0	0	0	0	0	0	0	0	0	0	0	0	0	0	0	0	0	0	0	0	0	0	0	0	0	0	0	0	0	0	0	0	0	0	0	0	0	0	0	0	0	0	0	0	0	0	0	0	0	0	0	0	0	0	0	0	0	0	0	0	0	0	0	0	0	0	0	0	0	0	0	0	0	0	0	0	0	0	0	0	0	0	0	0	0	0	0	0	0	0	0	0	0	0	0	0	0	0	0	0	0	0	0	0	0	0	0	0	0	0	0	0	0	0	0	0	0	0	0	0	0	0	0	0	0	0	0	0	0	0	0	0	0	0	0	0	0	0	0	0	0
45	45	45	45	45	45	45	45	45	45	45	45	45	46	49	53	56	60	64	68	71	74	78	81	83	85	87	89	91	93	94	95	96	97	98	99	100	100	101	101	102	103	103	104	104	106	107	108	109	110	111	112	114	115	115	116	118	120	121	121	122	123	124	124	124	124	125	128	129	130	130	128	127	126	126	126	125	125	126	125	125	123	122	120	119	117	116	114	114	114	114	113	113	113	113	112	111	110	108	107	106	105	103	101	99	96	93	89	87	85	84	82	79	77	76	75	73	71	70	69	69	69	69	67	65	62	60	58	58	57	56	55	54	52	49	48	46	45	45	44	44	45	45	45	45	45	45	45	45	45	45	45	45	45	45	45	45	45	45	45	45	45	45	45	45	45	45	45	45	45	45	45	45	45	45	45	45	45	45	45	45	45	45	45	45	45	45	45	45	45	45	45	45	45	45	45	45	45	45	45	45	45	45	45	45	45	45	46	48	49	49	50	51	53	55	56	57	57	58	59	60	61	63	64	65	65	66	66	67	67	68	69	70	71	73	75	77	79	80	81	83	85	87	88	88	87	86	84	82	81	79	78	76	73	68	61	56	58	64	69	72	73	74	76	78	80	83	86	88	90	93	97	101	104	106	108	111	113	114	115	117	119	121	124	127	130	133	135	138	140	143	146	149	152	154	157	160	163	166	168	170	172	173	174	173	173	173	173	173	172	172	171	169	167	167	167	166	165	165	163	162	160	158	156	154	152	151	150	148	147	146	146	145	144	143	144	145	146	147	146	146	146	146	145	143	142	142	144	146	146	147	147	147	146	145	145	144	143	141	138	135	136	139	141	141	141	139	136	134	131	129	125	121	118	112	106	101	97	93	90	89	89	89	89	89	90	92	94	96	98	100	101	101	101	99	96	94	92	92	93	96	98	101	104	107	110	114	118	122	128	132	136	140	142	144	146	149	152	156	160	163	166	170	173	175	177	178	179	181	182	183	182	179	176	172	168	162	156	151	147	143	139	134	129	124	118	113	108	102	97	91	86	81	77	73	69	64	62	59	56	53	49	45	43	40	37	35	33	31	29	27	26	24	22	22	23	26	30	33	36	38	41	44	46	47	49	50	50	50	49	49	48	49	52	57	60	62	65	67	69	70	71	72	72	73	75	77	80	82	84	86	88	91	94	97	100	104	108	110	113	115	118	121	124	127	130	133	136	138	139	140	140	140	139	138	137	136	135	133	131	128	125	123	120	117	115	112	110	110	108	107	106	105	104	102	101	99	96	94	92	91	89	89	88	87	86	87	87	88	90	93	96	98	100	101	103	105	107	110	112	115	116	117	118	119	120	121	122	123	124	125	126	128	129	130	131	132	133	133	133	132	131	131	131	132	134	135	137	138	139	140	141	141	141	141	141	139	137	134	132	130	129	128	127	125	123	120	118	116	113	111	108	106	104	102	100	99	97	95	94	91	89	87	85	84	83	81	78	75	72	70	68	67	65	62	60	57	53	49	45	38	30	26	23	22	19	17	15	12	9	6	3	0	0	0	0	0	0	0	0	0	0	0	0	0	0	0	0	0	0	0	0	0	0	0	0	0	0	0	0	0	0	0	0	0	0	0	0	0	0	0	0	0	0	0	0	0	0	0	0	0	0	0	0	0	0	0	0	0	0	0	0	0	0	0	0	0	0	0	0	0	0	0	0	0	0	0	0	0	0	0	0	0	0	0	0	0	0	0	0	0	0	0	0	0	0	0	0	0	0	0	0	0	0	0	0	0	0	0	0	0	0	0	0	0	0	0	0	0	0	0	0	0	0	0	0	0	0	0	0	0	0	0	0	0	0	0	0	0	0	0	0	0	0	0	0	0	0	0	0	0	0	0	0	0	0	0	0	0	0	0	0	0	0	0	0	0	0	0	0	0	0	0	0	0	0	0	0	0	0	0	0	0	0	0	0	0	0	0	0	0	0	0	0	0	0	0	0	0	0	0	0	0	0	0	0	0	0	0	0	0	0	0	0	0	0	0	0	0	0	0	0	0	0	0	0	0	0	0	0	0	0	0	0	0	0	0	0	0	0	0	0	0	0	0	0	0	0	0	0	0	0	0	0	0	0	0	0	0	0	0	0	0	0	0	0	0	0	0	0	0	0	0	0	0	0	0	0	0	0	0	0	0	0	0	0	0	0	0	0	0	0	0	0	0	0	0	0	0	0	0	0	0	0	0	0	0	0	0	0	0	0	0	0	0	0	0	0	0	0	0	0	0	0	0	0	0	0	0	0
45	45	45	45	45	45	45	45	45	45	45	45	45	47	50	54	57	60	64	67	71	74	77	81	84	86	88	90	92	93	95	95	96	98	99	100	100	101	101	102	102	103	104	104	105	106	107	108	109	111	112	113	115	116	117	118	119	120	121	122	123	125	126	127	127	127	128	130	132	133	132	131	130	129	129	129	129	128	127	126	125	123	121	119	117	116	115	114	112	112	112	111	111	111	111	111	110	109	108	107	105	104	102	100	98	95	92	89	87	86	85	83	80	78	76	74	72	71	70	69	69	69	68	67	65	62	59	57	56	55	55	54	52	50	48	46	46	45	45	44	45	45	45	45	45	45	45	45	45	45	45	45	45	45	45	45	45	45	45	45	45	45	45	45	45	45	45	45	45	45	45	45	45	45	45	45	45	45	45	45	45	45	45	45	45	45	45	45	45	45	45	45	45	45	45	45	45	45	45	45	45	45	45	45	45	45	45	46	47	48	49	50	51	54	55	57	57	58	59	60	61	62	63	64	65	66	66	66	67	67	68	69	70	72	73	75	77	78	80	81	83	84	85	85	85	84	83	81	79	77	76	74	72	70	64	56	55	58	65	69	71	72	73	75	77	80	83	85	88	90	92	95	99	103	105	107	109	112	113	114	117	120	122	125	128	130	133	135	138	140	143	147	150	152	155	158	161	164	167	169	171	173	174	174	174	174	174	174	174	174	174	173	171	170	169	169	168	168	167	165	164	162	159	157	156	154	153	152	151	150	149	149	148	146	146	147	148	149	150	150	149	149	149	148	146	144	145	147	149	150	150	150	150	148	147	146	145	143	141	139	137	138	141	142	142	141	139	136	134	131	129	126	122	119	111	104	99	95	91	92	91	91	91	92	92	93	95	96	99	101	103	104	104	103	101	99	97	96	95	96	98	100	102	106	110	113	115	118	123	128	133	137	141	144	147	149	152	155	158	161	164	169	172	175	178	180	181	182	183	184	185	184	182	177	173	170	164	158	153	149	146	141	135	130	124	119	114	109	104	98	92	87	82	77	74	69	65	62	59	56	53	49	46	43	41	38	36	34	32	30	29	27	25	23	23	23	26	29	33	36	39	41	44	46	47	49	50	51	51	51	51	50	51	54	57	60	62	66	69	71	72	73	73	74	75	77	79	81	83	86	88	90	93	96	98	101	105	108	111	113	115	118	121	125	128	131	134	136	138	140	140	140	140	140	140	139	138	136	134	131	128	126	123	120	117	115	113	112	111	110	109	108	107	105	103	102	100	98	95	93	91	90	90	89	88	88	88	89	89	91	93	95	98	99	101	103	105	107	110	113	115	117	118	119	120	121	122	123	125	126	127	128	129	130	132	133	135	136	136	135	134	133	132	132	134	136	137	138	139	140	141	141	141	141	141	140	139	137	135	132	129	127	126	126	124	122	120	118	115	112	109	107	105	103	101	99	97	96	94	93	90	88	86	84	82	81	78	76	73	70	68	66	64	62	58	56	54	52	49	45	41	36	32	28	24	19	15	12	10	7	5	2	0	0	0	0	0	0	0	0	0	0	0	0	0	0	0	0	0	0	0	0	0	0	0	0	0	0	0	0	0	0	0	0	0	0	0	0	0	0	0	0	0	0	0	0	0	0	0	0	0	0	0	0	0	0	0	0	0	0	0	0	0	0	0	0	0	0	0	0	0	0	0	0	0	0	0	0	0	0	0	0	0	0	0	0	0	0	0	0	0	0	0	0	0	0	0	0	0	0	0	0	0	0	0	0	0	0	0	0	0	0	0	0	0	0	0	0	0	0	0	0	0	0	0	0	0	0	0	0	0	0	0	0	0	0	0	0	0	0	0	0	0	0	0	0	0	0	0	0	0	0	0	0	0	0	0	0	0	0	0	0	0	0	0	0	0	0	0	0	0	0	0	0	0	0	0	0	0	0	0	0	0	0	0	0	0	0	0	0	0	0	0	0	0	0	0	0	0	0	0	0	0	0	0	0	0	0	0	0	0	0	0	0	0	0	0	0	0	0	0	0	0	0	0	0	0	0	0	0	0	0	0	0	0	0	0	0	0	0	0	0	0	0	0	0	0	0	0	0	0	0	0	0	0	0	0	0	0	0	0	0	0	0	0	0	0	0	0	0	0	0	0	0	0	0	0	0	0	0	0	0	0	0	0	0	0	0	0	0	0	0	0	0	0	0	0	0	0	0	0	0	0	0	0	0	0	0	0	0	0	0	0	0	0	0	0	0	0	0	0	0	0	0	0	0	0	0	0	0
