3	3	4	9	10	9	9	9	9	9	9	9	9	8	7	6	6	6	6	6	6	6	6	6	6	6	6	6	6	6	6	7	7	7	7	6	6	6	6	6	6	6	6	6	6	7	7	7	7	7	7	7	7	7	7	7	7	7	7	7	7	7	7	8	8	8	7	7	7	7	7	7	7	7	7	7	7	7	7	6	6	6	6	6	6	6	6	6	6	6	7	7	7	7	7	7	7	7	7	7	7	7	7	7	7	7	7	7	8	8	8	9	9	9	9	9	10	10	10	11	11	12	15	19	21	21	21	21	21	23	27	29	30	30	30	30	31	31	32	32	31	31	31	32	34	36	38	40	41	42	43	44	45	46	48	50	53	56	60	63	67	70	72	73	74	75	76	77	78	80	81	83	85	86	88	90	91	93	95	97	98	100	102	104	106	108	110	113	115	118	120	122	124	126	128	131	133	135	137	139	140	142	144	145	147	149	151	153	154	155	158	160	162	164	167	170	174	177	180	183	187	190	194	198	201	206	210	214	219	222	225	228	233	237	240	244	248	252	255	259	262	264	267	270	272	273	275	275	276	277	278	279	280	282	284	285	286	287	288	287	287	286	285	283	281	280	279	278	277	276	276	277	278	279	279	278	277	276	275	273	270	268	265	262	259	256	253	250	247	245	243	242	242	243	243	242	241	241	241	242	242	243	244	244	245	247	249	251	252	250	247	244	241	239	239	241	244	246	249	251	252	251	249	247	245	243	240	238	236	234	233	234	237	240	243	245	247	247	246	244	243	242	239	237	234	231	227	224	221	219	217	216	214	211	209	206	203	200	198	196	193	189	186	183	179	176	172	170	168	170	174	176	178	178	176	172	169	166	164	162	162	164	167	170	173	176	179	182	185	187	190	191	193	195	196	198	200	202	205	208	211	214	217	220	222	223	224	225	226	228	230	231	232	232	233	234	235	237	239	241	243	244	245	246	248	248	249	249	249	249	249	249	250	251	252	254	255	256	257	258	259	261	262	263	264	264	265	265	266	267	269	272	275	277	279	282	285	288	292	296	299	302	304	307	309	312	314	317	320	324	328	332	335	338	341	343	342	339	337	334	332	330	328	326	325	323	322	321	319	317	315	313	312	310	308	307	306	305	303	302	301	300	300	298	297	295	294	292	291	290	289	289	289	290	290	291	291	290	290	290	289	290	292	294	295	297	298	300	301	303	304	306	308	309	309	309	310	311	311	309	307	305	302	300	299	298	298	299	299	299	300	300	302	303	304	305	305	305	305	304	303	303	304	304	303	300	297	294	291	288	285	282	280	278	276	273	271	270	270	269	269	269	269	269	269	270	270	269	268	267	264	261	258	255	252	250	251	254	257	260	263	265	267	269	271	273	275	277	280	282	285	287	290	293	297	300	303	306	309	311	313	315	317	316	313	311	310	309	309	309	310	313	318	320	322	323	325	325	324	323	324	325	325	324	323	321	321	322	324	326	328	328	328	328	326	324	322	321	322	324	325	325	325	325	324	323	323	324	325	327	329	331	335	337	341	345	348	349	351	354	355	356	358	360	363	366	369	372	374	376	378	379	380	381	381	383	384	384	381	378	374	370	367	366	365	365	365	365	364	361	357	353	350	348	350	352	355	356	355	353	350	346	341	338	336	337	339	340	343	346	349	351	354	357	360	364	368	372	375	377	378	380	382	383	384	384	383	381	379	377	375	373	370	367	365	362	359	356	353	351	349	345	342	339	336	333	331	328	325	321	318	316	313	309	305	302	300	300	300	300	299	297	294	292	289	286	283	279	275	271	268	264	261	258	255	251	248	244	242	240	238	236	234	232	231	230	230	232	233	234	235	235	235	234	232	230	228	226	224	224	225	226	228	229	228	226	225	224	222	221	219	218	218	217	216	215	214	213	213	212	211	211	210	209	207	204	202	199	197	195	192	190	188	186	184	182	180	178	176	175	173	171	170	169	170	171	172	173	174	176	177	179	181	183	186	188	191	193	196	198	201	203	206	208	211	213	215	215	215	214	213	210	208	205	203	200	198	196	193	192	191	191	192	193	195	197	198	200	202	204	205	207	208	207	207	206	206	205	204	203	201	199	196	193	190	187	184	181	179	176	174	172	173	175	176	178	180	182	185
4	3	3	7	10	9	9	9	9	9	9	9	9	8	7	6	6	6	6	6	6	6	6	6	6	6	6	6	6	6	6	7	7	7	6	6	6	6	6	6	6	6	6	6	7	7	7	7	7	7	7	7	7	7	7	7	7	7	7	7	7	7	8	8	8	8	7	7	7	7	7	7	7	7	7	7	7	7	7	7	7	6	6	6	6	6	6	6	6	6	7	7	7	7	7	7	7	7	7	7	7	7	7	7	7	7	7	8	8	8	8	9	9	9	9	10	10	10	10	11	11	11	14	18	21	21	21	21	21	21	24	27	29	30	30	30	30	30	30	29	30	30	32	33	35	37	39	41	42	43	44	45	46	47	48	49	53	57	61	64	68	71	72	73	73	74	76	77	79	80	82	83	85	87	88	90	92	94	95	97	99	101	103	105	107	109	112	114	116	119	121	123	126	128	130	132	135	137	139	141	143	144	146	148	149	151	153	155	157	159	161	162	164	166	169	172	175	178	181	184	188	192	195	198	201	205	210	214	218	222	224	227	231	235	238	242	245	249	253	257	261	264	267	270	271	273	274	275	277	277	278	279	281	282	284	285	286	287	288	288	287	285	284	281	279	277	276	275	274	273	272	274	275	277	276	275	274	272	271	271	270	268	265	262	259	256	253	250	247	244	242	241	241	241	240	240	240	239	240	240	240	241	241	242	243	246	248	251	251	249	246	243	241	238	238	240	243	245	247	250	251	249	247	245	244	241	239	236	234	232	231	233	236	240	242	245	246	246	245	244	242	241	238	236	233	229	225	222	219	217	215	213	212	210	208	206	204	201	199	196	193	189	185	182	178	175	171	169	167	167	170	172	174	175	173	169	166	164	162	162	162	165	168	171	174	177	180	183	186	188	191	193	195	197	198	200	201	203	206	209	212	215	218	220	222	224	225	226	227	229	231	232	233	234	234	236	237	238	239	241	242	243	244	245	246	246	246	246	247	247	247	247	248	249	250	252	253	255	255	256	257	258	259	260	261	262	263	265	266	267	269	271	274	276	279	281	284	287	291	295	297	300	303	305	308	311	313	316	320	323	327	330	333	336	339	341	342	341	338	336	333	331	330	328	326	325	323	322	320	318	317	315	314	312	311	310	308	307	305	304	303	302	301	300	298	297	295	293	292	291	289	289	289	289	289	290	290	290	289	289	290	291	293	295	297	298	299	301	302	304	306	308	309	311	311	312	313	313	312	310	308	306	303	301	300	300	300	301	301	301	301	302	303	304	305	306	306	305	304	303	302	302	302	302	302	300	298	295	292	289	286	283	280	277	275	271	269	269	269	268	268	268	268	267	267	268	267	267	266	264	262	259	257	254	251	249	252	255	258	261	264	267	269	271	273	275	277	279	281	283	285	288	291	293	296	299	303	306	309	311	313	315	317	317	315	314	312	310	309	310	311	315	319	321	322	325	327	327	326	326	327	327	328	327	325	324	324	325	327	329	330	330	330	329	328	326	324	324	325	327	328	328	328	328	327	326	326	326	327	328	329	331	335	338	341	345	348	351	353	356	359	359	360	362	365	368	371	374	376	377	377	377	378	380	380	382	383	382	380	377	373	369	366	363	361	361	362	363	361	359	356	352	348	346	348	351	353	354	353	351	348	344	340	336	335	337	339	341	344	348	350	353	355	358	360	363	366	370	374	376	378	380	382	383	382	381	381	379	378	377	375	373	371	369	366	363	360	357	354	351	349	345	342	339	336	332	329	326	323	320	317	314	311	307	304	300	298	297	296	296	294	293	290	287	286	284	281	277	273	269	266	263	260	258	255	251	248	246	243	241	239	237	235	233	231	229	229	229	231	231	232	232	233	231	229	227	225	223	222	221	222	223	225	228	229	228	227	226	224	223	222	221	220	219	218	218	217	216	216	215	214	214	213	211	208	205	202	199	197	194	192	191	189	187	185	183	181	180	179	177	176	174	172	170	169	170	171	172	173	175	176	178	180	182	184	186	188	191	193	196	199	202	204	207	209	212	214	215	215	214	213	211	209	206	203	201	198	196	193	191	189	189	190	191	193	195	197	199	201	203	204	205	206	206	206	205	205	204	203	201	200	197	195	191	188	184	181	179	177	174	172	172	174	176	178	180	182	185	187
4	3	3	6	10	9	9	9	9	9	9	9	9	8	7	6	6	6	6	6	6	6	6	6	6	6	6	6	6	6	7	7	7	6	6	6	6	6	6	6	6	6	6	6	7	7	7	7	7	7	7	7	7	7	7	7	7	7	7	7	7	8	8	8	8	8	7	7	7	7	7	7	7	7	7	7	7	7	7	7	7	7	6	6	6	6	6	6	6	6	6	7	7	7	7	7	7	7	7	7	7	7	7	7	7	7	7	8	8	8	9	9	9	9	9	10	10	10	11	11	11	11	13	18	21	20	20	20	20	20	21	23	25	26	28	28	29	29	28	28	30	32	34	35	37	39	41	42	44	45	46	46	47	48	48	49	52	57	61	65	68	70	71	71	72	73	75	77	79	80	82	83	85	86	88	89	91	93	95	97	99	102	104	106	108	110	112	114	117	119	122	125	127	129	131	134	136	138	140	142	144	146	148	150	152	153	155	157	160	162	163	165	166	168	170	173	176	178	181	185	189	192	196	199	201	205	209	213	217	220	222	225	229	232	236	240	243	247	251	255	259	263	266	268	269	270	272	274	276	277	278	279	281	283	284	285	286	287	287	287	286	285	283	280	277	276	274	272	271	270	269	270	272	274	273	272	270	268	267	267	267	266	265	262	259	256	253	250	247	244	242	241	241	240	239	239	239	239	239	239	239	239	239	240	242	244	247	249	250	249	247	244	240	238	236	238	241	244	246	248	249	248	246	244	243	240	237	235	232	231	231	233	236	239	242	244	246	245	244	242	241	239	236	234	231	227	223	220	217	215	213	211	210	208	207	205	203	201	198	195	192	188	185	181	177	173	170	168	167	166	167	169	171	172	170	166	164	162	161	161	163	165	169	172	175	179	181	184	187	190	192	195	197	199	200	202	203	205	207	209	212	215	218	221	223	224	226	227	229	230	232	232	233	234	234	235	236	237	238	239	241	242	242	243	243	243	244	244	244	244	245	245	245	247	248	250	251	253	254	254	255	256	256	258	259	261	263	265	267	268	269	271	273	276	278	281	283	286	290	293	296	298	301	303	306	309	312	315	319	322	325	328	331	334	336	339	341	341	339	337	335	333	331	329	327	326	324	323	321	320	319	317	316	315	313	312	310	309	307	306	305	304	303	301	300	298	296	294	293	292	290	289	288	288	289	289	289	289	289	289	290	292	294	296	298	299	300	302	303	305	307	309	311	312	313	315	315	315	313	311	309	307	305	303	301	301	302	303	304	304	303	303	304	306	307	308	307	306	304	302	301	300	300	300	299	299	297	295	293	290	287	284	281	278	275	272	269	268	268	268	268	267	267	266	266	266	266	265	263	262	260	258	255	252	249	249	252	256	259	262	266	269	271	273	275	277	279	281	283	285	287	289	291	293	296	299	303	306	309	311	313	315	317	319	319	318	316	313	312	312	313	317	319	320	323	327	329	329	329	329	329	329	329	328	327	327	327	328	328	330	332	332	332	331	330	328	326	326	328	329	331	331	332	331	330	329	328	328	329	329	329	331	335	339	342	345	349	351	355	358	360	361	363	365	367	370	373	376	377	375	374	373	373	375	378	380	381	381	378	375	371	368	365	361	359	358	359	359	359	356	353	350	346	344	347	350	352	352	351	349	345	342	338	335	334	337	340	343	347	350	353	355	358	360	362	364	366	370	373	376	378	380	382	381	379	378	377	376	375	374	372	371	369	367	365	361	358	356	353	351	348	346	343	340	337	333	330	327	323	320	317	314	311	307	303	300	298	296	293	292	290	288	286	283	282	280	278	274	270	266	264	261	259	256	253	251	249	246	244	242	240	238	236	234	232	229	228	227	228	229	229	230	230	229	227	225	223	221	219	219	219	221	223	225	227	229	229	228	227	225	224	222	222	221	220	219	219	219	218	218	217	216	214	212	209	206	203	200	197	194	192	191	190	188	186	185	184	183	181	180	178	175	174	172	170	169	169	171	172	173	175	177	179	180	182	184	186	189	191	194	197	200	203	205	208	210	213	214	215	214	213	212	210	207	204	202	199	196	193	190	189	188	189	190	191	193	196	198	200	202	203	204	205	205	205	204	204	203	202	200	198	196	193	189	185	181	179	177	174	172	172	174	176	177	179	182	184	187	189
5	3	3	4	8	9	9	9	9	9	8	8	7	6	6	6	6	6	6	6	6	6	6	6	6	6	6	6	6	6	7	7	6	6	6	6	6	6	6	6	6	6	6	6	7	7	7	7	7	7	7	7	7	7	7	7	7	7	7	7	7	8	8	8	8	8	7	7	7	7	7	7	7	7	7	7	7	7	7	7	7	7	6	6	6	6	6	6	6	6	6	7	7	7	7	7	7	7	7	7	7	7	7	7	7	7	7	8	8	8	9	9	9	9	10	10	10	10	11	11	11	11	12	17	20	19	19	18	18	18	19	20	21	21	22	24	27	27	27	29	32	34	36	37	38	40	42	44	46	46	47	47	48	49	49	50	53	57	61	64	67	68	69	69	70	72	74	76	78	80	81	83	84	85	87	88	89	91	93	96	99	101	103	106	107	109	111	114	116	119	121	124	127	129	132	134	136	138	141	143	145	147	149	151	153	155	157	160	162	164	166	167	169	171	173	175	177	179	181	185	188	192	196	199	201	204	207	211	215	218	220	224	227	231	235	238	242	246	250	254	258	261	264	266	267	268	270	272	274	276	277	279	281	283	285	286	286	287	288	287	286	285	283	280	277	275	273	270	268	267	266	267	269	270	270	268	266	264	263	264	265	264	263	261	259	256	253	250	247	244	242	241	241	240	240	240	240	240	239	239	238	238	238	239	241	243	245	247	248	248	247	244	240	237	235	236	240	242	244	246	248	247	245	243	241	239	235	233	230	229	230	233	236	239	242	244	245	244	243	241	239	236	234	231	228	225	222	219	215	213	210	208	207	206	204	202	201	199	197	194	191	187	184	180	176	172	170	168	166	165	165	167	169	170	168	165	162	161	161	162	164	167	170	173	177	180	183	185	188	191	193	196	198	200	202	204	205	207	209	210	212	215	218	221	223	225	226	227	228	229	230	231	231	232	232	233	233	234	235	237	238	239	239	240	240	240	241	241	242	242	242	243	243	245	246	248	250	251	252	253	253	254	255	257	259	261	264	266	267	268	269	271	274	276	278	281	283	286	289	292	294	296	299	302	304	307	310	313	317	320	323	326	329	332	334	337	339	341	340	338	336	335	333	331	329	327	325	324	323	322	321	320	319	317	316	314	312	310	309	308	307	306	305	303	301	299	297	295	294	292	291	290	288	288	288	288	288	288	289	290	291	293	295	298	300	301	302	303	305	306	308	310	312	313	315	317	317	316	314	312	310	308	306	305	304	303	304	305	306	306	305	306	306	308	309	309	308	306	304	303	301	300	298	297	297	296	295	294	292	290	287	284	281	278	275	272	270	268	268	267	267	266	266	265	265	265	264	263	261	260	258	256	254	251	248	249	253	256	260	263	266	269	272	274	276	279	281	283	285	287	289	291	292	294	296	299	302	305	308	311	313	315	317	319	320	321	320	318	317	316	317	319	321	322	325	328	330	331	331	331	332	331	330	329	329	329	329	329	329	331	333	334	334	333	332	331	329	329	330	332	333	334	335	335	334	333	332	331	330	330	330	332	336	339	342	344	348	351	354	357	360	362	365	368	370	372	374	376	375	372	371	369	369	370	373	376	378	379	376	372	369	367	364	361	358	356	355	355	355	353	351	347	342	342	344	347	349	349	348	345	342	339	336	333	335	338	341	345	348	352	355	358	360	362	364	366	368	370	373	376	378	381	382	380	377	375	374	373	372	370	368	367	365	364	361	358	355	353	351	349	347	345	343	341	338	335	332	329	325	322	319	315	312	308	305	302	299	297	294	291	289	287	284	282	279	277	274	271	267	264	261	259	256	254	251	249	247	244	242	241	240	238	236	234	232	230	227	226	226	226	226	227	227	227	225	223	221	220	218	217	218	219	221	223	225	227	228	229	228	227	226	224	223	222	221	220	220	221	220	220	219	218	216	213	210	207	204	201	198	195	193	192	191	189	188	187	186	185	183	181	179	177	175	173	171	169	168	169	171	172	174	176	177	179	180	182	184	187	190	193	196	199	202	204	207	209	211	213	214	213	213	212	210	208	206	203	200	197	193	190	189	188	188	189	190	192	194	197	199	201	202	202	203	204	204	203	202	201	200	198	196	194	191	187	182	179	177	174	172	171	173	175	177	179	182	184	187	189	191
6	3	3	3	7	9	8	8	7	6	5	5	4	4	4	5	6	6	6	6	6	6	6	6	6	6	6	6	6	6	6	6	6	6	6	6	6	6	6	6	6	6	6	6	7	7	7	7	7	7	7	7	7	7	7	7	7	7	7	7	7	7	8	8	8	8	7	7	7	7	7	7	7	7	7	7	7	7	7	7	7	7	7	6	6	6	6	6	6	6	6	7	7	7	7	7	7	7	7	7	7	7	7	7	7	7	7	8	8	8	9	9	9	9	10	10	10	11	11	11	12	12	12	14	18	18	17	17	16	17	18	19	20	20	20	22	24	25	27	31	34	35	36	38	39	41	43	45	46	47	47	47	48	49	49	50	53	57	60	63	65	66	67	68	69	71	73	75	77	79	81	82	83	85	86	87	88	90	92	95	98	100	103	105	106	108	110	113	115	118	120	123	126	128	131	134	136	138	140	142	144	147	149	152	154	156	158	161	164	166	168	170	171	173	175	177	178	180	182	185	188	191	194	198	200	203	206	210	213	216	220	223	227	230	234	237	241	245	249	252	255	258	260	262	264	266	268	270	272	274	276	279	281	283	284	286	287	287	288	288	287	286	284	281	278	275	272	269	266	264	263	264	265	266	266	265	263	261	260	261	261	262	261	259	257	255	253	249	246	243	242	241	241	241	241	241	241	240	240	240	239	238	237	238	240	242	243	245	246	247	245	242	239	236	233	234	237	240	242	244	246	246	244	242	240	237	234	231	228	228	231	234	236	239	242	244	244	244	242	239	236	233	231	228	224	221	219	217	214	211	208	206	204	203	201	199	198	197	195	193	190	186	183	180	176	173	170	169	167	165	164	166	167	167	166	163	161	160	161	163	166	168	171	175	178	181	184	186	189	191	194	197	199	202	204	206	207	209	210	211	212	215	218	221	223	225	226	226	226	226	226	227	227	228	228	229	230	231	232	234	235	236	235	236	236	237	238	239	240	240	241	241	242	243	244	246	248	249	250	251	252	253	255	257	259	262	264	266	268	269	271	273	275	277	279	282	284	286	288	291	293	296	298	301	303	306	308	311	315	319	322	325	327	330	333	335	337	340	340	338	337	335	333	332	330	328	326	325	325	324	323	322	321	319	318	316	314	312	311	310	309	308	306	304	302	300	298	296	294	293	291	290	288	287	287	288	288	288	289	290	292	294	297	300	301	302	303	305	306	307	309	311	313	315	316	318	318	317	315	314	312	309	308	306	306	306	306	307	308	308	308	308	309	310	310	310	308	307	305	303	302	300	298	296	294	293	292	292	290	288	285	283	280	278	275	272	269	268	268	268	267	267	267	266	266	265	264	262	260	259	257	255	253	250	248	250	253	257	260	263	266	269	271	274	277	280	283	285	287	289	291	293	295	296	297	299	302	304	308	310	312	314	316	318	320	322	322	322	321	321	321	322	323	325	328	331	332	333	334	335	335	335	333	331	329	329	329	329	330	332	334	336	336	335	334	333	332	331	332	334	336	338	338	338	337	337	336	335	333	332	332	334	337	339	341	343	347	350	353	356	359	363	367	370	371	373	375	374	372	370	367	365	365	368	370	373	376	377	374	371	368	365	363	360	357	354	351	351	351	350	348	344	340	340	342	345	347	346	344	342	339	336	333	332	335	339	342	346	349	353	356	359	362	364	366	368	370	372	374	376	379	381	381	378	376	373	371	370	368	366	364	363	362	360	358	355	352	350	347	345	344	343	342	340	338	335	333	330	327	324	320	317	313	310	306	303	301	298	296	293	291	289	286	283	280	276	272	268	265	261	259	256	254	251	249	246	244	242	240	239	238	237	235	233	231	229	227	225	224	223	223	224	224	224	224	222	220	218	216	215	216	218	219	221	223	225	226	227	228	228	227	226	225	223	222	221	222	222	222	222	221	220	218	215	212	209	206	202	199	197	195	193	192	191	190	190	189	187	185	183	180	178	176	175	173	171	168	168	169	171	173	174	176	177	179	180	182	185	189	192	195	198	201	203	205	207	209	212	213	213	212	211	211	209	207	204	201	198	194	191	189	188	187	188	189	191	193	195	197	199	200	200	201	202	202	202	201	200	198	196	194	191	188	184	180	177	175	172	170	172	174	176	178	181	184	186	189	191	194
6	4	3	3	5	6	5	4	4	3	3	3	3	3	4	5	6	6	6	6	6	6	6	6	6	6	6	6	6	6	6	6	6	6	6	6	6	6	6	6	6	6	6	6	7	7	7	7	7	7	7	7	7	7	7	7	7	7	7	7	7	7	7	8	8	7	7	7	7	7	7	7	7	7	7	7	7	7	7	7	7	7	7	7	6	6	6	6	6	6	6	6	7	7	7	7	7	7	7	7	7	7	7	7	7	7	7	8	8	8	9	9	9	9	10	10	11	11	11	12	12	12	11	12	14	15	15	15	14	15	16	18	19	20	21	22	24	26	29	32	34	35	37	38	39	41	43	45	46	47	47	47	48	49	49	49	52	56	59	61	63	64	64	66	68	69	71	74	76	78	80	81	82	84	85	87	88	89	91	94	97	99	102	103	105	106	109	111	114	116	119	122	125	128	130	133	136	138	140	141	144	146	148	151	153	155	158	161	164	167	169	171	174	176	177	179	180	182	184	186	188	191	194	197	200	203	206	209	213	216	220	223	226	230	233	236	240	243	246	249	252	255	257	259	261	263	266	269	271	273	275	278	280	282	284	285	287	287	288	287	286	284	282	281	278	275	272	269	266	264	262	261	262	262	262	261	260	258	257	257	258	258	258	256	255	253	251	248	245	244	244	244	244	244	243	242	242	241	241	241	240	239	238	237	238	240	242	244	245	245	243	240	237	234	231	232	235	238	241	243	244	244	243	241	239	236	232	229	227	228	231	234	237	240	242	243	244	243	240	237	234	231	228	225	221	219	217	216	213	210	207	204	201	199	198	196	195	195	193	191	189	186	183	180	177	173	171	169	168	165	163	164	165	165	164	162	160	160	162	164	167	170	173	176	179	182	184	187	189	192	195	197	200	203	205	207	209	210	211	212	213	215	218	220	222	224	224	224	223	223	223	223	223	223	224	225	227	228	230	231	232	232	232	232	233	234	235	237	238	239	239	240	241	242	243	244	246	247	249	250	251	253	255	257	259	262	264	267	269	271	273	275	277	279	281	283	285	287	289	291	293	296	298	301	303	306	308	311	315	319	322	324	327	329	332	334	337	339	339	337	336	334	333	332	330	329	327	327	327	327	325	324	323	321	320	318	316	314	313	312	310	308	306	304	302	300	298	296	295	293	291	290	288	287	287	287	288	289	290	291	293	296	299	301	301	302	304	306	307	309	310	312	313	315	317	319	319	318	316	315	313	311	310	308	307	308	308	309	310	310	310	310	311	312	312	310	309	308	306	304	303	301	299	296	293	291	290	289	288	286	283	281	279	277	275	272	269	268	268	269	269	269	269	268	268	267	265	263	261	259	257	255	252	249	247	250	254	257	260	263	266	269	272	274	277	280	284	287	289	291	294	296	298	299	300	301	303	305	308	310	311	313	315	317	320	322	324	325	325	325	325	326	327	329	331	334	336	336	337	338	338	338	336	333	330	330	330	330	330	333	336	338	338	337	337	336	335	334	335	336	338	340	341	341	341	340	339	338	336	335	335	337	339	340	341	344	347	350	352	356	359	362	367	370	372	373	373	371	370	367	363	362	364	366	369	371	374	376	373	371	368	365	362	359	356	353	350	348	348	347	345	342	339	338	340	342	344	343	341	338	335	332	330	331	335	339	342	346	350	353	356	359	362	364	367	369	371	373	375	377	379	381	380	378	375	373	370	367	365	362	361	359	358	357	354	351	348	346	344	342	341	340	340	338	335	332	330	328	326	323	320	317	314	311	307	305	302	299	297	295	293	291	288	285	282	278	274	270	265	261	258	255	252	250	247	244	241	240	239	238	237	236	234	232	230	228	227	225	223	222	222	221	221	222	221	221	219	217	215	214	214	216	218	220	221	223	224	225	226	226	227	227	226	225	224	223	223	223	224	224	223	221	219	217	213	210	207	204	201	198	197	196	195	194	193	192	191	189	186	184	181	180	178	176	175	173	170	168	168	169	171	172	174	175	177	179	181	184	188	191	194	197	199	202	203	205	207	209	212	212	212	211	210	209	208	205	202	198	195	192	190	188	187	187	188	189	191	193	195	196	197	198	199	200	201	200	199	198	196	194	191	189	186	183	179	176	174	171	170	173	175	178	180	182	185	188	191	193	195
7	4	3	3	3	3	3	3	3	3	3	3	3	3	4	5	6	6	6	6	6	6	6	6	6	6	6	6	6	6	6	6	6	6	6	6	6	6	6	6	6	6	6	6	7	7	7	7	7	7	7	7	7	7	7	7	7	7	7	7	7	7	7	7	7	7	7	7	7	7	7	7	7	7	7	7	7	7	7	7	7	7	7	7	7	7	7	6	6	6	6	7	7	7	7	7	7	7	7	7	7	7	7	7	7	7	7	8	8	8	9	9	9	9	10	11	11	12	12	12	12	12	12	11	12	12	13	13	14	15	16	17	18	20	22	23	25	28	31	33	35	36	37	38	39	41	43	44	46	47	47	48	49	49	49	49	51	55	58	60	61	61	63	64	66	68	70	72	74	76	78	80	81	83	84	86	87	89	91	93	96	98	100	102	103	105	107	110	112	115	118	121	124	127	129	132	135	137	139	140	143	145	147	150	152	154	157	160	163	166	169	172	175	177	179	181	183	184	186	188	190	192	195	197	200	203	206	209	213	216	220	222	225	228	232	235	238	241	243	246	249	252	254	257	260	263	265	269	271	273	276	278	280	282	284	285	286	287	287	286	283	281	279	279	277	275	272	269	267	264	261	259	259	259	259	258	257	256	254	254	254	255	255	254	253	251	248	246	244	245	247	247	248	248	247	245	244	243	243	242	241	241	239	236	236	238	241	242	243	243	242	239	236	232	230	230	233	237	240	242	243	242	241	239	236	234	231	227	226	228	231	234	237	240	242	243	243	242	239	235	232	229	226	223	220	216	214	213	212	209	205	202	199	196	195	194	193	192	191	189	188	185	183	180	177	173	171	169	168	165	163	163	163	163	162	160	159	160	163	166	168	171	174	177	180	183	185	188	190	192	195	197	200	203	206	208	210	211	212	213	214	216	218	221	222	222	222	222	221	220	220	220	220	221	221	222	224	225	227	229	229	230	230	230	231	232	233	235	236	237	238	239	240	241	242	244	245	247	249	250	252	254	255	257	260	263	265	268	270	273	275	277	279	281	283	285	286	288	290	292	294	297	299	301	304	306	309	312	315	318	321	323	326	328	331	333	336	338	338	336	335	334	332	331	330	329	328	329	330	329	328	327	325	324	322	320	318	317	315	313	311	308	305	303	301	300	298	296	294	292	291	289	287	287	287	287	288	289	290	292	294	297	300	301	301	303	305	307	309	310	311	313	314	316	318	319	319	318	317	315	314	313	312	310	310	310	311	311	312	312	312	312	313	313	312	311	310	309	307	305	304	302	299	297	294	291	289	287	285	283	281	279	278	276	274	271	270	270	270	270	271	271	271	270	270	269	267	265	262	260	257	254	251	248	247	250	253	257	261	264	267	270	273	276	278	281	285	288	291	293	296	299	301	303	304	305	305	307	309	310	310	312	314	317	319	322	325	326	327	328	329	329	330	332	335	337	339	340	340	340	341	340	338	336	333	332	332	332	332	334	337	339	340	340	339	338	337	337	337	339	340	342	343	343	343	343	342	340	339	337	338	339	341	343	344	345	348	350	353	356	359	362	366	370	372	372	370	368	366	362	360	361	363	366	369	371	374	375	373	371	368	365	362	360	357	354	351	347	345	343	342	340	337	337	338	340	341	340	338	335	331	330	330	331	335	338	341	345	349	352	355	358	361	364	366	369	371	373	375	377	379	381	381	378	376	374	371	368	364	361	359	356	355	353	350	347	345	342	340	339	337	336	336	334	332	329	326	324	323	321	319	317	314	312	309	306	303	300	298	297	295	292	290	287	284	280	276	271	266	262	259	256	254	251	247	244	241	239	238	236	235	234	232	231	229	227	226	224	223	222	221	220	219	219	219	219	218	216	214	213	213	214	216	218	219	221	222	222	223	224	225	226	226	226	226	225	225	225	225	225	223	222	220	218	215	212	208	205	203	201	199	198	198	197	196	194	192	189	186	184	182	181	180	179	177	175	172	169	167	167	169	171	172	174	176	178	180	183	186	189	192	195	197	200	201	203	205	207	209	211	211	211	210	209	208	206	202	199	196	193	190	188	187	186	187	188	189	191	192	193	195	196	198	199	200	199	198	196	195	192	190	187	185	182	178	176	173	170	170	174	176	179	182	184	187	189	192	193	195
7	5	3	3	3	3	3	3	3	3	3	3	3	3	4	5	6	6	6	6	6	6	6	6	6	6	6	6	6	6	6	6	6	6	6	6	6	6	6	6	6	6	6	6	7	7	7	7	7	7	7	7	7	7	7	7	7	7	7	7	7	7	7	7	7	7	7	7	7	7	7	7	7	7	7	7	7	7	7	7	7	7	7	7	7	7	7	7	7	6	6	7	7	7	7	7	7	7	7	7	7	7	7	7	7	7	7	8	8	8	9	9	9	9	10	11	12	12	12	12	12	12	12	11	11	12	14	16	18	19	20	20	21	22	24	26	27	29	32	34	35	36	37	38	39	40	42	44	45	45	46	47	49	49	49	49	50	53	56	57	59	60	62	64	66	68	70	71	73	75	77	79	80	82	84	86	87	89	91	92	94	96	98	100	102	103	106	109	111	114	117	120	123	126	129	131	134	136	137	139	141	144	146	148	150	153	156	159	162	165	167	170	174	177	179	182	184	186	188	189	191	193	196	198	200	203	206	209	212	216	219	222	224	227	230	233	236	239	241	244	247	251	254	257	260	263	266	269	272	274	276	278	279	281	283	285	286	287	286	285	282	279	276	275	273	272	270	269	266	263	260	257	256	256	255	254	254	253	252	252	252	252	252	251	250	248	247	245	245	246	248	250	251	251	249	247	246	246	245	244	243	242	239	236	234	236	239	240	240	240	240	238	235	231	228	229	232	235	238	241	241	240	238	235	233	231	228	225	226	228	231	233	236	240	242	243	243	241	238	235	231	227	224	221	218	215	212	210	209	207	203	200	197	194	193	192	191	190	189	187	186	185	182	179	175	172	171	169	167	165	164	163	162	161	161	160	159	161	163	166	169	172	175	178	181	183	185	188	190	192	194	196	199	202	205	208	211	212	213	215	216	218	219	220	221	221	220	220	219	218	218	218	219	219	220	221	222	223	224	226	227	227	228	229	230	231	232	233	235	236	238	239	240	241	243	245	246	248	250	252	253	254	256	258	261	263	266	269	271	274	276	278	280	283	285	286	287	289	291	293	296	298	300	302	304	307	310	312	315	317	320	322	324	327	330	332	335	337	337	336	334	333	331	330	329	328	328	329	329	329	329	328	327	326	324	321	320	318	316	313	311	308	305	302	300	298	297	295	293	291	290	288	287	287	287	287	288	290	291	293	295	298	300	301	302	304	306	308	309	311	313	314	316	317	319	319	319	318	316	314	313	313	313	312	312	312	313	313	314	314	314	314	314	313	312	311	310	309	307	305	303	301	299	297	294	292	289	286	284	282	280	278	276	274	273	272	271	271	271	272	272	273	273	272	272	271	269	266	263	260	257	254	251	247	247	250	253	257	261	264	268	272	275	278	280	283	286	289	292	295	298	301	304	306	307	308	308	309	310	310	310	312	314	317	319	322	324	327	329	331	332	333	334	335	338	340	342	343	343	343	343	342	340	338	336	336	336	335	335	336	339	341	343	343	343	342	341	340	340	340	341	343	345	346	346	346	345	343	342	340	340	342	344	346	347	348	349	350	353	356	360	363	366	370	371	369	367	365	362	359	358	360	362	365	368	371	373	373	372	371	369	366	363	361	358	355	352	348	344	341	339	338	335	335	336	338	338	336	334	331	329	328	329	331	334	337	341	344	347	350	354	357	360	363	365	368	370	373	375	377	379	381	381	379	377	375	372	369	366	362	359	356	353	350	347	344	341	339	337	335	333	332	332	330	328	325	322	320	319	318	316	314	311	310	309	307	304	302	300	298	296	294	291	288	285	281	277	272	267	263	261	258	256	253	249	246	243	241	239	237	234	233	231	229	228	227	225	223	222	222	221	220	219	218	218	217	216	215	213	212	211	211	213	215	217	218	219	220	221	222	223	223	224	225	225	226	225	226	226	225	224	222	221	219	216	213	210	207	205	203	202	201	200	199	198	195	192	189	187	185	184	183	182	181	179	177	174	172	169	167	167	169	171	172	174	176	179	182	184	187	189	192	195	197	199	201	203	205	207	209	210	210	210	209	208	206	203	199	196	193	190	188	187	185	185	187	188	189	190	191	193	194	196	198	198	198	197	195	194	191	189	186	184	181	178	175	172	169	169	173	176	180	183	185	187	188	189	190	192
7	6	3	3	3	3	3	3	3	3	3	3	3	3	3	5	6	6	6	6	6	6	6	6	6	6	6	6	6	6	6	6	6	6	6	6	6	6	6	6	6	6	6	6	7	7	7	7	7	7	7	7	7	7	7	7	7	7	7	7	7	7	7	7	7	7	7	7	7	7	7	7	7	7	7	7	7	7	7	7	7	7	7	7	7	7	7	7	7	7	6	7	7	7	7	7	7	7	7	7	7	7	7	7	7	7	7	8	8	8	9	9	9	9	10	11	12	12	12	12	12	11	11	11	12	13	16	19	22	24	24	24	24	26	27	28	29	31	33	34	35	36	37	38	39	40	41	43	43	44	44	45	47	48	48	48	49	52	54	56	58	61	63	65	67	69	70	72	74	75	77	79	80	82	84	86	88	90	91	93	94	96	97	99	101	102	105	108	111	114	116	119	122	125	128	130	132	134	136	138	140	142	145	147	150	152	155	158	161	163	166	169	173	176	179	181	184	187	189	191	193	194	196	198	201	203	206	209	212	215	218	221	223	226	230	233	235	238	241	244	248	251	254	257	261	264	267	270	273	275	277	279	280	281	283	284	286	286	286	284	281	278	275	272	269	268	267	267	265	262	259	257	256	255	254	253	252	251	251	250	250	250	250	249	248	247	247	246	246	247	249	251	252	253	251	249	248	248	248	247	245	242	239	234	232	233	236	236	236	237	237	236	234	230	226	228	231	234	237	239	239	238	235	232	230	227	224	223	226	228	231	234	237	240	243	243	242	240	237	234	230	225	222	220	217	213	210	208	206	204	201	198	195	193	191	190	189	188	187	186	185	183	181	178	174	171	170	169	167	165	164	163	162	161	161	159	159	161	163	166	169	172	175	178	181	183	185	187	189	191	193	195	198	201	205	208	211	213	214	216	217	219	219	219	218	218	218	217	216	215	216	217	218	219	219	220	221	221	223	224	225	226	227	229	230	231	232	233	236	238	239	240	241	243	244	247	248	250	252	253	255	255	257	259	262	265	267	270	272	274	277	279	282	284	286	287	288	290	292	294	297	299	300	303	305	307	309	311	313	315	318	321	323	326	328	331	334	336	336	335	333	332	331	329	327	326	326	326	327	327	327	327	326	326	325	322	320	318	316	313	311	308	304	300	298	296	295	293	292	290	289	287	286	286	286	287	289	290	292	293	296	299	301	301	303	305	306	308	310	312	314	315	317	318	319	318	317	316	315	312	310	311	312	312	312	312	313	313	314	316	316	316	315	314	312	311	309	308	306	304	302	300	298	296	294	292	289	286	284	281	279	278	276	274	273	273	273	272	272	273	274	274	275	275	273	272	270	267	264	260	257	254	250	247	247	250	253	256	260	264	268	273	277	279	282	285	288	290	294	297	300	303	306	309	310	311	311	311	311	310	311	312	315	317	319	322	324	327	329	332	334	335	337	339	341	343	344	345	346	346	346	344	342	340	339	339	339	339	338	339	341	343	345	346	347	346	345	343	341	341	342	344	347	348	349	349	348	347	345	344	344	345	347	349	350	351	352	352	354	357	361	364	367	370	370	367	364	361	359	357	357	359	362	365	368	370	371	372	371	370	369	366	364	362	359	355	352	348	344	340	338	336	334	333	334	334	334	332	331	329	327	327	329	331	334	337	341	344	347	350	353	356	359	362	364	367	370	372	375	377	379	381	380	379	377	375	373	370	367	363	360	357	353	350	345	342	339	337	334	332	330	328	327	326	324	322	320	317	316	315	312	310	308	307	307	306	305	303	301	299	297	294	291	288	284	281	276	271	267	264	262	260	257	254	251	248	246	243	241	238	235	233	230	229	227	226	224	223	222	221	221	220	218	217	216	216	215	214	212	211	210	210	210	212	214	215	217	218	219	220	221	221	222	223	224	224	224	225	226	225	224	222	221	220	217	215	212	210	207	205	204	203	202	201	199	196	193	190	187	186	186	185	184	183	181	179	176	174	171	169	167	167	168	170	172	174	177	179	182	184	187	190	192	194	197	199	201	203	205	207	208	209	209	209	208	206	203	200	197	194	191	188	187	185	184	185	186	187	188	189	191	193	194	196	197	197	196	194	192	190	188	186	183	181	178	175	171	168	168	172	175	179	182	184	185	186	187	187	189
7	6	4	3	3	3	3	3	3	3	3	3	3	3	3	4	6	6	6	6	6	6	6	6	6	6	6	6	6	6	6	6	6	6	6	6	6	6	6	6	6	6	6	6	6	7	7	7	7	7	7	7	7	7	7	7	7	7	7	7	7	7	7	7	7	7	7	7	7	7	7	7	7	7	7	7	7	7	7	7	7	7	7	7	7	7	7	7	7	7	7	7	7	7	7	7	7	7	7	7	7	7	7	7	7	7	7	8	8	9	9	9	10	10	11	12	12	12	12	12	11	11	11	11	13	15	18	21	25	26	27	26	27	27	28	28	29	31	33	34	35	35	36	37	38	39	40	41	42	42	43	43	44	45	46	48	49	52	55	58	61	63	65	67	69	71	72	73	75	76	78	79	81	83	85	88	90	91	92	94	95	97	98	100	101	103	105	108	111	114	117	119	122	125	127	129	131	133	135	137	139	141	144	147	149	152	155	157	160	162	165	168	172	175	178	181	184	188	191	193	194	196	197	199	201	204	207	210	213	215	218	221	223	227	230	233	236	239	242	245	249	252	255	258	261	264	267	270	273	275	277	279	280	282	283	284	285	286	285	284	282	279	277	273	269	266	265	264	263	261	258	257	257	257	256	255	253	252	251	251	250	249	249	248	248	247	247	247	247	248	250	251	253	253	253	251	250	250	250	247	244	241	238	233	231	232	233	233	232	233	234	233	232	227	223	226	230	233	235	237	237	236	233	230	227	225	223	224	227	229	232	235	238	241	243	243	242	240	237	233	228	224	221	219	216	212	209	206	204	201	198	196	194	192	191	190	189	188	187	186	184	182	180	177	174	171	170	169	167	165	164	163	163	162	161	159	159	160	163	166	169	171	174	177	180	182	184	186	188	190	192	195	197	201	205	209	211	214	215	217	218	217	217	216	216	215	214	214	213	214	216	217	218	219	220	220	221	221	223	224	226	227	228	229	230	231	232	235	237	239	241	243	244	246	247	249	251	252	253	255	256	257	259	262	265	267	269	271	273	275	277	280	282	285	286	288	290	292	294	295	297	299	301	303	304	305	307	309	311	313	316	319	322	325	327	330	333	335	336	334	333	332	330	328	326	325	324	324	323	324	324	324	324	324	324	322	321	319	316	313	311	308	304	300	297	295	293	291	290	289	288	286	286	286	287	288	290	291	293	295	297	300	301	302	303	305	307	309	311	313	315	317	318	319	318	317	316	315	313	311	308	307	309	310	309	310	310	311	312	314	316	316	314	313	311	308	306	305	304	303	301	298	296	295	293	291	289	286	284	282	280	278	276	275	274	274	274	274	274	274	275	276	277	277	275	272	270	267	264	260	257	253	249	246	247	250	253	256	260	264	268	273	277	280	283	286	289	291	294	298	302	305	308	310	311	312	312	312	312	312	313	314	316	318	320	322	324	327	329	332	334	337	339	341	343	345	347	348	349	349	349	347	345	343	342	342	343	342	341	341	343	346	348	350	350	350	348	346	344	343	344	346	348	351	352	351	351	350	349	348	348	349	349	351	353	354	355	355	356	359	361	364	367	370	369	365	362	360	357	356	356	358	361	363	366	368	369	369	369	369	369	367	365	362	359	355	351	348	345	341	338	336	333	331	331	331	330	329	328	327	326	327	329	332	335	339	342	346	348	351	353	356	358	361	364	366	369	371	374	377	379	381	379	377	376	373	370	367	365	363	360	357	353	350	345	341	338	335	332	329	327	324	323	322	321	320	318	315	313	312	309	307	304	303	303	303	303	302	300	298	296	294	292	288	284	280	276	271	268	266	264	262	259	257	254	251	249	246	243	239	236	234	231	229	227	225	224	223	222	221	220	219	218	217	216	215	214	213	212	211	209	209	209	210	211	213	214	215	216	217	218	219	220	221	222	222	223	223	224	224	224	223	222	221	219	217	214	212	210	208	206	205	204	202	200	197	193	190	189	188	188	187	187	185	183	181	178	176	173	171	168	166	166	168	170	172	174	177	179	182	184	187	189	192	194	196	199	201	203	205	206	208	209	208	208	206	203	200	197	194	191	189	187	186	184	184	185	186	187	188	190	192	194	195	196	195	193	192	190	189	187	185	183	180	177	174	171	168	166	170	173	177	181	182	183	184	184	185	186
7	7	5	3	3	3	3	3	3	3	3	3	3	3	3	4	5	6	7	7	7	6	6	6	6	6	6	6	6	6	6	6	6	6	6	6	6	6	6	6	6	6	6	6	6	6	7	7	7	7	7	7	7	7	7	7	7	7	7	7	7	7	7	7	7	7	7	7	7	7	7	7	7	7	7	7	7	7	7	7	7	7	7	7	7	7	7	7	7	7	6	7	7	7	7	7	7	7	7	7	7	7	7	7	8	7	7	8	8	9	9	10	11	11	11	12	12	12	12	11	11	11	11	12	14	18	21	23	26	27	27	27	27	28	28	29	29	31	33	34	34	35	36	37	38	38	39	40	41	41	42	42	43	44	45	47	50	53	56	59	62	64	66	68	70	71	73	74	76	77	78	80	82	84	86	89	91	92	94	95	96	98	99	101	103	105	107	109	112	114	117	120	122	125	127	129	130	132	134	136	138	140	143	146	149	152	154	157	159	162	165	168	171	174	177	180	184	189	192	195	196	198	199	201	203	205	208	211	214	216	218	221	224	228	231	234	238	241	244	247	250	253	256	259	262	265	268	271	273	275	277	279	280	281	283	284	285	285	285	284	282	281	279	275	272	269	266	264	262	261	260	259	260	260	258	257	255	254	252	251	250	249	248	247	247	247	247	248	248	249	250	252	253	253	253	252	251	251	249	246	243	240	237	233	231	230	230	230	229	229	230	230	228	224	221	223	228	231	234	235	235	233	231	227	225	223	223	226	228	231	234	237	239	242	243	243	242	239	236	232	228	223	221	218	215	211	208	206	203	201	197	195	194	194	193	192	191	190	189	187	184	182	180	177	174	172	170	169	167	165	164	164	163	162	161	159	158	159	161	164	167	170	173	176	179	181	183	185	187	189	192	194	197	201	206	209	212	214	216	216	216	215	215	214	213	213	211	211	213	215	217	219	220	220	221	221	222	222	224	226	227	228	229	230	230	231	234	237	239	241	243	245	248	249	250	251	253	254	255	256	258	260	262	264	267	269	271	272	274	276	278	281	283	285	287	289	291	293	294	295	297	298	300	301	302	303	305	307	309	311	314	318	321	323	326	329	331	334	334	334	333	331	330	328	326	324	322	321	321	321	321	322	322	322	322	322	320	318	316	313	311	308	304	300	297	294	292	290	288	287	286	286	286	286	287	290	292	293	294	296	299	300	301	302	304	306	308	310	312	314	316	318	319	318	316	315	314	313	312	309	306	304	304	306	306	306	307	308	310	312	315	315	313	311	308	306	304	303	302	301	299	297	295	293	292	290	288	286	284	282	281	279	278	276	275	275	275	275	275	276	276	277	278	277	274	271	269	266	263	259	256	252	248	245	247	250	253	256	260	264	268	273	277	280	283	286	289	291	294	298	302	306	309	311	312	313	314	314	314	314	315	316	318	319	320	322	324	326	329	331	334	337	340	342	344	347	349	350	351	351	351	350	349	347	347	346	346	345	344	345	347	349	351	352	353	353	352	349	347	346	346	348	350	352	354	354	354	353	352	351	350	350	350	352	354	356	358	358	359	360	362	365	368	369	367	364	361	359	357	355	354	357	359	362	364	365	366	366	366	366	367	367	365	362	359	355	352	350	347	344	341	337	334	330	329	328	328	327	326	325	326	328	330	333	337	341	345	348	351	353	355	357	359	362	364	367	369	371	374	377	379	380	378	375	373	371	367	364	362	361	358	356	353	349	345	341	338	334	330	327	324	321	320	319	319	318	316	313	310	308	306	303	301	300	300	300	299	299	297	295	294	292	291	288	285	281	277	273	270	268	266	264	261	259	257	254	252	249	245	241	238	235	233	230	228	226	224	222	221	221	220	219	218	217	216	214	213	212	211	210	209	208	207	208	208	210	211	212	213	214	216	217	218	219	219	220	220	221	222	223	223	223	222	221	220	218	216	214	212	210	208	206	204	202	199	197	194	192	191	191	190	190	189	187	185	182	180	178	175	172	170	167	165	165	167	170	172	174	177	179	182	185	187	190	192	194	197	199	201	203	205	206	208	208	207	206	204	201	198	195	192	190	188	187	185	183	183	184	185	186	188	191	192	194	193	191	190	189	188	186	185	183	182	179	177	174	170	167	165	168	171	173	176	179	181	181	182	182	184
7	7	5	3	3	3	3	3	3	3	3	3	3	3	3	4	5	6	7	7	7	6	6	6	6	6	6	6	6	6	6	6	6	6	6	6	6	6	6	6	6	6	6	6	6	6	6	7	7	7	7	7	7	7	7	7	7	7	7	7	7	7	7	7	7	7	7	7	7	7	7	7	7	7	7	7	7	7	7	7	7	7	7	7	7	7	7	7	7	7	7	7	7	7	7	7	7	7	7	7	8	8	7	7	8	7	7	8	8	9	9	10	10	11	11	12	12	12	11	11	12	13	14	16	18	20	23	25	26	27	27	27	27	27	28	28	29	30	32	33	34	34	35	36	37	38	39	39	40	40	41	41	42	43	45	47	49	52	55	58	61	62	64	66	68	70	72	73	75	77	78	80	82	85	87	89	91	93	95	96	97	99	100	102	104	106	108	111	113	115	118	120	123	125	126	128	130	131	133	135	137	140	143	146	148	151	154	157	159	162	165	168	171	174	176	180	184	188	192	195	196	198	200	202	204	207	209	212	214	217	219	221	224	228	231	235	238	242	244	247	250	253	256	259	262	265	267	270	272	274	276	278	279	280	282	283	285	285	285	285	283	282	280	277	274	270	266	264	263	262	262	262	262	262	260	258	256	255	253	252	250	249	248	246	246	246	246	247	247	248	249	251	252	252	253	252	251	250	249	246	243	240	238	234	232	230	229	227	226	225	226	226	225	221	219	221	226	229	232	232	232	229	226	225	224	222	224	227	230	233	236	239	241	243	243	243	241	239	236	232	228	224	221	218	214	211	208	206	203	201	198	197	197	197	195	194	193	192	190	188	185	183	180	178	175	172	169	168	166	165	164	163	163	162	161	159	158	158	159	162	166	169	171	174	177	180	182	184	186	189	192	195	198	202	206	210	212	214	215	214	214	213	213	212	211	210	209	210	213	216	219	221	221	222	223	224	224	225	226	227	229	229	230	231	231	233	235	239	242	244	246	249	251	252	253	254	255	256	257	258	260	262	264	267	269	271	272	273	275	277	279	281	283	285	287	288	290	291	292	293	295	297	298	299	300	301	303	305	308	310	314	317	320	322	325	327	329	332	332	332	331	330	329	327	325	323	321	319	318	318	319	319	320	320	320	320	319	317	315	312	310	307	304	301	297	294	291	289	287	286	285	285	285	286	288	291	293	295	297	298	300	301	302	303	305	307	309	311	313	315	317	319	319	317	315	314	312	311	309	307	305	302	301	302	303	303	304	305	307	310	313	313	311	308	306	303	301	299	299	298	297	295	293	292	290	288	286	284	282	281	280	279	278	277	277	276	276	276	277	277	278	278	278	276	273	270	267	265	261	258	255	251	247	244	247	250	253	256	260	264	268	272	276	279	282	285	288	291	294	297	301	305	309	311	313	314	314	314	314	315	317	318	319	320	321	323	325	326	328	330	333	336	339	342	345	348	350	351	352	352	352	352	352	351	350	350	350	349	348	348	349	352	354	355	356	356	355	352	349	348	349	349	351	354	356	357	357	356	354	352	351	350	351	353	356	358	360	361	361	363	365	367	369	370	367	364	362	360	358	355	352	354	357	359	361	362	362	362	362	362	364	365	365	363	360	357	355	353	350	346	343	339	335	332	329	328	326	325	324	324	326	328	330	334	337	342	346	350	352	355	357	359	361	364	366	368	370	373	375	377	380	380	377	374	372	369	365	361	359	358	356	353	351	347	343	339	336	332	329	326	323	320	318	317	316	315	313	310	308	305	303	301	299	298	297	296	295	294	293	291	290	289	288	287	284	281	278	275	272	270	268	265	263	261	258	255	252	249	245	241	238	235	233	230	228	226	224	223	221	220	220	219	218	217	215	214	213	212	210	209	208	207	206	206	206	207	208	210	211	212	213	214	215	215	216	217	218	219	220	221	222	222	222	221	221	219	217	215	213	211	209	207	205	202	200	198	196	195	194	193	193	192	191	189	186	184	181	179	176	174	171	169	166	164	165	167	170	172	175	177	180	183	185	188	190	192	195	197	200	202	203	205	206	207	207	206	204	202	200	197	194	192	190	188	186	184	182	182	183	184	186	189	191	191	190	188	187	186	185	184	183	182	180	178	176	173	170	167	164	165	168	170	172	174	176	177	178	179	180
7	7	6	4	3	3	3	3	3	3	3	3	3	3	3	3	5	6	7	7	6	6	6	6	6	6	6	6	6	6	6	6	6	6	6	6	6	6	6	6	6	6	6	6	6	6	6	6	7	7	7	7	7	7	7	7	7	7	7	7	7	7	7	7	7	7	8	8	8	8	8	7	7	7	7	7	7	7	7	7	7	7	7	7	7	7	7	7	7	7	7	7	7	7	7	7	7	7	7	8	8	8	8	7	7	7	7	8	8	8	9	9	10	10	11	12	12	11	11	11	14	18	19	20	22	23	24	25	26	26	27	27	27	27	27	28	29	30	31	32	33	34	35	35	36	37	38	39	39	40	40	41	42	43	45	46	48	50	52	55	58	61	63	65	67	68	70	72	74	76	78	80	82	84	87	89	91	93	95	97	98	100	101	102	105	107	110	112	115	117	119	121	123	125	127	128	129	131	132	135	137	139	142	145	148	151	153	157	160	163	166	168	170	173	176	179	182	186	190	193	195	198	200	203	205	207	210	213	215	217	219	222	225	228	232	235	239	242	245	248	251	253	256	259	262	264	266	268	270	272	274	276	278	279	281	283	285	285	285	285	284	283	281	278	274	271	267	266	265	264	264	264	264	263	262	260	258	256	254	252	251	249	247	245	244	244	244	244	244	245	247	249	251	251	251	250	249	248	247	246	245	242	240	237	234	232	231	230	227	224	221	221	221	219	218	220	224	227	228	228	228	225	223	222	222	223	226	229	232	235	238	241	242	243	243	242	240	238	235	231	228	224	221	218	215	211	209	206	204	202	201	200	200	199	198	197	195	193	191	188	186	183	181	178	176	172	169	167	165	164	163	163	162	161	161	159	158	157	157	160	164	167	170	173	176	178	180	183	186	189	192	196	199	203	206	209	211	212	213	212	212	211	210	209	208	208	209	211	214	217	220	222	224	225	226	227	227	228	228	229	230	230	231	232	233	234	237	240	243	246	249	252	254	255	256	257	257	258	258	260	262	265	267	269	270	272	273	274	275	277	278	280	282	284	286	287	287	288	288	290	292	294	296	297	298	300	301	304	307	310	313	317	320	322	323	325	328	329	330	329	329	328	327	326	324	322	320	318	315	315	316	317	317	318	318	318	317	315	313	310	308	306	303	300	297	294	291	289	286	285	285	285	285	286	289	292	295	297	298	300	301	303	304	305	306	308	310	312	314	316	318	318	317	315	314	312	310	308	306	305	303	300	299	299	300	301	302	304	306	309	312	311	309	306	304	301	298	295	294	294	294	294	292	291	289	287	284	282	280	279	278	278	278	278	277	277	277	278	278	278	278	278	276	274	271	269	266	263	260	257	253	249	245	244	247	250	253	257	261	265	269	272	275	278	281	284	287	289	293	296	300	304	308	311	312	313	313	313	313	315	318	320	320	321	322	324	325	327	328	330	333	336	340	342	345	348	351	352	353	354	354	354	353	353	353	353	353	352	351	351	352	355	357	358	359	359	357	355	352	350	350	350	352	355	358	359	359	358	356	354	352	352	353	355	357	360	362	363	364	365	367	369	370	370	368	365	363	361	358	355	351	351	353	355	357	358	358	358	358	359	361	362	364	363	361	359	357	354	351	347	344	340	337	333	331	328	326	324	323	325	327	329	331	334	338	342	346	350	353	356	359	361	364	366	368	369	371	374	376	379	380	380	377	374	372	368	364	360	357	355	353	350	348	344	340	337	334	331	329	327	324	321	319	317	314	312	310	308	306	304	302	300	299	298	296	294	293	292	290	289	287	286	285	284	282	280	278	275	272	269	267	265	263	261	258	255	251	248	244	240	237	234	231	229	227	226	224	223	221	220	219	218	217	216	215	214	213	211	210	208	207	206	205	205	205	205	206	207	208	209	210	211	212	212	213	213	215	216	218	220	221	221	221	221	221	220	218	216	214	212	210	208	205	203	202	200	199	198	197	196	195	194	192	190	187	185	182	180	178	175	173	171	168	165	163	166	168	171	173	176	178	181	183	186	188	191	193	196	199	201	202	203	204	205	206	206	205	203	201	199	197	194	191	189	187	185	183	181	181	182	183	184	186	187	186	184	183	183	182	181	180	179	178	176	174	172	169	167	164	163	165	167	168	169	170	172	173	175	177
7	7	6	4	3	3	3	3	3	3	3	3	3	3	3	3	4	6	7	7	6	6	6	6	6	6	6	6	6	6	6	6	6	6	6	6	6	6	6	6	6	6	6	6	6	6	6	6	6	6	7	7	7	7	7	7	7	7	7	7	7	7	7	7	7	7	8	8	8	8	8	8	7	7	7	7	7	7	7	7	7	7	7	7	7	7	7	7	7	7	7	7	7	7	7	7	7	7	7	8	8	8	8	7	7	7	7	8	8	8	9	9	9	10	11	12	11	11	11	13	16	19	20	21	22	22	23	24	25	26	26	26	26	27	27	28	28	29	30	31	32	33	34	35	35	36	37	38	39	39	40	40	41	43	44	45	46	48	50	52	56	59	62	64	65	67	69	71	73	75	77	79	82	84	86	88	90	92	95	97	99	100	102	104	106	109	111	114	116	118	120	122	124	126	127	128	129	130	132	134	136	139	142	144	147	150	153	156	160	163	166	168	170	172	175	178	181	185	188	191	193	197	200	202	204	206	209	212	214	216	219	221	224	228	231	235	238	242	244	247	250	253	255	258	261	264	265	267	269	271	273	275	277	279	281	283	284	285	285	285	284	283	281	278	275	272	270	269	268	267	266	266	266	265	263	261	258	256	254	252	250	248	246	244	243	242	241	241	242	243	245	247	249	249	248	247	246	245	245	245	245	243	242	240	237	235	234	232	229	225	221	219	217	216	216	219	222	224	225	224	223	222	221	221	222	224	228	231	234	237	240	242	243	244	243	241	239	236	233	230	227	224	221	218	215	212	209	207	205	204	204	204	203	202	200	199	196	194	192	189	187	184	182	179	176	173	170	167	165	163	162	162	161	160	160	159	158	157	157	158	162	166	169	172	174	177	180	182	186	189	192	195	199	202	205	207	209	210	210	210	209	208	208	206	206	207	210	213	216	218	221	224	226	227	229	230	230	231	231	230	231	231	232	233	234	237	239	242	245	248	251	254	256	257	258	258	259	260	261	262	264	267	269	270	271	272	272	272	273	275	276	278	280	283	285	285	285	285	286	287	290	292	294	295	296	298	300	303	306	310	313	316	319	321	323	324	326	327	327	326	325	325	325	324	322	320	318	315	313	312	313	314	315	315	315	315	314	314	312	309	306	304	301	299	296	293	291	288	286	284	284	284	285	288	291	294	296	298	300	301	302	303	305	306	308	309	311	312	315	317	317	317	316	314	313	311	308	305	303	302	301	298	297	297	298	300	301	303	305	308	311	310	308	305	303	300	295	292	291	291	292	292	291	290	288	285	283	281	279	277	276	276	276	276	277	277	277	277	277	277	277	276	275	273	271	268	265	262	259	256	252	247	243	243	247	250	253	257	261	265	268	272	275	278	280	283	286	289	292	296	299	303	307	309	310	310	310	311	312	314	318	320	320	321	323	325	326	327	329	331	333	337	340	343	346	348	351	352	354	355	355	355	355	355	355	355	355	355	354	354	355	357	360	361	361	361	360	357	354	352	351	352	354	356	359	360	360	360	358	356	355	355	356	357	359	361	364	365	367	368	369	368	368	367	367	365	363	361	358	354	351	349	349	351	353	354	354	353	354	355	358	360	361	362	361	359	357	354	351	347	344	341	337	334	331	328	325	323	322	325	327	330	333	336	339	342	346	349	353	356	360	363	366	368	370	371	373	375	377	379	380	380	377	375	371	368	364	360	357	354	351	349	346	343	340	337	335	333	331	330	327	324	321	318	315	313	310	308	307	307	305	303	301	299	297	296	295	293	291	289	287	284	283	281	280	279	277	274	271	269	267	264	262	260	258	255	251	247	243	239	236	234	232	229	227	225	224	222	221	220	219	218	217	216	215	214	212	211	210	208	207	205	204	204	204	204	204	204	205	206	207	208	208	209	209	210	211	213	215	217	218	219	220	220	220	220	219	217	215	214	211	209	207	205	204	203	202	201	200	198	197	195	193	190	188	185	183	181	179	177	175	172	170	167	164	164	167	169	172	174	177	179	181	184	186	189	191	194	197	199	201	202	203	203	204	205	205	203	202	200	198	196	193	191	189	186	184	181	180	180	180	180	181	181	181	181	180	180	179	179	178	177	176	175	172	170	167	165	163	161	162	164	165	166	167	168	170	171	174
7	7	7	5	3	3	3	3	3	3	3	3	3	3	3	3	4	6	7	7	6	6	6	6	6	6	6	6	6	6	6	6	6	6	6	6	6	6	6	6	6	6	6	6	6	6	6	6	6	6	6	7	7	7	7	7	7	7	7	6	6	6	6	7	7	7	8	8	8	8	8	8	8	7	7	7	7	7	7	7	7	7	7	7	7	7	7	7	7	7	7	7	7	7	7	7	7	7	7	8	8	8	8	8	8	7	7	8	8	8	9	9	9	10	11	11	11	11	12	14	17	19	20	20	21	22	23	23	24	25	26	26	26	26	27	27	28	28	29	30	31	32	33	34	34	35	36	37	38	39	39	40	41	42	44	45	45	46	48	50	53	56	60	62	64	66	67	70	72	74	77	79	81	83	85	87	89	91	94	96	98	100	103	105	107	110	112	115	117	119	121	123	125	126	127	128	128	129	131	133	136	138	141	144	147	150	153	157	160	163	166	168	170	172	174	176	180	183	186	189	192	195	198	200	202	205	208	211	213	215	218	221	224	227	231	234	237	241	243	246	249	252	254	257	260	263	264	266	269	271	274	276	278	280	282	283	284	285	285	285	284	283	280	278	276	274	273	272	270	269	268	267	267	266	264	260	257	254	252	250	247	245	244	243	242	240	238	238	239	241	243	246	247	247	245	244	243	242	243	243	244	243	242	242	240	238	236	234	231	227	223	221	218	215	215	217	220	221	221	220	220	220	219	220	223	226	230	233	235	238	241	243	244	244	243	241	238	235	232	229	225	222	220	218	215	212	210	208	208	208	207	207	206	204	202	200	197	195	192	190	187	185	182	180	177	174	170	167	164	163	162	161	160	159	159	158	157	156	156	157	161	165	168	171	174	177	180	183	186	189	192	195	198	200	203	205	206	207	207	207	206	205	204	204	205	208	210	213	216	219	222	226	228	230	231	232	233	234	234	233	233	233	233	235	237	239	241	243	246	249	253	256	257	258	259	260	261	262	263	264	266	268	269	270	270	270	271	271	272	273	274	276	278	280	282	283	284	284	285	286	288	290	292	293	294	296	299	302	306	309	313	316	318	320	322	324	325	324	323	322	322	322	322	322	321	318	315	313	310	310	310	312	312	313	313	313	312	312	311	308	306	303	301	298	296	293	290	287	285	284	284	284	286	289	292	295	298	300	301	301	301	303	305	307	309	310	312	313	315	317	317	315	314	313	312	310	306	303	301	299	298	295	294	294	296	298	301	303	305	308	310	310	307	304	301	298	295	292	290	289	289	289	289	288	287	285	282	280	277	276	274	274	273	274	274	275	275	274	274	274	274	274	274	272	270	268	265	261	258	255	251	246	243	243	246	250	253	257	260	264	268	272	275	278	281	284	287	289	292	295	299	303	306	307	308	308	309	309	310	313	317	320	321	322	324	326	327	328	330	332	334	337	340	343	346	349	351	352	354	355	356	357	357	358	358	358	358	358	357	357	358	360	362	363	364	363	362	359	356	354	353	354	356	358	360	361	361	361	360	358	357	357	358	359	360	362	365	368	369	368	367	366	365	364	364	363	361	359	356	354	351	348	347	347	349	350	349	349	349	352	355	357	359	360	360	358	356	353	349	346	343	341	337	334	330	327	323	321	321	324	327	330	334	337	340	343	346	349	352	356	360	363	367	370	372	373	375	377	379	380	380	379	378	375	371	368	364	361	358	355	352	349	346	343	340	339	337	336	334	332	329	325	322	319	316	314	311	310	310	310	309	306	304	301	299	298	297	296	294	292	289	286	283	281	279	278	276	274	272	270	268	265	263	261	258	255	251	247	244	240	237	235	233	231	228	226	224	222	221	220	219	218	217	216	215	213	212	211	210	208	207	206	204	203	202	202	202	202	203	203	204	205	205	206	206	207	208	210	212	214	216	217	218	218	218	219	219	218	217	215	212	210	208	207	206	205	205	204	202	200	198	196	194	191	189	186	184	182	181	179	177	174	171	168	165	163	165	168	170	173	175	177	180	182	185	187	190	192	195	197	198	200	200	201	202	202	203	203	203	202	200	197	195	192	190	188	185	182	180	179	179	179	179	179	179	178	178	178	177	176	176	175	174	173	170	168	166	164	162	161	159	160	161	163	164	166	167	169	171
7	7	7	6	3	3	3	3	3	3	3	3	3	3	3	3	4	5	6	7	6	6	6	6	6	6	6	6	6	6	6	6	6	6	6	6	6	6	6	6	6	6	6	6	6	6	6	6	6	6	6	6	7	7	7	7	7	7	6	6	6	6	6	7	7	7	8	8	8	8	8	8	8	8	7	7	7	7	7	7	7	7	7	7	7	7	7	7	7	7	7	7	7	7	7	7	7	7	7	8	8	8	8	8	8	7	7	8	8	8	9	9	9	9	10	10	11	12	13	15	17	19	20	20	21	22	22	23	24	24	25	25	26	26	26	26	27	28	28	29	30	31	32	33	34	34	35	36	37	38	39	39	40	41	42	43	44	45	46	48	50	54	57	60	63	64	66	69	71	73	76	79	81	83	85	87	89	91	93	96	98	101	104	106	109	111	114	116	118	120	122	124	126	126	127	127	127	128	129	132	135	138	141	144	148	151	154	157	160	163	166	168	169	171	173	175	178	181	184	187	189	192	194	197	200	203	206	209	212	214	217	220	223	226	229	233	236	239	242	245	247	250	253	255	258	261	264	266	270	273	276	278	280	281	283	284	285	286	285	285	284	283	281	280	279	278	276	275	273	271	269	269	268	266	263	259	255	252	249	247	245	243	241	240	239	237	235	235	236	239	241	243	244	244	242	241	239	239	240	241	242	242	242	242	241	239	237	234	231	227	224	222	218	215	214	215	217	218	218	218	217	218	219	221	224	228	231	234	236	239	242	243	244	244	243	240	237	234	231	228	225	222	220	218	216	214	211	210	210	210	210	209	208	206	203	201	198	195	193	190	187	185	182	180	177	174	170	166	164	162	161	160	159	158	158	157	156	156	155	156	160	164	168	171	174	177	180	183	186	189	191	194	196	198	200	201	202	203	203	203	203	202	202	204	207	210	212	214	217	220	223	227	230	232	234	235	236	237	237	236	235	235	236	237	239	240	243	245	247	250	254	256	258	258	259	260	261	263	264	265	266	268	268	268	269	269	269	269	270	271	271	273	275	277	279	280	281	283	284	285	287	289	290	291	292	295	298	301	305	309	312	315	317	320	321	323	323	322	320	319	319	319	319	320	319	316	313	311	308	307	308	309	310	310	311	310	310	309	308	307	305	302	300	297	294	292	289	286	285	284	284	284	287	290	293	296	298	301	301	301	302	303	305	307	309	311	313	315	316	316	315	314	313	312	311	310	306	303	300	297	295	293	291	292	295	298	301	303	305	307	309	309	307	304	301	299	295	293	290	288	286	286	286	285	285	284	282	279	277	275	273	272	271	271	272	272	272	272	271	271	272	272	273	271	270	267	264	261	257	254	250	246	242	243	246	249	252	256	260	264	268	272	276	279	282	285	287	290	293	295	298	302	304	305	306	306	307	308	310	312	316	319	321	323	325	327	329	330	332	334	336	339	341	343	346	349	351	352	353	354	355	356	357	359	360	360	361	360	360	360	360	362	364	366	366	365	363	360	358	357	356	357	358	360	362	364	364	364	362	360	360	360	361	361	362	364	366	369	368	366	364	363	362	361	360	359	357	355	353	351	350	348	345	344	345	345	345	345	346	348	352	355	357	358	358	357	354	351	348	345	342	339	337	333	329	325	321	320	321	323	327	330	334	338	341	344	347	350	353	356	359	363	367	370	373	374	376	377	378	378	378	378	377	375	371	368	365	363	360	357	353	351	348	345	343	342	340	338	336	333	330	326	323	320	317	314	312	311	312	312	311	309	306	303	301	299	299	298	296	294	291	289	286	283	280	278	277	275	273	272	270	267	265	262	259	256	253	249	245	241	239	237	235	232	229	226	224	223	222	221	220	219	217	216	215	213	212	211	210	209	207	206	205	203	202	201	200	201	201	201	201	202	202	202	203	204	205	207	209	211	213	214	215	215	216	216	217	218	218	216	214	212	211	209	208	208	208	206	204	201	199	197	195	193	190	188	186	184	182	181	179	176	173	170	166	163	164	166	169	171	173	175	178	180	183	185	188	190	192	194	195	197	198	198	199	200	201	202	203	203	201	198	196	193	191	188	185	182	180	179	179	178	178	178	177	177	176	176	175	174	174	173	172	171	169	166	164	163	162	160	158	157	158	159	161	164	166	167	170
7	7	7	6	4	3	3	3	3	3	3	3	3	3	3	3	3	5	6	6	6	6	6	6	6	6	6	6	6	6	6	6	6	6	6	6	6	6	6	6	6	6	6	6	6	6	6	6	6	6	6	6	6	6	6	6	6	6	6	6	6	6	6	7	7	7	8	8	8	8	8	8	8	8	7	7	7	7	7	7	7	7	7	7	7	7	7	7	7	7	7	7	7	7	7	7	7	7	7	8	8	8	8	8	8	7	7	8	8	8	8	8	9	9	9	10	11	12	13	14	16	18	19	20	20	21	22	23	23	24	24	24	24	24	24	25	26	27	27	28	29	30	31	32	33	33	34	35	36	37	38	38	39	40	41	42	43	44	45	46	48	51	55	58	61	63	65	68	70	73	76	79	81	83	85	87	89	91	94	97	99	102	104	107	110	112	115	117	119	120	122	125	126	126	126	126	126	127	128	131	134	137	140	144	148	151	154	157	160	163	165	167	169	171	172	174	176	179	182	184	187	189	192	195	199	202	205	208	211	213	216	219	222	225	228	231	234	237	240	243	246	249	252	255	258	261	264	267	271	274	277	280	281	282	283	285	286	286	286	285	285	284	283	283	282	281	279	277	276	273	271	270	268	266	263	259	254	250	247	245	243	241	239	238	236	234	232	232	233	236	238	239	240	240	240	238	237	236	237	238	239	240	241	241	240	238	235	232	229	227	224	221	217	214	213	214	215	215	215	215	216	218	220	222	225	229	232	234	237	240	242	243	244	244	243	240	237	234	231	228	225	223	221	220	218	216	214	213	212	212	211	211	209	207	204	201	198	195	192	189	187	184	182	180	177	173	169	166	163	161	160	159	158	157	157	156	155	155	155	156	160	164	168	171	174	177	180	183	186	188	190	192	194	195	197	198	199	199	199	199	199	200	202	205	208	211	214	216	219	222	225	228	232	234	236	238	239	240	239	239	238	239	240	240	241	242	243	246	248	251	254	257	258	258	259	260	261	262	263	264	265	266	266	267	267	267	268	268	268	269	269	270	271	273	275	276	278	280	282	283	285	286	287	288	290	294	297	301	304	308	311	314	316	319	321	322	322	320	318	317	316	316	317	317	317	315	312	309	307	305	305	306	307	308	308	308	307	307	306	305	303	301	299	296	293	291	288	286	284	284	283	285	287	290	293	296	298	300	301	301	302	303	306	308	310	312	314	315	315	315	314	313	312	311	310	309	306	303	300	296	293	291	290	291	294	297	300	303	305	307	308	308	307	305	302	300	297	294	291	288	285	283	283	282	282	282	281	279	277	275	272	270	269	269	270	270	270	269	269	269	270	271	271	270	268	266	263	260	256	253	249	245	242	242	245	249	252	255	259	263	268	272	276	280	283	286	289	291	293	295	298	301	302	303	303	304	305	307	309	312	316	320	322	324	327	329	331	332	334	336	338	340	341	343	346	348	350	351	352	352	353	354	356	358	360	361	362	362	362	362	363	365	367	368	369	367	365	362	360	359	359	360	360	362	365	367	367	366	364	362	362	363	364	364	365	366	368	369	366	363	361	360	359	358	357	356	354	352	350	348	348	346	344	342	341	342	342	342	342	345	349	352	354	356	357	355	353	350	346	343	340	338	335	332	327	323	320	320	320	323	326	330	334	338	341	344	347	350	353	356	359	362	366	369	372	374	376	376	375	375	375	375	376	375	372	369	366	364	361	358	355	352	350	348	346	344	342	339	336	333	330	327	323	320	318	315	314	314	315	315	314	311	309	306	303	302	301	300	299	296	294	291	288	285	282	280	278	277	275	273	271	268	266	263	261	258	254	250	247	243	241	238	236	233	230	227	224	223	222	221	221	220	218	217	216	214	213	211	210	209	208	207	206	205	203	201	200	200	200	200	200	200	200	200	200	201	203	205	207	209	211	212	212	213	213	214	215	216	217	217	216	214	213	212	211	210	209	208	205	202	200	199	197	194	192	190	188	186	184	182	180	177	174	171	168	164	163	164	167	169	171	173	176	178	181	183	186	187	189	191	192	193	194	195	196	197	198	200	202	202	201	199	197	194	192	189	186	183	181	179	179	178	178	177	176	176	175	175	174	174	173	171	170	169	167	165	164	163	161	159	157	155	155	157	159	162	164	166	168
7	7	7	7	5	3	3	3	3	3	3	3	3	3	3	3	3	4	6	7	6	6	6	6	6	6	6	6	6	6	6	6	6	6	6	6	6	6	6	6	6	6	6	6	6	6	6	6	6	6	6	6	6	6	6	6	6	6	6	6	6	6	6	7	7	7	8	8	8	8	8	8	8	8	7	7	7	7	7	7	7	7	7	7	7	7	7	7	7	7	7	7	7	7	7	7	7	7	7	8	8	8	8	8	8	8	7	7	8	8	8	8	8	9	9	10	11	12	13	14	15	17	19	20	20	21	21	22	22	22	22	22	22	23	23	24	25	25	26	27	28	29	29	30	32	33	33	34	35	35	35	36	38	39	40	41	42	43	44	45	47	49	53	56	59	62	64	67	70	73	77	80	82	83	85	87	89	92	95	98	101	103	105	108	110	113	115	117	119	120	123	124	125	125	124	124	125	126	128	131	134	137	140	144	147	151	153	156	159	161	164	166	168	170	172	173	174	177	180	183	185	188	191	194	198	201	204	207	210	212	215	218	221	224	227	230	233	236	239	242	245	248	252	255	259	262	266	269	272	276	279	281	282	283	284	285	286	287	287	287	286	286	285	285	284	283	281	279	277	275	273	271	269	266	263	259	255	251	247	245	242	240	238	236	234	232	231	230	231	234	235	236	237	237	237	235	234	233	234	235	236	237	238	238	237	235	233	231	228	224	221	218	215	213	212	212	212	213	213	214	216	219	221	224	227	230	232	235	237	240	242	243	244	244	243	241	238	234	231	229	226	225	223	222	220	218	216	215	215	214	213	212	210	208	205	201	198	195	191	188	185	183	180	178	175	171	168	165	162	160	159	158	157	156	156	155	154	154	154	156	160	164	167	170	174	177	180	182	185	187	188	190	191	192	194	195	196	196	196	196	198	201	204	206	209	212	215	219	221	224	227	230	233	236	238	240	241	242	242	241	241	241	243	244	244	244	244	246	249	252	254	256	257	258	258	259	260	261	262	262	263	264	264	265	265	265	266	267	267	267	268	268	269	270	271	273	275	277	279	282	283	285	285	286	289	293	297	301	304	307	310	313	315	318	320	320	320	318	316	314	314	313	314	315	315	313	311	308	305	303	302	303	304	305	305	305	305	304	303	303	301	299	296	294	291	289	287	285	284	284	283	284	287	290	292	295	297	299	300	301	302	304	306	307	309	311	313	315	315	313	312	312	311	310	310	308	306	302	299	295	292	289	288	290	293	296	299	302	304	306	306	306	306	305	304	301	299	295	292	289	286	283	280	279	279	280	280	279	277	275	272	270	268	268	268	268	268	267	267	268	268	269	269	269	267	264	262	259	256	252	249	245	242	241	244	248	251	255	259	263	268	272	277	280	283	286	289	292	293	295	298	300	301	301	301	302	304	306	309	312	316	320	323	325	328	330	332	333	335	338	340	341	342	343	345	347	348	350	350	351	351	352	353	356	359	361	362	364	364	365	366	368	370	370	370	369	367	365	362	362	363	363	363	364	367	369	369	368	366	364	364	365	366	367	368	369	370	369	365	362	359	357	355	355	354	353	351	349	347	346	345	344	342	339	338	338	339	339	340	343	347	350	352	354	355	354	352	349	346	343	340	337	333	330	326	322	319	319	320	323	326	330	333	337	341	344	347	350	353	356	359	362	365	367	371	373	374	374	373	372	372	372	374	374	372	369	367	364	362	359	357	354	352	349	348	345	342	339	336	333	330	327	324	322	320	317	316	316	318	318	317	314	311	308	306	305	304	302	301	298	296	293	290	287	284	282	280	279	277	275	272	270	267	264	261	259	255	252	248	245	242	240	237	234	231	227	225	224	223	222	222	221	219	218	217	216	215	213	211	210	210	209	208	206	205	203	202	201	200	199	199	198	198	198	198	199	200	202	205	207	208	209	210	210	211	211	213	214	216	216	217	216	215	214	213	212	210	208	205	203	201	200	198	196	194	192	190	188	186	184	182	179	176	172	169	166	163	163	165	167	169	171	173	176	178	181	183	185	186	188	189	190	191	192	193	194	196	198	200	201	201	199	197	195	192	190	188	185	182	180	179	179	178	178	177	177	176	176	175	175	173	171	170	168	166	165	163	162	160	158	155	153	153	155	158	161	164	165	168
7	7	7	7	5	3	3	3	3	3	3	3	3	3	3	3	3	4	6	6	6	6	6	6	6	6	6	6	6	6	6	6	6	6	6	6	6	6	6	6	6	6	6	6	6	6	6	6	6	6	6	6	6	6	6	6	6	6	6	6	6	6	7	7	7	7	8	8	8	8	8	8	8	7	7	7	7	7	7	7	7	7	7	7	7	7	7	7	7	7	7	7	7	7	7	7	7	7	7	8	7	8	8	8	8	8	8	7	8	8	8	8	8	8	9	10	11	12	13	13	15	17	19	20	20	20	20	20	20	20	20	20	21	21	22	22	23	24	25	26	27	28	29	30	31	32	33	33	34	34	33	34	36	37	39	40	41	42	43	45	46	48	51	54	57	60	63	66	70	73	76	79	82	83	85	87	90	92	96	99	102	104	105	107	110	113	116	118	119	120	122	123	123	123	122	122	124	125	128	131	134	137	140	144	147	150	153	156	158	160	163	165	167	169	171	172	174	176	179	181	184	188	191	194	198	200	203	206	209	211	214	217	220	223	226	230	233	236	239	242	245	249	252	256	260	263	267	270	274	277	280	282	284	285	285	286	287	288	289	288	288	287	287	286	285	283	282	280	278	276	273	272	269	267	263	259	256	252	249	246	243	240	239	236	233	231	230	229	230	231	233	233	234	234	234	232	231	230	230	231	232	233	235	235	233	231	231	229	226	223	219	216	214	212	210	210	210	211	212	215	218	220	223	226	229	231	233	235	237	240	242	243	244	244	243	241	238	235	232	230	228	227	226	224	222	220	218	217	217	216	215	213	211	208	205	201	198	194	191	187	184	181	179	176	173	169	166	164	162	160	158	156	156	155	154	154	153	153	154	156	159	163	167	170	173	176	178	181	183	185	186	188	189	190	191	192	192	193	194	195	199	203	206	208	211	214	218	221	224	226	229	232	234	237	240	242	243	244	244	244	244	244	245	247	247	247	247	247	249	252	254	256	256	257	257	258	259	259	260	260	261	262	262	263	263	263	264	265	266	266	267	267	268	268	269	271	273	275	278	280	282	283	284	285	288	293	297	301	304	307	310	312	314	317	318	318	317	315	313	312	311	311	311	312	313	312	310	307	303	301	300	300	301	302	303	303	302	301	301	300	299	297	294	292	290	288	286	285	284	284	283	284	286	289	291	294	296	297	299	300	301	303	305	306	308	310	312	314	314	312	311	310	310	310	309	307	304	301	297	294	291	288	287	288	291	294	297	300	303	304	304	304	305	305	304	302	299	296	293	290	287	284	280	278	277	277	277	277	276	275	272	270	268	268	268	267	267	266	266	266	266	267	267	267	265	263	260	258	255	252	248	245	241	241	244	247	250	254	258	263	267	272	276	280	283	286	289	292	293	295	297	298	298	298	299	302	304	306	309	313	317	320	323	326	329	331	332	334	336	339	340	341	341	342	343	345	346	347	348	348	349	350	351	354	357	360	362	364	365	367	369	370	371	371	371	371	370	367	365	365	366	366	366	367	369	370	370	369	368	366	366	367	368	370	371	371	371	369	365	361	358	355	352	351	350	349	348	346	344	343	342	341	340	337	336	336	336	337	339	341	345	348	350	352	353	352	351	348	345	343	339	336	332	328	324	321	319	319	320	323	327	330	333	337	340	343	347	350	353	356	358	361	364	367	370	372	372	371	370	370	369	370	371	373	372	370	367	365	363	361	359	356	353	351	348	345	342	339	336	333	330	328	326	324	322	319	318	319	321	321	319	317	314	311	309	308	306	305	303	300	297	295	292	289	287	285	282	280	278	276	273	270	267	264	261	259	256	253	249	245	242	240	238	235	231	228	226	225	225	225	224	222	220	219	218	218	216	215	213	212	212	211	210	208	207	205	204	202	200	199	198	197	197	197	197	198	199	200	203	205	206	207	207	207	208	210	211	212	214	215	216	217	216	215	213	212	210	208	205	203	201	200	200	198	196	194	192	190	188	186	183	181	177	174	171	168	165	163	163	165	167	169	171	173	175	178	180	182	183	185	186	187	188	189	191	192	194	196	198	200	201	200	197	195	193	191	189	187	184	182	180	180	179	179	179	179	178	178	177	176	175	172	170	168	166	164	163	161	158	156	154	152	153	155	158	161	164	165	168
7	7	7	7	6	4	3	3	3	3	3	3	3	3	3	3	3	4	5	6	6	6	6	6	6	6	6	6	6	6	6	6	6	6	6	6	6	6	6	6	6	6	6	6	6	6	6	6	6	6	6	6	6	6	6	6	6	6	6	6	6	7	7	7	7	7	8	8	8	8	8	8	7	7	7	7	7	7	7	7	7	7	7	7	7	7	7	7	7	7	7	7	7	7	7	7	7	7	7	7	7	8	8	8	8	8	8	7	7	8	8	8	8	8	9	10	11	11	12	13	14	16	18	19	19	19	19	18	18	18	18	18	19	19	20	21	22	23	25	26	27	28	28	29	30	31	32	32	33	33	33	33	34	36	37	38	40	41	42	44	45	47	50	53	56	59	62	65	69	72	75	78	81	83	85	88	90	93	96	99	102	104	106	107	110	112	115	117	119	120	120	121	121	120	120	120	122	124	127	130	134	137	140	144	147	150	153	155	158	160	162	164	166	168	170	172	173	176	179	181	184	187	191	194	197	200	202	205	208	211	214	217	220	223	227	230	233	236	239	242	246	250	253	257	261	264	268	271	275	278	281	283	285	286	286	287	287	288	289	289	289	288	287	286	285	284	282	280	279	276	274	273	270	267	264	261	257	254	251	247	244	241	240	237	234	232	230	228	228	228	229	230	230	231	230	230	229	228	227	227	228	230	231	231	229	227	227	227	226	222	219	216	213	210	210	210	210	211	213	216	219	222	225	228	231	233	234	236	238	240	242	243	244	244	242	241	238	235	233	232	231	230	228	226	224	222	220	220	219	217	215	213	211	208	204	201	197	194	190	187	184	180	177	175	172	168	165	163	161	159	157	156	154	154	153	153	152	153	154	156	159	163	166	169	171	173	176	178	181	183	184	186	186	187	187	188	189	192	194	197	201	204	208	210	213	217	220	223	226	228	231	233	236	239	241	244	245	246	247	247	246	247	248	250	251	251	251	249	249	251	253	254	255	256	257	257	258	259	259	260	260	261	261	261	262	262	263	264	264	265	266	267	267	267	268	269	272	274	276	278	280	282	284	285	288	293	297	301	304	306	309	311	313	315	317	316	315	313	312	310	308	308	309	310	311	310	308	305	302	300	299	298	298	299	300	300	299	299	298	298	297	296	293	291	289	287	285	284	284	284	283	284	285	288	290	292	294	295	297	298	300	301	303	304	306	308	310	313	313	311	309	309	309	309	308	306	303	300	297	293	291	288	286	287	290	292	295	298	300	301	302	302	303	303	303	302	300	297	294	291	288	285	281	278	276	275	274	274	275	274	272	270	269	268	268	267	266	265	263	263	263	263	263	263	263	262	259	257	254	251	247	244	241	240	243	246	250	253	257	262	266	270	274	278	282	285	289	291	293	295	295	296	296	297	299	302	305	307	310	313	317	320	323	326	329	331	333	335	337	338	339	339	340	340	341	342	343	344	344	345	346	347	349	352	355	358	360	362	364	367	369	370	372	372	372	372	371	369	368	368	369	369	369	369	371	371	371	370	370	369	368	369	370	371	373	373	372	369	365	362	359	355	352	349	348	346	345	343	341	340	339	338	337	336	334	333	334	335	337	339	342	345	347	348	349	349	349	347	344	341	338	335	330	326	323	320	318	319	321	324	327	331	334	337	340	343	347	350	353	356	359	361	364	366	369	370	369	368	367	367	367	368	369	371	372	370	368	366	364	362	360	357	354	351	348	346	343	340	337	334	332	331	329	327	324	321	321	322	323	323	321	319	316	314	312	310	309	307	304	302	299	297	295	292	290	287	285	282	279	276	273	270	267	264	261	258	256	253	249	246	243	241	238	235	232	230	228	228	227	227	226	224	222	220	219	219	218	217	216	215	214	213	211	210	208	206	204	203	201	200	199	197	196	196	196	197	198	199	201	202	204	204	205	205	206	208	209	211	212	213	215	215	215	215	214	213	211	208	206	204	202	201	200	200	198	196	194	192	189	187	185	182	179	176	173	170	168	165	163	162	163	165	167	170	172	175	177	179	180	182	183	184	185	187	188	190	192	194	196	198	200	200	198	195	193	192	191	188	185	183	182	181	181	181	180	180	180	179	179	178	176	173	171	169	166	164	162	159	157	155	153	151	152	155	158	161	163	165	168
7	7	7	7	6	4	3	3	3	3	3	3	3	3	3	3	3	3	5	6	6	6	6	6	6	6	6	6	6	6	6	6	6	6	6	6	6	6	6	6	6	6	6	6	6	6	6	6	6	6	6	6	6	6	6	6	6	6	6	6	6	6	7	7	7	7	8	8	8	8	8	7	7	7	7	7	7	7	7	7	7	7	7	7	7	7	7	7	7	7	7	7	7	7	7	7	7	7	7	7	8	8	8	8	8	8	8	7	7	7	8	8	8	8	9	10	10	10	11	12	14	15	16	17	17	17	17	16	16	16	16	17	17	18	18	19	20	22	24	26	27	27	27	28	29	31	31	32	32	33	33	34	34	35	36	37	39	40	42	43	45	47	49	52	55	58	61	64	68	71	74	77	80	83	86	88	91	94	97	99	102	104	106	108	109	112	114	116	117	118	118	118	119	118	118	118	121	124	127	130	134	137	140	143	147	150	153	155	157	159	162	164	166	168	170	171	173	176	178	181	184	187	190	194	197	200	202	205	208	211	214	217	221	224	227	231	234	237	240	243	247	250	254	258	261	265	268	272	275	278	281	284	285	286	287	288	288	288	289	288	288	287	286	285	284	283	281	280	278	276	273	271	270	268	265	262	258	255	251	247	244	242	241	238	235	233	230	228	226	225	225	226	226	227	228	227	226	225	224	224	224	225	227	226	224	223	222	223	223	221	218	215	212	210	209	210	210	212	215	218	220	223	226	229	232	234	235	237	239	241	242	243	244	244	242	240	238	236	234	233	232	232	230	228	226	223	222	221	220	218	215	213	210	207	204	200	197	193	190	187	183	180	177	174	171	168	165	163	161	159	156	155	153	152	152	151	151	152	153	156	159	162	165	167	169	171	173	176	178	180	182	183	184	184	184	185	189	193	197	200	204	207	210	212	216	219	223	225	228	230	233	235	237	240	243	245	247	249	249	249	249	250	251	253	254	255	254	252	251	252	253	254	255	257	258	259	259	260	260	261	261	261	262	262	263	263	263	263	264	265	265	266	266	267	268	269	270	272	275	277	279	281	283	284	287	293	297	301	303	306	309	311	312	314	315	314	313	312	311	309	306	306	307	308	308	308	306	304	302	299	297	296	296	296	297	297	296	296	295	295	295	294	293	290	288	286	285	284	284	284	283	283	284	286	289	290	292	293	294	296	298	299	301	302	303	306	308	311	312	309	308	307	307	307	306	305	303	300	297	294	291	288	285	285	288	291	293	296	297	298	299	299	300	301	301	301	299	297	294	292	289	286	282	279	276	274	272	271	272	273	272	271	270	269	268	268	266	264	261	260	260	260	260	260	261	260	259	256	253	249	246	243	240	239	242	246	249	253	257	260	264	268	272	276	280	284	288	291	293	293	293	293	293	295	298	302	305	307	310	313	316	319	323	326	329	331	333	335	336	336	336	336	337	338	339	340	340	341	341	342	343	345	347	349	352	355	358	360	362	365	368	370	371	372	373	373	372	371	371	371	371	371	371	371	372	373	373	372	371	371	370	371	372	373	374	374	371	369	365	362	359	356	352	349	347	346	345	343	341	340	338	337	336	334	332	331	332	333	334	337	339	341	342	344	345	346	346	344	342	340	337	333	329	325	321	318	318	319	321	325	328	331	334	337	340	343	347	350	353	356	359	362	364	367	369	368	366	364	364	364	364	365	367	368	370	369	367	365	364	362	359	356	353	351	349	346	343	341	338	336	335	333	331	329	326	324	324	325	325	324	323	320	318	316	315	313	311	309	306	304	302	299	297	295	292	289	286	283	279	276	272	269	266	263	260	257	255	252	249	246	243	241	238	236	234	232	231	230	230	229	227	225	223	222	221	221	220	220	219	218	216	215	213	211	209	207	205	203	202	201	199	198	197	195	195	195	196	198	199	200	201	202	202	203	205	206	208	209	210	211	212	213	214	214	214	213	211	209	207	205	203	202	201	201	200	198	196	193	191	188	186	183	181	178	175	172	170	167	165	162	161	162	164	167	169	172	174	176	177	179	180	181	183	185	186	189	191	193	195	197	198	199	198	196	194	193	192	189	187	185	184	183	183	182	182	182	181	181	180	179	177	174	172	169	166	163	160	158	156	154	152	151	152	155	158	161	163	166	169
7	7	7	7	7	5	3	3	3	3	3	3	3	3	3	3	3	3	4	6	7	6	6	6	6	6	6	6	6	6	6	6	6	6	6	6	6	6	6	6	6	6	6	6	7	7	7	6	6	6	6	6	6	6	6	6	6	5	5	6	6	6	6	7	7	7	8	8	8	8	7	7	7	7	7	7	7	7	7	7	7	7	7	7	7	7	7	7	7	7	7	7	7	7	7	7	7	7	8	8	8	8	8	8	8	8	8	7	7	7	7	8	8	8	9	10	10	10	10	11	12	13	14	14	15	15	14	14	14	15	16	16	17	17	18	18	18	20	22	24	26	27	27	27	29	30	30	30	32	33	34	34	35	35	36	37	38	40	41	43	45	47	49	52	55	57	60	64	67	70	73	76	80	83	86	88	91	94	96	99	101	103	105	107	109	110	112	113	114	115	115	116	116	116	115	117	120	124	127	130	134	137	139	143	147	150	153	155	157	159	162	164	166	167	169	171	173	176	178	181	184	187	190	194	197	200	203	205	208	212	215	218	221	224	228	231	235	238	241	244	247	251	255	258	262	265	268	272	275	278	281	284	286	287	288	289	289	288	287	287	286	285	284	283	281	280	280	278	275	272	269	267	267	266	265	261	258	254	251	248	245	244	242	239	236	233	231	229	226	224	222	222	222	224	225	225	224	223	222	221	220	221	222	221	219	218	217	219	220	220	217	214	211	209	209	209	211	214	217	220	222	225	228	231	233	235	236	238	240	241	243	244	244	243	242	240	238	237	235	234	233	232	231	229	227	224	222	221	219	217	214	211	209	206	202	199	196	193	190	186	183	180	177	174	171	168	165	163	161	158	156	154	152	151	150	150	150	151	152	154	157	160	162	164	166	168	171	173	175	177	178	180	181	180	181	185	191	195	198	202	206	209	212	214	217	221	224	227	230	232	234	237	239	241	244	247	249	251	252	252	252	252	254	255	256	257	256	254	253	254	254	255	256	258	260	261	262	262	262	263	263	263	264	264	265	265	265	265	265	265	265	266	266	267	267	268	269	271	273	276	278	280	281	283	287	292	297	301	303	305	308	310	312	313	313	312	312	311	310	307	305	304	304	305	305	306	305	303	301	298	296	294	293	294	294	294	294	293	293	292	293	292	291	289	287	285	284	284	284	284	283	283	284	285	287	288	290	291	293	294	296	297	299	301	302	304	307	309	310	308	307	305	304	304	304	304	302	300	297	294	291	288	285	284	286	289	291	293	295	295	296	296	296	297	298	299	298	296	294	292	289	286	283	280	277	274	271	269	269	270	271	271	271	270	269	268	266	264	261	258	257	256	256	257	258	258	257	255	251	247	244	241	239	238	241	245	248	252	255	259	262	266	270	275	280	283	286	289	291	292	292	291	292	294	298	301	305	308	311	314	317	320	322	325	328	331	333	334	334	333	333	333	334	335	336	337	337	337	338	340	342	344	345	347	350	353	356	358	361	364	366	368	370	371	371	372	373	372	372	372	372	372	372	373	373	374	374	374	374	373	373	374	374	375	376	373	370	367	364	361	358	355	352	350	348	347	347	345	343	341	339	337	335	333	331	330	329	330	331	333	335	337	338	340	341	342	342	342	340	338	335	331	327	323	319	318	318	320	322	326	329	332	335	338	341	344	347	350	353	356	359	362	365	367	367	365	363	361	360	361	362	363	364	366	367	367	365	364	363	361	358	355	352	350	348	347	344	342	340	339	337	335	333	331	329	328	327	327	327	326	324	322	320	319	317	315	313	311	309	306	304	301	299	297	294	290	286	283	279	276	272	269	265	262	259	257	255	252	249	246	244	242	240	238	236	235	234	233	232	230	229	227	225	224	224	224	223	222	221	220	218	216	214	212	209	207	206	205	203	201	200	198	197	195	194	194	195	196	197	198	198	199	200	201	203	205	206	208	209	210	210	211	212	213	214	213	212	210	207	206	204	203	202	201	201	200	197	194	192	189	187	185	182	180	177	174	172	169	167	165	163	161	161	163	166	169	171	173	174	176	177	179	181	183	185	187	189	191	193	195	197	198	198	197	195	195	193	191	189	187	186	185	184	184	184	183	183	182	181	180	178	175	172	168	165	162	159	157	155	153	151	151	153	156	159	162	164	166	170
7	7	7	7	7	5	3	3	3	3	3	3	3	3	3	3	3	3	4	5	6	6	6	6	6	6	6	6	6	6	6	6	6	6	6	6	6	6	6	6	6	6	7	7	7	7	7	7	6	6	6	6	6	6	6	5	5	5	5	5	6	6	6	7	7	7	8	8	8	8	7	7	7	7	7	7	7	7	7	7	7	7	7	7	7	7	7	7	7	7	7	7	7	7	7	7	7	7	8	8	8	8	8	8	8	8	8	8	7	7	7	7	8	8	9	10	11	11	11	11	12	12	12	12	13	13	13	13	14	15	16	17	19	19	20	20	20	19	20	22	24	26	27	27	27	28	29	30	31	33	34	35	35	36	37	38	39	40	41	43	45	47	49	52	55	57	60	63	66	69	72	76	79	82	85	88	91	93	96	98	100	102	104	106	107	108	109	111	112	112	112	113	113	113	113	117	120	124	127	130	133	136	139	142	146	150	152	155	157	159	161	163	165	167	168	170	173	175	178	181	183	187	190	193	197	200	203	206	209	212	215	218	221	225	228	232	235	239	242	245	249	252	255	259	262	265	268	271	274	277	280	283	286	287	287	288	288	287	285	285	284	282	280	279	277	277	276	275	272	268	266	264	264	264	263	261	257	253	251	248	246	245	243	240	237	234	232	230	228	225	222	220	219	220	221	222	221	221	220	218	217	217	217	215	214	213	213	214	216	217	215	213	210	209	209	210	212	216	219	222	224	227	230	233	234	236	238	239	241	242	244	245	245	244	242	241	239	238	236	234	233	232	232	230	227	224	222	220	217	215	213	210	207	204	201	198	195	192	189	186	183	180	177	174	171	168	165	163	161	158	156	153	151	150	149	149	150	150	151	153	155	158	160	162	164	166	168	170	171	173	174	175	177	179	183	188	192	195	198	203	207	211	214	217	220	222	225	229	232	234	236	238	240	243	245	248	251	253	254	255	255	255	256	258	259	259	258	257	256	256	256	256	258	260	262	263	264	264	265	265	265	265	265	266	266	266	266	266	266	266	266	266	267	267	267	268	268	270	273	275	277	279	281	283	287	292	297	300	302	304	307	309	311	312	311	310	310	309	308	306	303	302	302	302	303	303	303	301	299	296	294	293	292	292	292	292	292	291	291	291	291	290	289	288	286	284	284	284	284	283	283	283	283	284	285	287	289	290	291	293	294	296	298	300	302	304	306	308	309	308	306	304	302	302	302	302	301	299	297	294	291	289	285	283	284	286	289	290	292	292	292	292	292	293	295	297	297	296	294	292	289	286	283	280	277	274	271	269	268	268	269	271	272	271	269	268	267	264	261	258	255	254	254	255	255	256	255	252	248	244	242	240	238	237	240	244	247	251	254	258	262	265	270	275	279	282	285	287	289	289	290	291	292	294	298	301	305	308	311	315	318	320	322	325	328	330	331	331	331	331	331	331	331	332	333	333	333	333	335	338	340	342	343	346	348	351	354	357	360	362	364	366	367	368	369	371	372	372	372	372	371	371	371	372	373	374	375	376	376	376	376	376	377	377	376	373	369	366	363	360	358	356	353	352	351	351	349	347	345	342	340	337	334	332	330	329	328	327	328	329	331	333	334	336	337	338	339	339	338	336	333	329	325	321	318	317	318	320	323	327	331	334	337	340	342	345	347	350	353	356	359	362	365	366	365	362	360	358	357	358	360	361	362	363	365	365	363	362	361	359	357	353	350	348	347	346	345	343	342	340	339	337	335	333	331	330	330	330	329	328	326	324	322	321	319	318	315	313	311	309	306	303	301	298	294	290	286	283	279	276	272	269	265	262	259	257	254	252	249	247	245	244	242	241	239	237	236	235	234	231	229	228	227	227	227	226	226	225	223	222	220	218	216	213	210	209	207	206	205	202	200	198	197	195	194	193	193	194	195	196	196	197	198	200	202	203	205	206	207	207	208	209	210	211	212	213	212	211	209	207	206	205	204	203	202	200	198	195	192	190	188	186	183	181	179	176	174	171	169	167	165	162	160	161	163	166	168	170	172	173	175	177	179	181	183	186	188	190	192	193	194	196	197	197	196	196	195	193	191	189	188	187	186	186	185	185	184	183	182	180	178	175	171	167	164	161	158	155	153	152	151	151	154	158	161	163	165	168	173
7	7	7	7	7	6	4	3	3	3	3	3	3	3	3	3	3	3	3	5	6	6	6	6	6	6	6	6	6	6	6	6	6	6	6	6	6	6	6	6	6	7	7	7	7	7	7	7	6	6	6	6	6	6	6	5	5	5	5	5	6	6	6	6	7	7	7	8	8	8	8	8	7	7	7	7	7	7	7	7	7	7	7	7	7	7	7	7	7	7	7	7	7	7	7	7	7	7	8	8	8	8	8	8	8	8	8	8	7	7	7	8	8	9	10	11	12	13	13	13	12	12	12	12	12	12	13	14	15	16	17	18	20	21	22	23	23	23	23	24	24	24	26	26	26	27	30	31	33	34	34	35	36	37	38	39	39	40	41	43	45	47	49	52	54	57	59	62	65	69	72	75	78	81	84	87	90	92	94	97	99	101	102	104	105	106	107	108	109	109	109	109	109	110	112	116	120	123	126	129	132	135	138	142	146	149	152	153	155	157	159	162	164	166	168	170	173	175	178	180	183	186	190	193	196	199	203	206	209	212	215	218	222	225	229	232	236	239	243	246	249	253	256	259	262	265	268	271	274	277	280	283	285	287	287	287	286	285	284	282	281	279	277	275	274	273	272	270	268	265	263	262	261	261	261	260	257	254	251	249	248	246	244	241	239	236	234	232	230	227	224	221	219	217	217	218	218	218	217	216	215	214	213	212	211	211	211	211	212	213	212	210	209	208	209	211	214	218	221	224	227	229	232	234	235	237	239	240	242	243	245	246	245	244	243	242	240	239	237	235	233	232	231	229	226	223	220	217	215	212	211	208	206	203	200	197	194	191	188	185	182	179	177	174	171	168	165	163	161	158	155	152	150	149	149	149	149	150	151	153	155	158	160	161	162	164	166	167	169	170	172	176	180	183	186	190	194	196	200	204	208	211	215	219	222	224	227	230	233	234	236	239	242	244	247	250	253	255	257	258	258	259	260	261	262	262	261	260	258	258	258	258	259	262	264	265	266	266	267	267	267	267	267	267	268	268	268	267	267	267	267	267	267	268	268	268	269	270	272	274	276	278	280	283	286	291	296	299	301	303	305	307	309	310	309	308	307	306	305	304	302	300	300	300	301	301	300	298	296	294	292	292	292	291	291	291	290	290	290	289	289	288	287	286	285	284	284	284	283	283	283	283	283	283	284	286	287	289	290	291	293	295	298	300	302	304	306	308	309	307	305	303	301	300	300	299	299	297	296	294	291	288	285	282	282	284	286	288	289	289	289	288	289	290	293	294	295	295	294	292	289	286	283	280	277	274	271	269	267	266	267	269	271	271	270	269	267	264	260	257	255	252	251	252	252	252	251	248	244	241	240	239	237	236	239	243	247	251	254	258	262	266	270	274	278	281	283	285	286	287	288	290	292	295	299	302	305	309	312	316	319	321	322	325	327	328	328	328	328	328	327	327	328	330	330	330	330	330	332	335	337	339	341	344	347	350	353	356	359	360	361	362	363	365	366	369	370	370	370	369	367	367	368	370	371	373	375	375	376	376	376	376	377	377	376	373	370	367	364	362	359	358	356	356	355	354	351	349	346	343	340	337	334	331	329	328	327	326	326	327	328	329	330	332	333	335	336	336	335	334	331	327	323	320	317	316	318	321	325	329	333	336	339	341	344	346	348	351	354	357	360	362	364	365	363	360	358	355	353	355	357	359	360	361	363	363	361	359	358	356	354	351	348	346	345	345	344	343	342	340	339	338	336	335	333	332	331	331	330	329	328	325	324	322	321	320	318	316	314	311	308	305	302	298	294	290	287	283	279	276	272	269	266	262	259	257	255	253	251	249	248	246	245	243	241	240	238	237	235	232	230	230	229	229	229	229	228	227	225	224	222	220	217	215	212	210	209	208	206	204	202	200	198	196	194	192	192	192	193	193	193	195	196	198	200	202	203	204	204	205	206	207	208	209	210	211	212	211	210	208	207	206	205	204	203	201	199	196	194	191	189	187	185	183	181	178	176	173	171	169	166	164	161	159	161	164	166	167	169	171	173	175	177	180	182	184	186	188	190	191	192	194	195	195	195	195	195	194	192	191	190	189	188	187	187	186	184	183	182	180	177	174	170	167	163	160	157	154	152	151	151	152	155	159	162	164	167	171	175
7	7	7	7	7	6	4	3	3	3	3	3	3	3	3	3	3	3	3	5	6	7	6	6	6	6	6	7	6	6	6	6	6	6	6	6	6	6	6	7	7	7	7	7	7	7	7	7	7	6	6	6	6	6	6	5	5	5	5	5	5	6	6	6	7	7	7	8	8	8	8	8	8	8	7	7	7	7	7	7	7	7	7	7	7	7	7	7	7	7	7	7	7	7	7	7	7	8	8	8	8	8	8	8	8	8	8	8	8	8	8	8	9	10	11	12	13	14	14	14	14	14	14	14	14	13	14	15	16	17	18	19	20	21	22	23	24	25	26	27	26	25	26	26	27	29	32	34	34	35	35	36	37	38	39	39	40	40	42	43	45	47	49	52	54	57	59	62	65	68	71	74	77	81	84	86	88	91	93	95	97	99	100	102	103	104	105	106	106	106	106	106	107	109	112	115	118	121	124	127	130	134	137	141	145	148	151	152	153	156	158	160	163	165	167	170	172	175	178	180	183	186	189	193	196	199	202	206	209	212	215	218	222	225	229	232	236	239	243	246	250	253	256	259	262	265	268	271	274	277	280	282	285	287	287	286	285	284	283	281	279	277	275	273	271	270	269	267	265	263	262	261	259	258	257	258	257	254	252	250	248	246	245	243	241	239	237	234	232	229	226	223	220	218	215	214	214	214	214	214	213	212	211	210	209	209	209	208	208	209	209	208	208	208	209	211	215	219	222	225	228	230	232	234	236	238	240	241	243	244	245	246	246	244	243	242	241	240	238	236	234	233	231	228	224	221	218	215	212	210	208	206	204	201	199	196	193	190	187	184	182	179	176	174	171	168	165	163	160	158	155	152	150	149	148	148	149	150	151	154	156	159	161	163	163	164	165	167	169	171	174	178	183	186	189	193	196	199	202	206	210	212	216	220	223	225	228	230	232	233	235	238	241	244	247	251	254	257	260	261	262	262	263	264	265	265	264	262	261	260	260	261	261	263	265	267	268	268	269	268	268	268	268	269	270	270	270	269	269	268	268	268	268	268	269	270	271	272	273	274	275	277	280	282	285	290	294	296	298	300	302	305	307	308	307	306	304	303	302	301	300	299	298	298	298	298	297	295	294	292	292	291	291	291	290	290	289	289	288	288	287	287	286	285	285	285	284	284	284	284	284	283	283	283	284	285	286	287	289	291	292	295	297	300	302	304	306	308	309	307	305	303	301	300	298	297	296	295	294	292	290	287	284	282	280	281	283	285	286	286	285	285	285	287	290	293	294	294	293	291	288	285	283	280	277	273	271	268	267	265	265	267	269	269	269	267	266	263	260	257	255	252	249	248	248	248	246	244	241	240	239	237	236	236	239	243	247	251	255	258	262	266	270	274	277	280	282	283	283	285	287	289	292	296	299	303	306	309	312	316	319	321	322	323	324	324	324	324	323	323	323	323	324	326	327	328	328	328	329	331	333	336	339	343	346	350	352	354	356	357	358	359	360	362	364	366	368	367	366	365	363	363	364	367	369	371	372	373	373	373	373	373	373	374	376	374	371	369	367	364	362	360	359	359	358	356	353	349	346	343	340	337	334	331	329	328	327	325	324	324	325	326	327	328	329	331	332	333	333	332	329	325	321	318	316	316	319	322	326	330	334	337	340	342	345	347	349	352	355	358	360	362	363	363	361	359	356	353	350	352	354	356	357	359	361	361	359	356	354	352	351	348	345	343	343	343	342	341	340	338	337	337	337	336	335	334	333	332	331	330	329	327	325	324	322	321	320	318	316	312	309	306	302	299	295	291	287	283	279	276	273	270	266	263	260	258	256	255	253	252	250	248	247	245	244	242	240	238	236	234	232	232	231	231	231	231	231	229	227	225	223	221	219	217	214	212	210	210	208	206	203	201	199	197	194	192	191	190	190	190	191	192	194	196	198	200	201	202	202	203	204	205	206	207	208	209	210	211	211	210	208	207	206	205	203	201	199	197	195	192	190	188	186	184	182	180	178	175	173	170	168	165	163	160	159	161	163	165	167	169	171	173	176	178	181	183	185	186	188	189	190	191	192	193	193	193	193	192	192	192	192	191	190	188	187	186	184	182	181	179	176	173	169	166	162	159	155	152	151	151	151	152	156	160	162	165	168	173	177
7	7	7	7	7	7	5	3	3	3	3	3	3	3	3	3	3	3	3	4	6	7	6	6	6	6	6	6	6	6	6	6	6	7	7	7	7	7	7	7	7	7	7	7	7	7	7	7	7	6	6	6	6	6	6	6	5	5	5	5	5	6	6	6	7	7	7	7	8	8	8	8	8	8	8	7	7	7	7	7	7	7	7	7	7	7	7	7	7	7	7	7	7	7	7	7	7	8	8	8	8	8	8	8	8	8	8	8	8	8	8	9	10	11	11	12	13	14	15	14	14	14	15	15	15	15	15	16	17	18	19	20	21	22	23	23	24	25	26	28	29	29	28	28	30	32	34	35	35	36	36	37	38	39	39	40	40	41	42	43	45	47	49	52	55	57	60	62	65	68	71	74	77	80	83	85	87	89	92	94	95	97	98	99	100	101	102	103	103	103	103	103	105	108	111	114	117	120	123	126	130	134	137	141	144	148	150	151	152	154	156	159	162	164	167	169	172	175	177	180	183	186	189	192	195	199	202	205	208	212	215	218	222	225	229	232	235	239	242	245	249	253	256	259	262	265	268	271	274	276	279	282	284	286	286	285	285	284	282	281	279	277	275	273	271	269	267	266	264	263	262	261	259	256	254	254	255	255	253	251	249	247	245	244	242	241	239	236	234	231	228	225	223	221	218	216	214	213	212	212	212	211	210	209	209	209	209	208	208	207	207	207	207	207	209	212	215	219	222	225	228	230	232	234	236	238	240	241	243	244	245	246	246	245	243	242	241	240	238	236	234	232	230	227	223	220	216	213	210	207	205	203	201	199	197	194	192	189	186	184	181	178	176	174	171	168	166	164	162	159	156	153	150	149	148	148	149	150	152	155	157	160	163	165	166	166	167	169	171	173	176	179	182	186	190	194	197	200	204	208	211	213	217	221	223	225	226	228	229	231	233	236	239	243	246	250	254	257	260	263	264	266	267	268	268	268	267	265	264	264	263	263	264	265	267	269	270	271	271	271	270	270	270	271	272	272	272	271	271	270	269	269	270	270	271	272	273	274	275	275	276	277	279	281	284	287	291	293	296	298	300	302	304	305	305	303	302	301	300	299	298	297	296	296	295	295	293	293	292	292	291	291	290	290	289	289	288	288	288	288	287	287	287	287	287	286	286	286	286	286	285	284	283	283	283	284	285	286	288	290	292	294	297	299	302	304	306	308	309	308	306	304	302	300	298	296	294	293	292	290	288	286	283	281	280	279	280	282	283	283	282	281	282	284	288	290	292	293	292	289	287	284	282	279	276	272	270	268	266	265	264	264	266	266	266	265	263	262	259	257	255	252	249	246	245	244	243	241	239	238	237	236	235	235	239	243	247	252	256	259	263	267	270	273	276	278	279	280	281	283	286	289	292	296	299	303	306	309	312	315	318	320	321	321	321	321	320	320	319	319	319	320	321	322	325	326	327	327	328	329	331	334	338	342	346	349	352	353	353	353	354	355	356	359	362	364	365	364	363	361	360	360	361	363	366	368	369	369	369	370	370	370	370	372	375	375	373	371	369	367	365	364	363	362	360	357	353	350	346	343	341	338	336	333	331	329	328	326	325	323	322	322	322	323	325	327	329	330	330	330	327	323	320	317	315	316	320	323	327	331	334	337	340	342	345	347	350	352	355	358	360	361	360	360	359	357	355	352	349	349	351	352	354	356	359	359	356	353	350	348	347	345	342	340	340	340	340	339	337	335	333	334	335	335	336	335	334	333	332	332	330	329	327	325	323	322	321	319	316	313	309	306	303	299	296	292	288	284	280	277	274	271	268	265	262	260	258	257	255	254	252	251	249	248	246	244	241	239	237	235	235	234	234	233	233	233	232	231	229	227	225	223	221	218	216	214	212	211	209	207	204	202	199	196	194	192	191	189	189	188	189	190	192	194	196	197	198	199	200	201	202	203	204	205	206	207	208	209	210	210	209	208	206	205	203	202	200	198	196	193	191	189	187	185	183	181	179	177	174	171	169	167	164	161	159	159	160	163	165	167	169	172	174	177	179	181	183	184	186	187	188	189	190	190	190	190	190	190	190	191	192	192	190	188	187	185	183	182	180	178	175	172	168	165	161	158	154	151	151	151	151	153	157	160	163	166	170	174	178
7	7	7	7	7	7	5	3	3	3	3	3	3	3	3	3	3	3	3	4	6	7	6	6	6	6	6	6	6	6	6	6	7	7	7	7	7	7	7	7	7	7	7	7	7	7	7	7	7	7	6	6	6	6	6	6	5	5	5	5	5	6	6	6	7	7	7	7	8	8	8	8	8	8	8	7	7	7	7	7	7	7	7	7	7	7	7	7	7	7	7	7	7	7	7	7	7	8	8	8	8	8	8	8	8	8	8	8	8	8	8	9	10	11	11	12	13	14	15	15	14	15	15	15	15	15	16	17	18	19	20	21	22	23	23	24	24	25	27	28	30	30	31	31	32	33	34	35	36	37	37	38	39	39	40	41	41	42	43	44	45	46	49	52	55	58	60	62	65	68	71	73	76	79	81	83	85	88	90	92	93	94	96	97	98	99	100	101	101	101	101	101	103	107	111	114	117	120	123	127	131	134	138	141	144	147	149	150	151	153	155	158	161	163	166	169	172	174	177	180	183	186	189	192	196	199	202	205	209	212	215	218	222	225	228	232	235	238	241	245	249	252	255	258	262	265	267	270	273	276	278	280	282	284	284	284	284	283	282	281	280	278	276	274	272	270	267	266	264	264	263	262	259	256	253	251	252	253	254	252	250	248	246	245	243	242	240	238	235	232	230	228	226	224	222	219	217	214	212	211	211	210	210	210	211	211	210	210	209	208	208	207	207	207	208	211	214	218	221	224	227	229	232	233	235	237	239	241	242	244	245	246	246	244	243	242	240	239	237	235	233	232	229	225	222	218	215	212	209	206	203	200	198	197	195	193	191	188	185	183	180	178	176	174	172	169	167	165	163	161	158	154	151	148	147	147	148	150	152	155	158	161	163	166	168	169	171	172	174	176	177	179	182	185	189	193	196	200	204	207	210	213	216	220	221	223	223	225	227	229	231	234	238	242	246	249	253	256	259	261	264	267	269	270	270	270	269	268	267	267	266	266	266	267	269	271	272	273	274	274	273	273	273	273	274	275	274	274	273	272	271	272	272	273	273	274	275	276	277	278	278	279	279	281	283	285	288	291	294	296	298	300	302	303	303	302	301	300	299	298	297	295	294	293	293	293	292	292	291	291	290	290	289	289	289	289	289	289	289	289	289	289	289	289	288	288	288	287	287	287	286	286	284	283	283	283	284	285	287	289	291	293	296	298	301	303	305	307	309	308	306	305	303	301	299	297	294	292	290	288	286	284	282	281	279	278	278	279	280	280	279	279	280	282	285	288	290	291	290	288	285	283	280	277	274	271	269	267	266	264	263	263	262	263	263	262	261	259	258	256	254	251	248	245	243	242	240	239	238	237	236	235	234	234	238	243	247	252	256	260	263	267	269	271	273	275	277	278	280	283	286	289	292	295	299	302	306	309	312	314	317	318	319	319	319	318	317	317	317	318	318	319	319	321	323	325	326	327	328	328	330	334	337	341	345	349	351	351	350	350	350	351	354	357	360	362	363	362	360	358	356	356	357	360	362	363	364	365	366	366	367	367	368	370	373	375	375	373	371	370	369	368	367	365	362	358	354	350	347	345	343	341	338	336	333	331	329	328	326	325	322	320	319	320	321	323	325	326	328	328	326	322	319	316	315	316	320	324	327	330	334	336	339	342	344	347	350	352	355	357	358	358	357	356	357	356	354	352	349	348	348	349	351	353	356	357	354	351	348	345	343	342	339	337	337	337	337	335	333	331	330	331	332	333	334	335	335	334	333	333	331	330	328	326	325	323	321	319	316	313	310	307	303	300	296	292	288	284	281	278	275	272	269	267	264	262	260	259	258	256	255	253	251	250	247	245	243	241	239	238	237	237	236	236	235	235	233	232	230	228	226	224	222	220	218	216	214	212	209	207	204	201	198	196	194	193	191	190	189	188	188	188	190	192	194	195	196	197	197	198	200	201	203	204	205	205	206	207	208	209	209	209	207	205	204	202	200	199	196	194	192	190	189	187	185	183	180	178	175	173	170	168	166	163	160	158	158	160	163	165	167	170	172	174	177	179	181	182	184	185	186	187	187	187	187	187	187	187	188	189	191	191	190	188	186	184	183	181	179	176	173	170	167	163	160	157	153	151	151	151	151	153	157	160	163	166	170	174	177
