294	294	295	296	297	296	295	294	293	291	290	288	286	284	281	279	276	273	270	267	264	262	259	256	253	251	249	247	246	244	243	241	240	239	237	236	234	232	230	228	227	225	223	221	220	220	220	219	218	217	216	216	215	214	213	213	212	211	210	208	207	206	204	203	202	201	199	197	194	190	188	189	191	192	194	195	197	199	200	201	202	202	203	203	203	203	203	203	203	205	207	208	210	212	213	215	216	217	218	219	220	221	223	225	227	229	231	233	236	238	240	242	244	246	247	249	251	252	254	256	257	259	261	263	265	267	269	271	273	275	277	279	281	283	286	289	292	296	299	301	302	304	305	306	307	308	309	310	311	312	312	313	314	315	316	316	317	317	317	317	318	318	318	319	319	319	319	319	319	319	319	318	318	318	317	316	315	314	313	312	312	312	312	312	313	313	312	311	310	309	307	306	305	305	304	305	304	304	304	304	304	303	302	301	301	300	301	301	302	303	304	305	306	307	309	310	311	312	314	317	320	323	326	328	331	334	336	338	339	339	339	339	338	338	339	340	340	341	341	341	341	342	344	347	349	352	354	357	359	361	364	368	371	374	377	380	383	385	388	391	392	393	394	395	395	396	397	399	400	401	401	402	402	402	402	403	404	405	406	407	407	408	409	410	411	412	413	414	416	417	419	421	424	427	431	434	437	440	443	446	448	451	453	455	458	461	463	465	468	470	473	475	477	480	482	484	486	487	489	491	493	494	496	498	500	503	505	508	510	513	515	516	518	520	522	524	526	527	528	529	530	530	530	530	529	529	528	528	527	527	526	526	526	526	526	526	526	525	523	521	519	517	514	511	508	506	503	500	496	493	489	485	481	478	476	473	471	469	466	463	460	457	455	452	449	446	443	440	437	434	432	429	427	424	422	420	418	416	415	413	412	411	410	409	408	407	406	405	404	403	402	401	400	400	399	399	399	399	400	400	401	402	403	405	407	408	409	411	413	414	416	417	418	419	420	420	421	421	421	421	422	423	425	427	429	431	434	437	440	442	445	447	449	451	453	456	458	459	461	463	464	466	467	468	469	470	470	471	472	474	477	479	481	483	485	486	488	490	492	494	495	496	497	498	499	500	500	500	501	501	501	501	501	501	501	501	501	501	501	501	501	501	501	500	500	500	500	499	498	496	494	492	490	488	486	484	482	480	477	474	471	468	466	463	460	458	455	453	450	447	445	442	439	436	433	430	427	424	421	419	417	414	412	409	407	404	401	399	398	397	395	394	392	391	390	389	388	387	386	385	384	383	382	381	380	378	376	374	373	373	375	376	377	378	380	381	384	387	390	391	391	390	389	388	387	386	386	386	388	390	392	394	396	398	399	400	400	401	401	400	400	400	400	399	399	398	397	395	393	392	390	388	386	385	383	381	379	377	375	373	371	369	368	366	364	363	364	365	366	367	368	370	371	373	374	376	377	378	380	382	384	386	388	390	393	395	397	399	401	402	404	405	406	407	408	410	411	412	412	413	412	413	414	415	416	417	419	420	421	422	424	425	426	428	428	429	429	429	429	427	426	425	423	423	423	423	423	424	425	425	426	426	427	428	428	429	430	431	432	433	434	436	437	438	438	438	438	439	439	440	440	441	440	440	440	440	440	441	443	446	449	452	454	457	459	461	463	464	466	468	469	471	473	473	473	473	473	473	473	473	473	473	473	473	472	472	471	470	468	466	465	463	462	460	458	455	453	450	447	446	444	443	442	440	438	436	433	431	428	425	422	420	419	419	419	420	421	422	423	424	425	425	424	424	423	423	422	422	421	420	419	419	418	417	416	415	414	412	411	410	411	412	413	415	416	418	419	420	421	422	422	421	420	419	418	417	416
292	292	293	294	295	295	295	293	292	290	288	287	285	282	280	278	275	272	270	267	264	261	257	254	251	249	247	245	244	242	241	240	239	238	236	234	233	231	229	228	226	224	222	220	220	220	219	219	217	216	216	215	214	213	212	212	211	210	209	207	206	205	203	202	201	200	197	195	192	188	188	189	191	193	194	196	198	199	200	201	202	202	203	203	203	203	202	202	203	205	207	209	210	212	214	215	216	217	219	220	220	221	223	225	228	230	232	234	236	238	240	242	244	246	248	250	251	253	255	256	258	260	262	264	266	268	270	272	274	276	278	279	281	283	286	289	292	295	298	300	301	302	304	305	306	307	308	309	309	310	311	311	312	313	314	314	315	315	315	316	316	316	317	317	317	318	317	317	317	317	316	316	315	315	314	313	313	312	311	310	310	310	310	310	310	310	309	308	306	305	304	303	302	302	302	302	302	302	302	301	301	301	300	299	299	299	299	300	300	301	302	303	304	305	307	308	309	311	313	316	319	322	324	327	329	331	333	334	335	335	335	335	334	335	336	337	337	338	338	339	339	340	343	346	349	352	354	356	358	361	364	368	371	375	378	381	383	386	388	390	392	393	393	393	394	394	395	396	397	398	399	399	399	399	400	401	401	402	403	404	405	406	407	408	408	409	411	413	414	416	418	420	422	425	429	432	436	439	441	444	446	448	451	453	455	458	461	463	465	468	470	472	475	477	479	482	484	485	487	489	491	492	494	496	498	500	503	506	508	511	512	514	515	517	519	521	523	524	525	526	527	527	527	527	526	526	525	525	524	524	524	524	524	524	524	524	524	524	522	520	518	515	513	510	508	505	502	500	496	492	488	484	481	478	475	472	470	467	465	462	460	457	454	452	449	446	443	440	438	435	432	430	428	425	423	421	419	417	416	414	412	411	409	408	407	406	405	403	402	401	400	400	399	399	399	398	398	398	398	398	399	401	402	404	406	407	409	411	412	413	414	415	415	416	416	417	417	418	418	418	419	420	421	424	427	430	433	436	439	441	444	446	448	450	452	455	456	458	459	460	462	463	464	465	466	467	468	469	471	474	476	478	480	482	484	486	488	489	491	493	494	495	495	496	497	498	498	499	500	500	500	500	500	500	500	500	500	500	501	501	501	501	501	500	500	500	500	499	497	495	493	492	490	488	486	484	482	480	477	474	472	469	466	464	461	459	456	453	450	448	445	442	439	436	433	431	428	425	422	420	417	415	412	410	407	405	402	400	398	397	395	393	392	391	390	388	387	386	385	384	383	382	381	380	379	378	376	374	373	373	375	376	377	379	380	383	386	389	391	391	391	391	391	390	389	388	387	386	387	389	392	394	397	399	400	400	400	401	400	400	400	400	400	400	399	398	397	395	394	392	391	389	387	385	384	382	380	378	376	374	372	371	369	367	365	364	365	367	368	369	370	371	373	374	375	377	378	380	382	384	386	389	391	393	395	397	399	401	403	404	405	407	408	409	410	411	412	413	413	413	413	414	416	417	418	419	421	422	423	424	426	427	428	430	430	430	430	430	429	428	426	424	424	424	424	424	424	424	425	425	426	427	428	429	430	431	432	433	434	435	437	438	439	440	440	440	440	440	441	441	441	441	441	441	441	442	442	443	445	447	449	452	454	457	459	461	462	464	466	467	469	471	473	474	475	474	474	474	474	474	474	474	474	474	474	473	472	471	469	467	466	465	463	462	460	457	455	452	449	447	445	444	443	441	439	437	435	432	429	426	423	421	420	420	420	422	424	426	428	429	429	429	428	427	426	425	424	423	423	422	421	420	419	418	417	416	415	414	413	412	412	413	414	416	417	419	420	421	422	423	422	422	421	420	419	418	417
290	290	291	292	293	294	293	292	290	289	287	285	283	281	279	277	274	272	269	266	263	260	257	254	251	248	246	244	243	241	240	239	238	236	234	233	231	230	228	227	225	223	221	220	220	219	219	217	216	215	214	214	213	212	211	211	210	209	208	206	205	203	202	201	199	198	195	193	190	187	188	190	191	193	194	196	197	198	200	201	201	202	202	202	202	202	202	202	203	205	207	208	210	212	214	216	217	218	219	220	220	221	224	226	228	230	232	234	236	238	240	243	245	247	249	250	252	254	255	257	259	260	262	264	267	268	270	273	274	276	278	280	281	283	286	289	292	295	298	300	300	301	302	304	305	306	306	307	307	308	309	309	310	311	312	312	313	313	313	314	314	314	315	315	315	316	315	315	315	314	314	314	313	312	311	311	310	309	308	307	307	307	307	307	307	306	305	304	303	301	300	299	299	299	299	299	299	299	299	299	298	298	297	297	297	297	297	298	299	299	300	301	302	303	305	306	308	310	312	315	318	320	323	325	327	329	330	331	331	331	331	331	331	332	332	333	334	335	336	337	338	340	343	346	349	352	354	356	359	361	365	368	372	375	378	381	383	386	388	390	391	392	392	392	392	392	393	393	394	395	396	396	396	397	398	398	399	400	401	402	403	403	404	405	406	407	409	411	413	415	417	419	421	424	428	431	434	436	439	441	443	446	448	450	453	455	458	460	463	465	467	470	472	475	477	479	481	483	485	487	489	490	492	494	496	499	501	504	506	508	510	512	513	515	517	519	520	522	522	523	524	524	523	523	523	523	522	522	522	521	521	522	522	522	522	523	523	522	521	519	517	514	512	509	506	504	501	499	495	492	488	485	481	478	475	472	469	467	465	462	460	458	455	453	450	448	445	442	439	436	434	431	429	426	424	422	420	418	417	415	413	411	410	408	407	405	404	402	401	400	400	400	400	399	399	399	399	398	397	397	398	399	401	403	405	407	408	410	411	412	412	413	413	412	412	413	413	414	414	415	416	418	419	422	426	430	433	436	438	441	443	445	447	449	451	453	455	455	457	458	459	461	462	463	464	465	466	468	471	473	476	478	480	482	483	485	487	489	490	491	492	492	493	494	495	496	496	497	498	498	498	498	498	498	498	498	499	499	500	500	500	500	500	500	500	500	499	498	496	495	493	491	490	488	486	484	482	480	478	475	472	470	467	465	462	460	457	454	451	448	446	443	440	437	434	431	429	426	423	420	418	415	413	410	408	405	402	400	398	397	395	393	391	390	389	388	387	385	384	383	382	381	380	379	378	377	376	374	373	373	375	376	378	379	381	384	387	390	392	392	392	393	393	392	391	390	389	388	388	390	393	396	398	399	400	400	401	401	401	400	400	400	400	400	400	399	398	396	395	393	391	390	388	386	385	383	381	379	377	375	374	372	370	369	367	366	367	368	369	371	372	373	374	376	377	378	380	382	384	387	389	391	393	395	398	400	401	403	404	406	407	408	409	410	411	412	413	414	414	414	415	417	418	419	421	422	423	424	425	426	428	429	430	431	431	431	431	431	430	428	427	425	425	424	424	424	425	425	425	426	427	428	430	431	432	433	434	435	436	437	439	440	441	441	441	441	441	441	442	442	442	442	442	442	442	443	445	446	447	448	450	452	454	457	459	460	462	464	465	467	469	471	473	474	476	476	476	476	476	476	475	475	475	475	475	475	473	472	471	469	468	466	465	463	461	459	457	454	451	449	447	445	444	442	441	438	436	434	431	428	425	423	422	422	423	425	428	430	432	432	432	432	431	429	428	427	426	425	425	423	422	421	420	419	418	417	416	415	415	414	413	414	415	417	418	420	421	422	423	423	423	423	422	421	420	419	418
288	288	289	290	291	292	292	291	289	287	286	284	282	280	278	275	273	271	268	265	263	260	257	254	251	248	246	244	242	241	239	238	236	234	233	232	230	228	227	225	223	222	221	220	219	219	218	216	215	214	213	213	212	211	210	209	209	208	206	205	204	202	201	199	198	195	193	191	188	187	188	189	191	192	193	195	196	197	199	200	201	201	202	202	202	202	201	202	204	205	207	209	211	212	214	216	217	219	219	220	221	222	224	226	228	231	233	235	237	239	241	243	245	247	249	251	253	255	256	258	259	261	263	265	267	269	271	273	275	277	279	280	282	284	286	289	292	295	297	299	300	300	301	302	303	304	305	305	306	306	307	307	308	309	310	310	311	311	311	312	312	312	313	313	314	314	314	313	312	312	312	311	311	310	309	308	307	306	306	305	305	304	304	304	304	303	302	301	300	299	298	297	297	297	297	296	296	296	296	296	295	295	294	294	294	294	295	296	296	297	298	299	300	301	303	304	306	308	311	314	316	319	321	323	325	327	328	328	329	329	328	328	328	329	330	330	331	332	333	336	338	340	343	346	349	351	354	357	359	362	365	369	372	375	378	381	383	385	388	390	391	391	391	390	390	390	390	390	391	392	392	393	394	394	395	396	397	398	399	399	400	401	402	402	403	405	407	409	411	413	415	417	420	423	426	429	431	434	436	439	441	443	445	447	450	453	455	458	460	462	465	467	470	472	475	477	479	481	483	485	487	489	491	493	495	497	500	502	504	506	508	509	511	513	515	517	518	519	520	521	521	521	520	520	520	520	519	519	519	519	519	519	520	520	520	521	521	520	520	518	516	513	510	508	505	503	500	498	495	492	489	485	482	479	475	472	470	468	466	464	461	459	457	455	452	449	446	443	440	437	435	432	430	427	425	423	421	419	417	416	414	412	410	409	407	405	403	402	401	400	401	401	401	401	400	400	400	399	398	397	397	397	399	401	403	405	407	408	409	410	410	410	410	409	409	409	410	410	411	412	414	416	419	422	425	429	432	435	438	441	442	444	447	449	450	451	452	453	454	455	457	458	459	460	462	463	465	468	471	473	475	478	480	481	483	485	486	488	488	489	489	490	491	492	493	493	494	495	495	496	496	496	497	497	497	497	497	498	499	499	500	500	500	500	500	500	499	498	496	494	493	491	489	487	486	484	482	480	478	475	473	470	468	466	463	461	458	455	452	449	446	444	441	438	435	432	430	427	424	421	418	416	413	411	408	405	403	400	398	397	395	393	391	389	388	387	386	385	383	382	381	381	380	379	378	377	376	374	373	373	375	376	378	380	382	385	388	391	393	393	394	395	395	394	394	393	393	392	392	392	394	397	399	400	401	401	401	401	402	402	402	402	401	401	400	400	399	398	396	394	393	391	389	387	386	384	382	380	378	377	375	373	372	370	368	367	368	370	371	372	374	375	376	377	378	380	382	384	387	389	391	393	396	398	400	402	403	404	406	407	409	410	411	412	413	414	414	414	415	416	418	419	421	422	423	424	425	426	428	429	430	431	432	433	433	432	432	431	430	429	427	426	425	425	425	425	425	426	426	427	428	430	431	432	433	434	435	437	438	439	441	442	442	443	443	443	442	442	442	442	443	443	443	443	444	445	447	448	449	450	451	452	455	457	459	460	462	464	465	467	469	471	473	475	476	477	477	477	477	477	477	477	477	477	477	476	475	474	472	471	469	468	466	465	463	462	459	457	454	451	449	446	445	443	442	440	438	435	432	429	426	425	425	425	425	427	430	432	433	434	434	433	432	431	430	429	428	427	426	425	424	423	422	421	419	418	417	417	416	415	414	415	416	418	419	421	422	423	423	424	424	423	423	422	421	420	419
285	286	287	288	289	291	291	290	288	286	285	283	281	279	277	274	272	269	267	264	262	259	257	254	251	248	246	244	242	240	239	237	235	233	232	230	228	227	225	224	222	221	220	220	219	218	217	216	214	213	212	212	211	210	209	208	208	207	205	204	203	201	200	198	196	194	191	189	187	186	187	188	190	191	192	194	195	196	197	199	200	200	201	201	202	201	201	202	204	205	207	209	211	212	214	216	218	219	220	220	222	223	225	227	229	231	233	235	237	239	241	243	245	248	250	252	254	255	257	258	260	261	264	266	268	270	272	274	276	278	280	281	282	284	286	289	291	294	296	298	299	300	300	301	302	302	303	303	303	304	304	305	306	307	308	309	309	309	309	310	310	310	311	311	312	312	312	311	310	310	310	309	308	307	306	305	304	304	303	303	302	302	302	301	301	300	299	298	297	296	295	294	294	294	294	294	294	293	293	293	292	292	292	291	291	292	293	293	294	296	296	297	298	300	301	303	305	307	310	312	315	317	320	322	324	325	326	326	326	326	326	326	326	327	327	328	329	331	333	335	338	340	343	346	348	351	354	357	360	362	366	369	372	375	378	381	383	385	388	389	390	389	389	388	387	387	387	388	388	389	390	391	391	392	393	394	394	395	396	397	398	398	399	400	401	402	404	406	409	411	413	416	419	421	424	426	429	431	434	436	438	440	442	445	448	450	453	455	458	460	462	465	467	470	472	475	477	479	481	483	485	487	489	491	493	496	498	500	502	504	505	507	509	511	513	514	515	516	517	518	518	518	518	518	518	517	517	517	517	517	517	517	518	518	519	519	519	519	518	517	515	512	509	507	504	502	499	497	494	491	488	485	482	479	476	474	471	469	468	466	463	461	459	457	454	451	447	444	441	438	436	433	431	428	426	424	422	420	418	417	415	413	411	410	408	406	405	403	402	402	402	402	402	402	401	401	401	400	399	398	397	396	398	400	402	403	405	406	407	408	408	408	407	407	406	406	407	407	408	409	411	415	418	421	424	428	431	435	438	440	442	444	446	447	448	448	449	450	451	452	454	455	457	458	460	462	465	468	470	473	475	478	480	481	482	484	485	486	486	486	487	488	489	490	490	491	492	493	493	493	494	494	494	495	495	496	496	497	498	499	500	500	500	500	500	500	499	498	496	495	493	491	489	488	486	484	482	481	479	476	474	471	469	466	464	462	459	456	453	450	447	445	442	439	436	434	431	428	425	422	419	417	414	411	409	406	403	401	399	397	395	393	391	389	387	386	385	384	383	381	381	380	380	379	378	377	376	374	373	373	375	377	378	380	383	386	389	392	394	395	396	396	397	396	396	397	396	396	396	396	397	398	400	401	401	402	402	403	403	403	403	403	403	402	401	401	400	399	397	395	394	392	390	388	387	385	383	382	380	378	377	376	374	372	370	368	369	371	373	374	375	377	378	379	380	382	384	387	389	391	394	396	398	400	402	404	405	406	408	409	410	412	413	414	415	415	415	415	416	418	420	422	423	424	425	426	428	429	430	431	432	433	434	435	434	433	433	432	431	429	428	427	426	426	425	425	426	426	428	429	430	431	432	433	434	436	437	438	440	441	442	443	444	444	445	445	443	442	443	443	443	443	444	445	446	448	449	450	451	452	453	454	456	457	459	460	462	464	466	468	469	471	473	475	477	478	478	479	479	478	478	478	478	478	478	478	477	476	474	472	471	470	468	466	465	463	462	460	457	454	451	449	446	445	443	441	439	436	433	430	428	426	427	427	428	429	431	433	434	435	435	434	433	432	431	431	430	429	428	427	426	425	423	422	421	420	419	418	417	416	415	416	417	419	420	422	423	424	425	425	425	424	424	423	422	421	420
283	284	285	286	287	289	290	289	287	285	284	282	280	278	275	273	270	268	266	263	261	259	256	253	251	248	246	244	242	240	238	236	234	232	230	228	227	226	224	222	221	220	220	219	218	217	216	214	213	212	211	211	210	209	208	207	206	205	204	203	202	200	198	197	194	192	190	188	186	186	187	188	189	190	191	192	193	194	195	197	198	199	200	201	201	201	201	202	204	206	207	209	211	212	214	216	218	219	220	221	222	224	226	228	230	232	234	236	238	239	241	244	246	248	250	252	254	256	257	258	260	262	264	266	269	271	273	275	277	279	280	281	282	284	286	288	291	292	294	296	297	298	299	300	300	301	301	301	301	302	302	303	304	305	306	307	307	307	307	308	308	308	309	310	310	311	310	309	308	308	308	307	306	305	304	303	302	301	301	300	300	299	299	299	298	297	297	296	295	294	293	292	292	292	292	292	291	290	290	290	289	289	289	289	289	290	291	292	293	294	295	296	297	298	300	302	304	307	309	312	314	316	318	320	322	323	324	324	324	324	324	324	324	325	325	326	328	330	332	335	338	340	343	346	348	351	354	357	359	362	365	369	372	375	378	380	383	385	387	388	387	386	386	385	385	385	385	385	386	387	388	388	389	390	390	391	392	393	394	395	395	396	397	398	399	400	402	405	407	409	412	414	417	419	422	424	426	429	431	433	435	437	440	443	446	448	451	453	455	458	460	463	465	468	470	473	475	477	479	481	483	485	487	489	491	494	496	498	500	501	503	505	507	509	510	511	512	513	514	515	516	516	516	516	516	516	516	515	515	515	515	515	516	516	517	517	517	516	516	515	513	511	508	506	504	501	499	496	493	490	487	485	482	479	477	475	472	470	469	467	464	462	460	458	455	452	448	445	441	438	436	434	432	430	427	425	423	421	419	418	416	414	413	411	409	408	407	405	404	403	403	403	403	403	402	402	402	401	400	399	398	396	397	398	400	401	403	404	405	406	406	406	406	405	405	405	405	405	406	407	410	413	417	421	424	427	431	434	437	440	442	443	445	445	445	445	446	447	448	449	451	453	455	457	460	462	465	467	470	472	475	477	480	481	482	483	484	484	484	484	485	486	487	487	488	489	490	490	491	491	492	492	493	493	494	495	496	497	498	498	499	500	500	500	500	499	499	498	496	495	493	491	490	488	486	485	483	481	479	477	475	472	470	468	465	463	460	457	454	451	449	446	443	440	438	435	432	429	426	423	420	417	414	412	409	406	403	401	399	397	395	393	391	389	387	386	385	383	382	381	381	381	380	380	379	378	377	375	373	374	375	377	379	381	384	387	390	392	394	396	397	398	398	399	399	399	399	399	399	399	399	400	401	402	403	403	404	404	405	405	405	405	404	404	403	402	401	400	399	397	395	394	392	390	389	387	385	384	382	381	380	378	376	374	371	369	371	372	374	375	377	378	380	381	383	385	387	389	391	394	396	398	400	402	404	406	407	409	410	411	412	414	415	416	416	416	416	416	418	420	422	424	425	426	428	429	430	431	432	434	435	436	436	437	436	435	434	433	432	431	430	429	427	427	426	426	427	428	429	430	432	432	433	434	436	437	438	440	441	442	444	445	446	446	447	446	445	443	443	443	444	445	445	447	448	450	451	452	453	454	455	456	457	458	460	461	463	465	466	468	470	472	474	475	477	479	479	480	480	480	480	480	480	480	479	479	478	477	476	474	473	471	470	468	467	465	463	462	460	457	454	451	449	446	444	442	440	437	434	431	429	428	428	428	429	431	432	434	435	436	436	435	434	434	433	432	432	431	430	429	428	426	425	424	422	421	420	419	418	417	416	417	418	420	421	423	424	426	426	427	426	426	425	424	423	422	421
281	281	283	284	285	287	288	288	286	284	283	281	279	277	274	272	269	267	264	262	260	257	255	252	250	247	245	243	241	238	236	234	233	231	229	227	225	224	222	221	220	220	219	218	217	216	215	213	212	211	210	210	209	208	207	206	205	205	203	202	201	199	197	195	193	191	189	187	185	185	186	187	188	189	190	191	192	193	194	195	196	197	198	199	200	200	201	202	204	206	207	209	211	212	214	216	218	220	220	221	223	225	226	228	230	232	234	236	238	239	242	244	246	248	250	252	254	256	257	259	261	263	265	267	269	271	273	276	278	280	280	280	282	283	285	287	289	290	292	293	295	296	297	298	298	298	299	299	299	300	300	301	302	303	304	305	305	305	306	306	306	307	307	308	309	309	309	308	307	306	305	305	304	303	301	300	299	299	298	298	297	297	297	296	296	295	294	293	292	291	290	289	289	289	290	289	289	288	287	287	286	286	286	286	287	288	289	290	291	292	293	294	295	297	299	302	305	307	309	312	314	316	317	319	320	321	322	322	322	322	322	322	322	323	324	326	328	330	332	335	337	340	343	345	348	351	354	356	359	362	364	368	371	374	377	380	382	384	385	385	385	384	383	383	382	382	382	382	383	384	385	386	387	388	388	389	390	391	391	392	393	394	395	396	397	398	400	403	405	408	410	413	415	417	419	421	424	426	428	430	433	435	438	441	444	447	449	451	454	456	459	461	464	467	469	471	473	475	477	479	481	483	485	487	490	492	494	496	497	499	501	503	504	506	507	508	509	510	511	512	513	514	514	514	514	514	514	513	513	513	513	513	514	514	514	515	514	514	514	513	512	510	508	505	503	501	498	495	492	490	487	484	481	479	477	475	472	470	469	467	465	463	461	458	455	452	448	444	441	438	436	434	432	430	428	426	424	422	420	419	417	415	414	413	411	410	409	407	406	405	404	404	404	404	404	403	403	402	401	400	398	397	396	396	398	399	401	402	403	404	404	405	405	404	404	403	403	404	405	406	408	412	416	420	423	427	430	433	436	439	441	442	443	443	442	442	443	444	445	447	449	451	454	456	459	461	464	467	469	472	474	476	478	480	481	482	482	482	482	482	483	484	484	485	486	487	488	488	489	489	490	491	493	494	495	495	496	497	498	499	499	500	500	500	499	499	499	498	497	495	493	491	490	488	486	485	483	482	480	478	476	473	471	469	466	464	461	458	455	452	450	447	444	441	439	436	433	430	427	424	421	418	415	412	409	407	404	401	399	397	395	393	391	389	387	386	385	383	382	382	382	382	381	381	380	379	378	376	374	375	376	377	379	381	385	388	391	393	395	397	398	399	400	401	401	401	402	401	401	401	401	402	403	404	404	405	405	406	406	407	407	406	406	405	404	403	403	401	400	399	397	395	394	392	391	390	389	387	386	385	383	381	378	375	372	371	372	374	375	377	379	380	382	384	385	387	389	391	394	396	398	401	403	405	406	408	410	411	412	413	414	416	416	417	417	417	417	418	419	422	424	426	427	429	430	431	432	434	435	436	437	438	439	439	438	437	436	435	434	433	432	431	429	428	428	428	429	430	431	432	433	434	435	436	437	438	439	441	442	444	446	447	447	448	448	448	446	445	443	443	444	446	447	449	450	452	453	454	455	456	458	459	459	460	461	463	464	465	467	469	471	472	474	476	478	479	480	481	481	481	481	481	481	481	480	480	480	479	478	476	475	473	472	470	469	467	465	463	461	459	456	453	450	448	445	443	441	438	435	432	430	429	428	429	430	432	434	435	436	437	437	437	436	435	434	434	433	433	432	431	429	428	426	425	424	423	421	420	419	418	417	418	419	420	422	424	426	427	428	428	428	427	426	425	424	423	423
278	279	281	282	284	286	287	287	285	284	282	281	278	276	273	270	268	265	263	260	258	256	254	251	249	246	244	242	240	238	235	233	231	229	227	226	224	222	221	220	219	219	218	217	215	215	214	213	212	210	209	209	208	207	206	205	205	204	203	201	200	198	196	194	192	190	188	186	185	184	184	186	187	187	188	189	190	191	192	193	194	195	196	198	199	199	200	202	203	205	207	209	210	212	214	216	219	220	221	222	224	225	227	229	230	232	234	236	238	240	242	244	246	248	250	252	255	256	258	259	261	263	265	267	270	272	274	276	278	280	280	280	281	282	284	286	287	288	290	291	293	294	295	295	296	296	297	297	297	298	299	300	301	302	302	303	303	303	304	304	304	305	306	306	307	307	307	306	305	304	303	303	302	300	299	298	297	297	296	296	295	295	294	294	293	292	291	290	290	289	288	287	287	287	287	287	287	286	285	284	283	283	283	284	285	286	286	288	289	290	291	292	294	296	300	303	305	307	309	311	313	315	316	317	318	319	320	320	320	320	320	320	320	321	322	325	327	330	332	335	337	340	342	345	348	350	353	355	358	360	363	366	369	372	376	379	381	382	382	382	382	381	381	380	380	379	380	380	381	382	383	384	385	385	386	386	387	388	389	390	391	392	393	394	395	397	399	401	404	406	408	411	413	415	417	419	421	423	426	428	431	434	436	439	442	445	447	450	452	455	457	460	463	465	467	470	472	474	476	478	479	481	483	486	488	490	491	493	495	497	499	500	502	504	505	505	506	508	509	510	511	511	511	512	512	512	512	511	511	511	511	511	512	512	512	513	512	512	511	511	511	509	507	504	502	500	497	494	491	489	486	483	481	478	476	474	472	470	468	466	464	462	461	458	455	451	447	444	440	438	436	434	433	431	430	428	426	424	421	420	418	417	415	414	413	411	410	409	408	407	406	405	405	405	405	404	404	403	402	401	399	398	396	395	396	397	399	400	401	402	403	403	404	403	403	402	402	402	404	405	408	411	416	420	423	426	429	432	435	438	439	440	440	440	440	439	440	441	443	445	447	450	453	455	458	461	463	466	468	470	473	475	477	478	480	480	480	480	480	480	481	481	482	483	484	485	486	486	487	489	490	492	493	494	495	496	496	497	498	499	500	500	500	499	499	499	499	498	497	495	494	492	490	488	486	485	483	482	481	479	477	474	472	470	467	464	461	458	456	453	450	448	445	442	440	437	434	431	428	425	421	418	415	413	410	407	404	402	400	397	395	393	391	389	387	386	385	383	383	383	383	383	382	382	381	381	379	377	376	376	377	379	380	383	386	389	392	394	396	398	399	401	401	402	403	403	403	403	403	403	403	404	404	405	406	406	407	407	408	408	408	408	407	406	406	405	404	403	402	400	399	397	395	394	393	392	391	390	389	388	386	383	380	376	373	372	374	375	377	379	380	382	384	386	388	390	392	394	396	398	401	403	405	407	409	410	412	414	414	415	416	417	418	418	417	418	419	420	421	423	426	428	430	431	432	433	435	436	437	438	439	440	441	440	440	439	438	437	436	435	434	433	431	431	430	430	431	432	433	434	435	436	436	437	438	440	441	442	444	446	447	448	449	450	450	450	448	446	445	444	444	447	449	451	452	454	455	456	458	459	460	461	461	462	463	464	465	467	468	470	472	473	475	477	479	480	481	482	482	482	482	482	481	481	481	481	481	480	479	478	477	475	474	472	470	468	466	465	463	461	458	455	452	449	446	444	442	439	436	434	432	430	430	431	432	434	436	437	438	438	438	438	437	436	436	435	435	434	433	432	431	429	428	426	425	424	423	422	420	419	418	418	420	421	423	425	427	428	429	430	429	429	428	427	426	425	424
275	277	279	281	283	284	286	286	284	283	281	280	277	274	272	269	266	264	261	259	257	255	252	250	248	246	243	241	239	237	234	232	230	228	226	224	222	221	219	219	218	217	216	215	214	213	212	211	211	209	208	207	207	206	205	205	204	203	202	200	199	197	195	194	192	190	188	186	184	183	183	184	185	186	186	187	188	188	189	191	192	193	194	196	197	198	199	200	202	204	206	208	210	212	214	216	219	220	221	223	225	226	228	229	231	233	235	237	238	240	242	244	246	248	251	253	255	257	258	260	262	264	266	268	270	272	274	277	279	280	280	280	280	282	283	284	285	286	288	289	290	291	293	293	294	294	295	295	295	296	297	298	299	300	301	301	302	302	302	302	303	303	304	305	305	306	305	304	304	303	302	301	300	298	297	296	295	295	294	294	293	293	292	291	290	290	289	288	287	286	285	285	284	285	285	285	284	283	282	281	281	280	281	281	282	284	285	286	287	288	290	291	294	297	300	303	305	307	309	311	312	314	315	316	317	317	318	318	318	318	318	318	318	319	321	324	327	330	332	334	337	339	342	344	347	349	351	354	357	359	362	365	368	371	374	377	378	379	379	379	379	379	378	377	377	377	377	378	379	380	381	382	382	383	383	384	385	385	386	387	388	390	391	392	393	395	397	399	402	404	406	409	411	413	415	417	419	421	424	426	429	432	435	438	441	443	446	449	451	454	456	459	461	464	466	468	470	472	474	476	478	479	481	483	485	487	489	491	493	495	496	498	500	501	502	503	504	505	506	507	509	509	509	510	510	510	510	509	509	509	509	509	510	510	510	511	510	510	509	509	509	508	506	504	502	499	496	494	491	488	485	482	480	478	475	473	470	468	467	465	463	462	460	457	454	451	447	443	440	438	437	436	435	433	432	430	427	425	423	421	419	418	417	415	414	413	412	411	410	409	408	407	407	406	406	406	405	404	403	401	400	398	396	395	395	396	397	398	399	400	401	402	402	402	402	401	401	401	403	405	407	411	416	420	423	425	428	431	434	436	436	437	438	438	437	437	437	439	441	444	446	449	452	454	457	460	462	464	467	469	471	473	475	476	477	478	478	478	478	478	479	479	480	481	482	483	485	486	488	489	491	493	494	495	495	496	497	497	498	499	499	499	499	499	499	499	499	498	497	495	494	492	490	489	487	485	484	483	482	480	478	476	473	470	467	465	462	459	456	454	451	448	446	443	441	439	436	432	429	425	422	419	416	413	411	408	405	403	401	399	396	394	392	389	387	386	385	384	383	383	383	383	383	383	383	382	381	379	377	377	379	380	382	385	388	391	393	395	397	399	400	401	402	403	404	404	405	405	405	405	405	405	406	406	407	408	408	409	409	410	410	409	409	408	407	406	405	404	403	402	400	399	397	396	394	393	392	391	390	389	387	384	381	376	373	374	376	377	379	381	383	385	387	389	390	392	394	396	398	401	403	405	407	409	411	413	414	416	417	418	418	419	418	418	418	419	421	422	423	425	428	430	431	433	435	436	437	438	439	440	441	442	442	442	441	441	440	439	438	437	436	435	434	433	432	432	432	433	435	435	436	437	438	439	440	441	443	444	446	447	449	450	451	452	452	451	449	448	446	445	444	447	450	452	454	456	457	459	460	461	462	462	463	464	465	466	467	468	470	471	473	474	476	477	479	481	481	482	482	482	482	482	482	482	482	481	481	481	480	480	479	477	475	474	472	470	468	466	464	462	459	456	453	449	446	444	442	440	437	436	434	433	433	434	436	437	438	439	439	440	440	439	439	438	437	437	436	435	434	433	432	431	429	428	427	425	424	423	421	420	419	419	421	423	425	426	428	429	430	430	431	430	429	428	427	426	426
273	275	277	279	281	283	284	284	283	282	281	279	276	273	271	268	265	262	260	258	256	254	251	249	247	245	242	240	238	236	233	231	229	227	225	223	221	220	218	217	216	215	215	214	213	212	211	210	209	208	207	206	206	205	204	204	203	202	201	200	198	196	195	193	191	189	188	186	184	182	182	182	183	184	185	185	186	187	188	189	190	191	193	194	195	196	198	199	201	203	205	207	209	211	213	216	218	220	222	224	225	227	229	230	232	233	235	237	239	240	242	244	246	248	251	253	255	257	259	260	262	265	267	269	271	273	275	277	279	279	280	280	280	281	281	282	283	284	286	287	288	289	291	291	292	292	292	293	293	294	295	297	298	299	299	299	299	300	300	300	301	302	302	303	303	304	303	303	302	301	300	299	298	296	295	294	293	293	292	292	291	290	290	289	288	287	286	285	284	284	283	282	282	282	282	282	282	281	280	279	279	279	279	279	280	282	283	284	285	287	289	292	294	298	300	303	304	306	308	310	311	312	313	314	315	315	316	316	316	316	316	316	317	318	320	324	327	330	332	334	336	339	341	343	345	347	349	352	355	358	361	364	366	369	372	374	375	375	376	376	376	376	375	375	374	374	375	376	377	378	379	379	380	380	381	381	382	383	384	385	386	387	388	390	391	393	395	397	400	402	404	407	409	411	413	415	418	420	422	425	428	431	434	437	440	442	445	448	450	453	455	458	460	462	465	467	469	470	473	474	476	478	479	481	483	485	487	489	491	493	494	496	497	498	499	500	501	502	504	505	507	507	507	508	508	508	508	508	507	507	507	507	507	508	508	508	508	508	507	507	507	507	505	503	501	499	496	493	490	487	484	482	479	477	474	472	469	467	466	464	462	460	458	456	453	450	447	443	441	439	439	438	437	435	433	431	429	427	425	423	421	420	418	417	416	415	414	413	412	411	410	409	408	408	407	407	406	405	404	402	400	398	396	395	394	394	395	397	398	399	400	401	401	401	401	400	400	401	403	405	407	411	415	419	422	425	428	430	432	433	433	434	434	434	434	434	436	438	440	443	445	448	451	453	456	459	461	463	465	467	469	471	472	473	474	475	475	476	476	476	477	477	479	480	481	483	485	487	489	490	492	494	495	495	496	497	497	498	498	499	499	499	499	499	499	499	499	498	497	496	494	492	490	489	487	486	485	484	482	481	479	477	474	471	468	465	462	459	457	454	451	449	447	444	442	440	437	433	430	426	422	419	416	414	411	409	406	404	402	400	397	395	393	390	387	386	385	384	384	384	384	384	384	384	384	383	382	380	378	379	380	382	384	386	389	391	393	395	398	399	401	402	403	404	405	406	406	406	406	406	407	407	407	408	409	409	410	410	411	411	411	411	410	409	409	408	407	405	404	403	402	400	398	397	396	394	393	392	391	389	387	383	379	375	374	376	378	379	381	383	385	387	389	391	393	395	396	399	401	403	405	407	409	411	413	415	417	418	419	420	420	419	419	419	420	422	423	424	426	428	430	431	433	435	437	438	439	441	441	442	443	444	444	443	443	443	442	441	440	439	438	437	436	435	435	434	434	435	436	437	438	439	440	442	443	444	445	446	448	449	451	452	453	453	453	452	451	449	448	445	445	447	450	453	455	457	459	460	461	462	463	464	465	465	466	467	468	470	471	472	474	475	477	479	480	481	482	482	483	483	483	483	483	482	482	482	482	481	481	481	480	479	477	475	473	471	469	466	464	462	459	456	453	450	447	444	442	440	438	437	436	436	436	438	439	440	440	441	441	441	441	440	440	440	439	438	437	437	436	434	433	432	430	429	428	427	426	425	423	421	420	421	423	425	427	428	429	430	431	431	432	431	430	429	428	428	427
270	273	275	278	280	282	283	283	282	281	280	277	275	272	270	267	265	262	259	257	255	253	251	248	246	244	242	240	237	235	233	230	228	226	224	222	220	219	218	216	215	214	213	212	211	210	209	209	208	207	206	205	205	204	204	203	202	201	200	199	197	196	194	193	191	189	188	186	184	182	180	180	181	182	183	184	185	185	186	187	188	190	191	192	194	195	197	198	200	202	204	206	208	211	213	215	218	220	222	224	225	227	229	231	232	234	236	237	239	241	243	245	247	249	251	253	255	257	259	261	263	265	267	269	271	274	276	277	278	279	279	279	279	280	280	280	281	282	283	285	286	287	288	289	289	290	290	291	291	293	294	295	296	297	297	297	297	298	298	298	299	300	301	302	302	302	302	301	300	299	298	297	296	294	293	292	291	291	290	290	289	288	288	287	286	285	283	282	282	281	280	280	280	280	280	280	280	280	279	278	277	277	277	278	279	280	281	283	285	287	290	293	295	298	300	302	304	306	307	309	310	311	312	313	313	314	314	314	314	314	314	315	316	318	321	324	327	330	332	334	336	338	340	342	343	345	348	351	354	357	360	362	365	367	369	371	371	372	372	373	373	373	372	372	372	372	372	373	374	375	376	377	377	378	378	379	380	380	381	382	383	385	386	388	389	391	393	396	398	400	402	405	407	409	412	415	417	419	421	424	427	430	433	436	439	442	445	447	450	452	454	457	459	461	463	465	467	469	471	473	474	476	478	479	481	483	485	487	489	490	492	493	494	495	496	497	498	500	501	503	504	505	505	506	506	506	506	506	505	505	505	505	505	506	506	506	506	506	506	506	506	505	504	502	500	498	495	493	490	487	484	481	479	476	474	471	469	467	465	463	461	459	457	455	452	449	447	444	442	441	440	440	439	437	435	433	431	428	426	424	423	421	420	419	418	417	416	415	414	413	412	411	410	409	409	408	407	406	404	402	399	397	396	395	394	394	394	395	396	398	398	399	400	400	400	400	400	402	403	405	407	410	414	419	422	424	427	429	429	430	430	430	431	431	431	433	435	437	439	442	445	447	450	453	455	458	460	462	464	465	467	469	470	470	471	472	473	473	474	474	475	476	478	479	481	483	485	487	489	491	493	495	496	496	496	497	497	498	498	499	499	499	499	499	499	498	498	498	497	496	494	492	491	489	488	487	486	484	483	482	480	478	475	472	469	466	463	460	457	455	452	450	448	445	443	441	438	434	431	427	423	420	417	414	412	410	407	405	403	401	399	396	394	391	388	386	385	385	385	385	385	385	385	385	385	385	383	381	379	380	382	383	385	387	390	392	394	396	398	400	402	403	404	406	406	407	408	408	408	408	408	409	409	409	410	411	411	412	412	413	413	412	412	411	410	409	408	407	406	404	403	401	399	398	396	395	394	392	391	389	385	380	377	375	377	378	380	382	384	386	388	389	391	393	395	397	399	401	403	405	408	410	412	414	416	418	419	420	421	420	420	420	420	421	422	424	426	427	429	430	432	434	436	438	439	440	441	442	443	444	445	445	445	445	445	445	445	444	443	442	440	439	438	437	437	436	436	437	438	439	441	442	444	445	446	447	447	448	450	451	452	454	455	455	455	454	452	451	448	446	445	448	451	454	456	459	460	461	462	464	465	465	466	467	468	469	470	471	473	474	475	477	478	480	481	482	482	483	483	484	484	483	483	483	483	483	482	482	482	481	481	480	478	476	474	471	469	466	464	462	459	456	453	450	447	444	442	440	439	438	438	438	439	440	441	442	442	442	442	442	442	442	441	441	440	440	439	438	437	436	434	433	432	431	430	429	427	426	425	423	422	423	426	428	428	429	429	430	431	432	433	433	432	431	430	429	428
268	271	273	276	279	280	281	281	281	280	278	276	274	272	269	267	264	261	259	257	254	252	250	248	246	244	241	239	237	234	232	230	227	225	223	221	220	219	217	215	214	212	211	210	210	209	208	207	206	206	205	204	204	203	203	202	201	200	199	198	196	195	194	192	191	189	187	185	183	181	180	179	180	181	182	183	184	184	185	186	187	188	190	191	193	194	196	197	199	201	203	205	207	210	212	215	217	219	221	223	225	226	228	230	232	234	236	237	239	241	244	246	247	249	251	253	255	257	259	261	264	266	268	270	272	274	276	277	277	278	278	278	278	278	278	279	279	280	281	283	284	285	286	287	287	288	288	289	290	291	293	294	294	295	295	295	295	295	296	296	297	298	299	300	300	300	300	299	298	297	296	295	294	292	291	290	289	289	288	288	287	286	286	285	284	282	281	280	279	279	278	278	277	278	278	278	278	278	277	277	276	276	276	276	277	278	280	282	285	288	291	293	296	298	300	301	303	305	306	307	309	309	310	311	312	312	312	312	312	312	312	313	316	318	321	324	326	329	331	333	334	336	338	340	342	344	346	349	352	355	358	360	362	364	365	367	367	368	368	369	369	369	370	369	369	369	370	371	372	373	373	374	375	375	376	377	377	378	379	380	381	383	384	386	387	389	391	394	396	398	401	403	406	408	411	413	416	418	420	424	427	430	433	436	439	442	445	447	449	451	454	456	458	460	462	464	466	468	469	471	473	475	476	478	479	481	483	485	486	488	489	491	491	492	493	494	496	497	499	501	502	503	503	504	504	504	504	504	503	503	503	503	503	504	504	504	504	504	504	504	504	504	503	501	499	497	495	492	490	487	485	481	478	476	474	471	469	467	465	463	461	459	457	454	452	450	447	446	444	443	441	440	440	439	437	434	432	430	428	426	424	423	422	421	420	419	418	417	416	415	414	413	412	411	410	410	408	406	404	401	399	397	396	395	394	393	393	394	395	396	396	397	398	399	400	400	400	402	403	405	406	409	413	417	421	423	425	426	427	427	427	428	428	428	429	432	434	436	439	441	444	446	449	452	454	456	459	461	462	464	465	466	466	467	467	469	470	471	471	472	473	475	477	479	481	483	485	487	489	491	493	495	496	496	497	497	498	498	498	498	499	499	499	499	498	498	498	498	497	496	494	493	491	490	489	488	486	485	484	483	481	479	477	473	470	467	463	460	457	455	453	450	448	446	444	442	439	435	431	427	423	420	417	415	412	410	408	406	404	402	400	398	395	393	390	387	386	386	385	385	385	386	386	386	387	386	385	382	380	381	383	384	386	388	390	392	394	396	398	400	402	404	405	406	408	408	409	410	410	410	410	410	410	411	412	412	413	413	414	414	414	414	413	412	411	410	409	408	407	405	404	402	400	399	397	395	394	392	391	388	382	378	377	377	379	380	382	384	386	388	390	392	394	396	397	399	401	404	406	408	410	412	414	416	418	420	420	421	421	421	420	420	422	423	425	426	428	430	431	433	434	436	438	440	441	442	443	444	445	446	446	447	447	447	447	448	448	446	446	444	443	441	440	439	439	438	438	439	440	442	444	446	448	449	449	450	450	451	452	453	454	455	457	457	457	456	454	452	450	447	446	449	452	455	458	460	460	461	463	465	466	467	468	469	470	471	472	473	474	475	477	478	479	481	482	482	483	484	484	484	484	484	484	484	483	483	483	482	482	482	481	480	479	477	474	472	469	466	464	461	459	456	453	449	446	444	441	440	439	439	439	440	441	442	443	443	443	443	444	444	443	443	442	442	441	441	440	439	438	437	436	434	433	432	431	430	429	428	426	424	423	425	428	429	429	429	429	430	431	433	434	434	433	432	432	431	430
266	269	272	274	277	278	279	279	279	277	276	274	272	271	269	266	264	261	258	256	254	252	250	247	245	243	241	239	236	234	232	229	227	225	222	220	220	219	217	215	213	211	210	209	208	207	206	205	205	204	204	203	202	202	201	201	200	199	198	196	195	194	193	191	190	188	187	185	183	182	180	179	179	180	181	182	182	183	184	185	186	187	188	190	191	193	195	196	198	200	202	204	207	209	211	214	216	218	220	222	224	226	227	229	231	233	235	237	239	242	244	246	248	250	252	254	256	258	260	262	264	266	268	271	273	275	276	276	276	276	276	276	276	277	277	277	278	278	279	281	282	283	284	285	285	286	286	287	288	290	291	292	293	293	294	293	293	293	293	294	295	295	296	297	298	298	298	297	296	295	294	293	292	290	289	288	287	287	286	286	285	284	284	283	281	280	279	277	277	276	276	275	275	275	276	276	276	275	276	275	275	274	274	274	275	277	280	283	286	289	291	294	296	298	299	301	302	304	305	306	307	308	309	309	310	310	310	310	310	310	311	313	316	319	321	323	326	328	330	331	333	335	336	338	340	342	344	347	349	352	354	357	359	360	362	363	363	364	365	365	366	366	367	367	367	367	367	368	369	370	371	371	372	372	373	374	375	376	377	378	379	381	382	384	386	388	390	392	394	397	399	402	404	407	410	412	415	417	420	424	427	431	434	437	440	442	445	447	449	451	453	455	457	459	461	462	464	466	468	470	472	473	475	476	478	479	481	482	484	486	487	488	489	489	490	492	493	495	497	498	500	501	501	502	502	502	502	502	501	501	501	501	501	502	502	502	502	503	503	503	503	502	501	500	499	497	495	493	490	488	485	482	479	477	475	472	470	468	466	464	462	460	458	456	454	451	449	447	446	444	442	441	440	440	438	435	433	431	429	428	426	425	424	423	422	421	420	419	418	417	416	415	414	413	412	410	408	406	404	401	399	397	396	395	394	393	392	393	394	394	394	395	396	397	399	400	400	401	402	404	405	408	411	416	419	422	424	424	424	425	425	425	425	426	427	430	433	435	438	440	443	445	448	450	453	455	457	459	461	462	463	463	463	463	464	466	467	468	469	470	472	475	477	479	481	483	485	487	489	491	493	495	496	497	497	497	497	497	498	498	498	498	498	498	498	498	498	498	498	496	495	493	492	491	490	488	487	486	485	483	482	480	478	475	471	468	464	460	458	455	453	451	449	446	444	442	439	435	431	427	423	420	417	415	413	411	409	407	405	403	402	399	397	394	391	389	387	386	386	386	386	386	387	387	388	388	387	385	382	382	384	385	387	389	390	393	395	397	399	401	402	404	406	407	408	410	410	411	411	411	411	411	411	412	413	414	414	415	415	416	416	415	414	414	413	412	411	409	408	406	405	403	401	399	398	396	394	392	389	384	379	378	379	380	382	383	385	387	389	391	393	394	396	398	400	402	404	406	408	410	413	415	417	419	420	421	421	422	421	421	421	422	424	425	427	429	430	432	433	435	437	439	440	441	442	443	444	445	446	447	448	449	449	449	450	450	450	449	448	447	446	444	443	442	441	441	440	441	443	446	448	451	452	453	453	453	453	453	454	455	456	457	458	459	458	457	456	454	451	449	447	449	453	456	458	460	461	462	464	466	467	468	469	470	471	472	473	474	475	477	478	479	480	481	482	483	484	484	485	485	485	485	484	484	484	484	483	483	483	482	481	481	479	477	474	472	469	466	464	461	458	455	452	449	446	444	441	440	440	441	441	442	443	444	444	445	445	445	445	445	445	444	444	443	443	442	441	440	439	438	437	436	435	434	432	431	430	429	427	425	425	427	429	430	430	430	430	431	433	434	435	435	435	434	433	432	431
265	268	270	272	274	276	276	277	276	275	273	272	270	269	267	265	263	261	258	256	254	252	249	247	245	243	241	239	237	234	232	229	227	224	222	220	220	219	217	215	213	211	209	208	206	206	205	204	203	202	202	202	201	201	200	200	199	198	196	195	194	193	192	190	189	188	186	185	183	182	180	179	179	179	180	181	181	182	183	184	185	186	187	189	190	192	194	195	197	199	201	203	206	208	211	213	215	217	219	221	223	225	226	228	231	233	235	237	239	242	244	246	248	250	252	254	256	258	261	263	265	267	269	271	273	275	275	274	274	275	275	275	275	275	275	276	276	277	278	279	280	281	282	282	283	284	284	286	287	288	289	290	291	291	292	291	291	291	291	292	292	293	294	295	295	295	295	295	294	293	292	291	289	288	287	286	285	285	284	283	283	282	282	281	279	278	276	275	274	274	273	273	273	273	273	273	273	273	273	273	273	273	272	273	274	277	280	283	286	289	291	293	295	297	299	300	301	303	304	305	305	306	307	308	308	308	308	308	308	308	309	312	316	319	321	323	325	327	328	329	331	332	334	336	337	340	342	344	346	348	351	353	355	357	358	359	360	360	361	362	363	363	364	364	364	364	365	366	366	367	368	369	369	370	371	372	373	375	376	377	378	379	381	383	385	387	389	391	393	395	398	401	403	406	409	411	414	417	420	424	427	431	435	438	441	442	444	446	448	450	452	454	457	459	460	461	463	465	467	469	470	472	474	475	477	478	479	480	482	483	484	485	486	487	488	489	491	492	494	496	497	498	499	499	500	500	500	500	499	499	498	499	499	500	500	501	501	502	502	502	502	501	500	499	498	497	495	493	491	489	486	483	480	479	477	475	472	470	468	466	464	462	460	458	456	453	451	449	447	446	444	442	441	440	438	436	434	432	430	429	428	427	426	426	424	423	422	421	420	419	418	417	416	415	413	411	408	406	403	401	399	398	396	395	394	393	392	392	392	391	392	392	392	394	397	399	400	401	402	403	404	406	409	413	417	420	422	422	422	423	423	423	423	423	425	428	431	433	436	439	442	444	447	449	451	454	456	458	459	460	460	460	460	460	461	463	464	465	467	469	472	474	477	479	481	483	485	487	489	491	493	495	496	496	496	496	497	497	497	497	498	498	498	498	498	498	498	497	497	497	495	494	493	492	491	489	488	487	485	484	482	481	479	476	472	469	465	461	458	456	454	451	449	447	444	442	439	435	431	427	423	420	418	416	414	412	410	408	406	405	403	401	398	395	393	390	388	387	387	387	387	387	388	388	389	389	389	388	385	383	384	386	387	389	390	393	394	396	398	400	402	404	406	408	409	411	412	412	413	413	413	412	412	413	415	416	416	417	417	418	417	417	416	415	414	413	412	411	409	407	406	404	402	400	398	396	394	392	387	380	380	380	381	383	385	386	388	390	392	394	395	397	399	401	403	405	407	409	411	413	415	417	419	420	421	422	422	422	422	422	423	424	426	428	429	431	433	434	436	438	439	441	442	443	444	445	446	447	448	449	450	451	451	452	452	453	453	452	451	451	449	448	447	445	444	443	443	444	447	450	452	455	456	457	456	456	456	456	457	457	458	459	460	461	461	459	458	456	453	450	448	450	453	456	458	460	461	463	465	466	468	470	471	472	472	474	475	476	477	478	480	481	481	482	483	484	484	485	485	485	485	485	485	485	485	484	484	484	483	483	482	481	480	477	474	471	469	466	463	460	458	455	451	449	446	443	442	442	443	443	444	444	445	446	446	446	446	446	446	446	446	445	445	444	444	443	442	442	441	440	438	437	436	435	433	432	431	429	427	426	427	429	431	432	432	433	433	433	434	436	437	437	436	436	435	434	433
263	266	268	270	272	273	273	274	274	273	271	270	268	266	265	264	262	261	258	256	253	251	249	247	245	243	242	239	237	235	232	230	227	225	222	221	220	219	217	215	213	211	209	207	205	204	203	202	201	201	200	200	200	199	198	198	197	196	194	193	192	191	190	189	188	187	185	184	183	182	181	179	178	178	179	180	181	181	182	183	184	185	187	188	189	191	193	194	196	198	200	202	205	207	209	212	214	216	218	220	222	224	226	228	230	232	234	237	239	241	243	246	248	250	252	254	257	259	261	264	266	268	270	272	273	274	273	273	273	273	273	273	273	274	274	274	275	276	277	278	278	279	280	280	281	282	283	284	286	287	288	288	289	290	290	289	289	289	289	290	290	291	291	292	293	293	293	293	292	291	290	289	287	286	285	284	283	282	282	281	281	280	279	278	277	275	274	273	272	271	271	270	270	270	270	271	271	271	271	271	271	271	271	271	274	277	281	283	286	289	291	293	294	296	297	299	300	301	302	303	304	305	306	306	306	306	306	306	306	307	309	312	315	318	321	323	324	325	326	327	328	329	331	332	334	336	338	340	342	344	347	349	351	352	354	355	356	357	358	358	359	360	361	361	362	362	362	363	364	365	365	366	367	368	369	370	371	373	374	375	377	378	380	382	384	386	388	389	392	394	397	400	402	405	408	411	414	417	421	424	428	432	435	439	441	442	444	446	448	450	452	454	456	458	459	460	462	464	466	468	469	471	473	474	475	476	478	479	480	481	481	482	483	484	485	486	488	489	491	493	494	495	496	496	497	497	497	497	496	496	496	496	496	497	498	499	500	500	500	500	500	500	499	498	497	496	495	494	492	490	487	484	482	481	479	477	474	472	470	468	466	464	462	460	457	454	452	451	449	447	446	444	442	441	439	438	436	434	432	431	430	430	429	428	426	425	424	423	422	421	420	418	417	416	413	411	408	406	403	401	399	398	397	396	394	393	391	390	389	389	389	389	389	391	394	397	399	399	400	401	403	405	407	411	414	417	419	420	420	420	420	420	420	421	423	426	429	432	435	438	440	443	445	447	450	452	454	455	457	458	458	458	457	458	459	461	462	464	466	469	471	473	476	478	480	482	484	486	488	490	492	494	495	495	496	496	496	496	496	497	497	498	498	498	498	498	497	497	497	497	496	495	494	493	492	490	489	487	486	484	483	482	480	477	473	469	466	462	459	456	454	452	449	447	445	442	439	436	431	427	424	420	419	417	415	413	411	409	407	405	403	401	399	396	394	392	390	389	388	388	388	388	389	390	390	391	391	390	387	385	385	386	387	388	390	392	394	396	398	400	402	404	406	408	410	411	412	413	414	414	415	414	414	415	416	417	418	418	419	419	419	418	417	417	416	414	413	412	410	409	407	405	403	401	398	395	393	391	386	381	382	383	385	386	388	390	391	393	395	396	398	400	402	404	406	408	410	412	414	416	418	419	421	421	422	423	423	423	423	424	426	427	428	430	431	433	435	437	438	440	441	442	443	444	445	446	447	448	449	450	451	452	453	454	455	455	455	455	454	454	452	451	450	449	448	446	446	447	450	453	456	459	460	460	459	459	458	458	459	460	461	462	463	463	463	462	460	458	455	452	449	450	453	456	458	460	462	464	466	467	469	471	472	473	474	475	476	477	479	480	481	481	482	483	484	484	485	485	486	486	486	486	486	485	485	485	485	484	484	483	482	481	480	477	474	471	468	466	463	460	458	454	451	448	445	444	444	444	445	446	446	447	447	447	447	447	447	447	447	447	447	446	446	446	445	444	444	443	442	441	440	438	437	436	435	433	431	430	428	427	429	431	433	434	435	435	435	435	436	438	438	438	438	437	437	436	434
262	264	266	268	269	270	270	271	271	271	269	268	266	265	264	262	261	260	258	255	253	251	249	247	245	243	242	240	237	235	233	230	228	226	223	221	220	218	217	214	212	210	208	207	205	203	202	201	199	199	198	198	197	197	196	195	194	193	192	192	191	189	189	188	186	185	184	183	183	182	181	180	178	178	178	179	180	180	181	182	183	184	186	187	188	190	192	193	195	197	199	201	204	206	208	210	212	214	217	219	221	223	225	227	229	232	234	236	239	241	243	245	248	250	252	255	257	259	262	265	267	269	271	272	273	272	272	272	272	272	272	272	272	272	273	273	273	274	275	276	277	277	278	279	279	280	281	283	284	285	286	287	287	288	288	287	287	287	287	288	288	288	289	289	290	290	291	290	290	288	287	286	285	284	283	282	281	280	280	279	278	278	277	276	274	273	272	270	269	269	268	268	268	268	268	268	268	268	268	269	269	269	269	271	274	277	280	283	285	288	290	292	293	294	296	297	298	299	300	301	302	303	304	304	305	305	305	305	305	305	308	311	314	317	319	321	322	323	324	324	325	326	328	329	331	332	334	336	339	341	343	344	346	348	350	351	352	353	354	355	356	357	358	359	359	360	360	361	361	362	363	363	364	366	367	368	369	371	372	374	375	377	379	382	383	385	387	389	391	394	397	399	402	405	408	412	416	419	422	425	429	432	436	439	441	443	444	446	447	449	451	453	455	457	458	459	461	463	465	466	468	470	471	473	474	475	476	477	478	479	479	480	480	481	482	484	485	487	488	490	491	492	493	493	493	494	494	494	493	493	493	493	494	494	495	496	497	498	498	498	498	497	496	495	494	493	493	493	493	491	488	486	484	483	481	479	477	475	473	470	468	466	464	462	459	456	455	453	451	449	447	445	443	441	440	439	437	435	434	433	433	432	431	430	428	427	425	424	423	422	421	420	418	416	414	411	408	406	403	401	399	398	397	395	393	391	390	388	386	386	386	385	386	389	393	396	396	397	397	399	401	403	405	408	411	412	414	415	416	416	417	417	418	419	422	425	428	431	433	436	439	441	444	446	448	450	452	453	454	455	455	455	455	456	457	459	461	463	465	468	470	473	475	477	480	482	484	486	488	489	491	493	494	494	495	495	495	495	495	496	497	497	497	497	497	497	497	497	497	497	496	496	495	494	492	491	489	488	486	485	483	482	481	478	474	470	467	463	459	457	455	452	450	447	445	442	439	436	432	428	425	422	419	418	416	414	412	410	408	406	404	402	400	397	395	393	392	391	390	390	390	390	391	392	392	393	392	391	389	387	386	386	387	388	390	392	394	396	398	400	402	404	406	408	410	412	413	414	415	416	416	416	416	417	418	419	419	420	420	421	420	420	419	418	417	416	414	413	411	410	408	406	404	402	399	395	393	391	386	384	385	386	388	389	391	393	395	396	398	400	401	403	405	407	409	411	413	415	416	418	420	421	421	422	423	423	423	423	425	427	428	430	431	432	434	436	437	439	440	441	442	443	445	446	447	448	449	450	451	451	452	454	455	456	457	458	458	458	458	457	456	454	453	452	451	449	448	450	453	456	459	461	462	462	462	461	460	460	461	462	463	464	465	465	465	464	462	460	457	454	451	451	454	456	458	460	463	465	466	468	470	471	473	474	475	476	477	479	480	481	481	482	483	484	485	485	486	486	486	486	486	486	486	486	486	486	485	485	484	483	482	481	480	478	475	471	469	466	463	460	458	455	452	449	446	445	446	447	447	448	448	449	449	449	450	450	450	449	449	449	448	448	447	447	446	445	445	444	443	442	441	440	439	437	435	434	432	430	429	429	430	433	435	436	437	437	437	438	438	439	439	439	439	439	438	437	436
260	262	264	265	266	267	267	268	268	268	267	266	265	264	263	262	261	259	257	255	252	250	249	247	245	243	242	240	237	235	233	231	229	227	224	222	220	219	217	215	213	211	209	207	205	202	201	199	198	197	196	195	195	194	193	193	192	191	190	190	189	188	186	185	184	183	182	182	182	181	180	179	178	177	177	178	179	179	180	181	182	184	185	186	187	189	191	192	194	196	198	200	203	205	207	209	211	213	216	218	220	222	224	226	229	231	233	236	238	240	243	245	248	250	252	255	257	260	262	265	268	270	271	272	271	271	270	270	270	270	270	270	270	271	271	271	272	273	273	274	275	275	276	277	278	279	280	281	283	283	284	285	286	286	286	286	285	285	285	285	285	286	286	287	287	288	288	288	287	286	285	284	283	282	281	280	279	278	277	277	276	275	274	273	272	271	269	268	267	266	266	265	265	265	265	265	265	265	266	266	266	267	268	270	273	277	280	282	285	287	289	290	292	293	294	295	296	298	299	300	301	302	302	303	303	303	303	303	303	304	306	310	312	315	318	319	320	321	321	322	322	323	324	326	327	329	331	332	334	336	338	340	342	344	346	347	348	350	351	352	353	354	355	356	357	357	358	358	359	359	360	361	362	363	365	366	367	369	371	372	374	377	379	381	383	385	387	388	390	393	397	399	402	406	410	413	417	420	423	427	430	434	437	440	441	443	444	445	447	449	451	453	455	457	458	459	460	462	464	466	467	469	470	471	472	474	475	476	477	477	477	478	478	479	480	481	482	484	485	487	488	489	490	490	490	490	490	490	490	490	490	490	491	491	492	493	494	494	495	495	494	494	493	492	491	491	491	491	491	491	490	488	486	485	483	481	479	477	475	473	470	468	465	463	460	458	456	454	452	450	448	446	444	442	440	440	438	437	436	435	435	434	433	432	430	429	427	426	425	424	422	421	419	417	414	412	409	406	403	401	399	397	395	393	391	389	387	385	384	383	382	382	383	386	390	392	392	393	394	396	398	400	402	405	407	408	409	411	411	412	413	414	416	418	421	423	426	429	432	435	437	440	442	444	446	448	450	451	451	451	452	452	452	453	455	457	460	462	465	467	469	472	474	477	479	481	483	485	487	488	490	491	493	493	494	494	494	494	495	495	496	496	497	497	497	497	496	496	496	496	496	496	496	494	493	491	490	488	487	485	484	483	481	479	475	471	468	464	460	457	455	453	450	448	445	443	440	436	433	429	426	423	421	419	417	415	413	411	409	407	405	403	401	398	396	395	394	393	392	392	391	392	392	393	394	394	394	393	391	389	387	387	387	389	391	392	394	396	398	400	402	404	406	408	411	412	413	415	416	417	417	418	418	419	420	420	421	422	422	422	422	421	420	419	419	417	416	414	413	411	409	407	405	403	400	396	393	390	387	386	387	389	391	392	394	396	398	399	401	403	404	406	408	410	412	414	416	418	419	420	421	422	422	423	424	424	424	425	426	428	430	432	433	434	436	438	439	441	442	443	444	445	446	447	448	449	450	451	451	452	453	455	456	457	458	459	460	461	461	460	459	458	456	455	453	451	450	452	455	458	460	462	463	464	464	463	463	463	463	464	465	466	467	467	466	465	463	461	459	455	452	452	454	456	458	461	463	465	467	469	470	472	474	475	477	478	479	480	481	481	482	483	484	485	485	486	487	487	487	487	487	487	487	487	486	486	486	485	484	483	483	482	481	479	476	473	470	467	464	461	458	455	453	450	448	448	448	449	449	450	450	451	451	452	452	452	452	452	451	451	450	450	449	448	448	447	446	445	444	443	442	441	440	438	436	434	432	430	429	430	432	435	437	439	439	439	440	440	440	441	441	441	441	441	440	439	438
258	260	262	263	264	264	265	265	265	265	265	264	264	263	262	261	260	258	256	254	252	250	248	246	245	243	241	240	237	235	233	231	229	227	224	222	221	219	218	216	213	211	209	207	204	202	200	198	196	195	194	193	193	192	191	191	190	189	188	187	186	185	183	182	181	181	181	180	180	180	179	178	177	177	177	177	178	179	179	180	181	183	184	185	186	188	189	191	193	195	197	199	202	204	206	208	210	212	215	217	219	221	223	226	228	230	233	235	238	240	243	245	248	250	253	255	257	260	262	265	267	270	271	270	270	270	269	269	269	269	269	269	269	269	269	270	270	271	272	272	273	273	274	275	276	277	279	280	281	282	283	283	284	284	284	284	283	283	283	283	283	283	283	284	285	286	286	286	285	284	283	282	281	280	279	277	276	275	274	274	273	272	271	270	269	268	267	266	265	264	263	263	263	263	262	262	263	263	263	264	264	265	267	270	273	276	279	281	284	286	287	289	290	291	292	293	295	296	297	298	299	300	301	301	301	301	301	301	301	302	305	308	311	313	315	316	317	318	318	318	319	320	321	323	324	326	327	329	330	332	334	336	338	340	342	343	345	346	348	349	350	351	353	354	355	355	356	357	357	358	358	359	360	361	362	364	366	368	370	372	374	377	379	381	383	385	387	388	390	394	397	400	404	407	411	415	418	421	425	428	431	435	438	441	442	443	444	445	447	449	451	453	455	456	457	458	460	461	463	465	466	467	468	470	471	472	474	474	475	475	476	476	476	477	478	479	480	481	482	484	485	486	486	486	487	487	487	487	487	487	487	487	488	489	489	490	490	491	491	491	491	491	491	490	489	489	489	489	489	490	490	490	488	487	485	483	481	479	477	474	471	469	466	464	461	459	457	455	453	451	449	447	445	443	441	440	440	439	438	438	437	436	435	434	432	431	429	428	427	425	423	422	420	418	415	412	409	406	403	400	398	396	393	391	389	387	385	383	381	380	379	379	379	381	384	387	388	389	391	393	395	397	399	401	403	404	405	407	407	408	409	411	414	416	419	422	425	428	430	433	436	439	441	443	445	447	448	448	448	447	448	449	449	450	453	456	459	461	464	466	469	471	473	476	478	481	482	484	486	488	489	490	491	492	492	493	493	493	494	495	495	496	496	496	496	496	496	495	495	495	495	495	495	495	493	491	490	489	487	486	484	483	481	480	476	472	468	465	461	458	456	453	451	448	446	443	440	437	434	431	428	425	422	420	418	416	414	412	411	409	407	405	402	400	398	397	396	395	394	394	393	393	394	395	396	396	396	395	393	392	390	389	389	390	391	393	395	396	398	400	402	404	406	409	411	412	414	415	417	418	419	419	420	421	421	422	422	423	423	423	423	422	422	421	420	419	417	415	414	412	410	408	405	403	401	398	394	391	388	388	390	392	393	395	397	399	400	402	403	405	407	410	412	413	415	417	419	420	421	421	422	422	423	424	424	424	425	426	428	430	432	434	435	437	438	440	441	442	443	444	445	446	448	449	449	450	451	452	452	453	454	456	457	459	460	461	462	463	463	463	462	461	459	458	456	454	453	454	457	459	461	463	464	465	465	465	465	465	466	466	467	467	468	468	467	467	465	463	461	458	453	453	455	457	459	461	463	465	467	470	471	473	475	476	478	479	480	481	481	482	483	484	485	485	486	487	487	487	488	487	487	487	487	487	487	487	486	486	485	484	483	482	481	480	477	474	471	468	465	462	459	456	454	452	450	450	450	451	451	452	453	453	453	454	454	454	454	454	453	453	452	452	451	450	449	448	447	446	445	444	443	442	440	439	437	435	433	431	431	432	434	437	439	440	441	441	441	442	442	442	443	443	443	443	442	441	440
256	258	259	260	261	261	262	262	262	262	263	262	262	261	261	259	258	256	254	252	250	249	247	245	244	242	241	239	237	235	233	230	228	226	224	222	220	220	219	216	214	212	209	207	204	202	199	197	195	193	192	191	190	190	189	188	187	186	185	184	183	181	181	180	180	179	179	179	179	178	178	177	176	176	176	176	177	178	179	179	180	182	183	184	185	187	188	190	192	194	196	198	201	203	205	207	209	211	214	216	218	220	222	225	227	230	232	235	238	240	243	245	248	250	253	255	258	260	262	265	267	268	269	269	269	268	268	268	267	267	267	267	268	268	268	268	269	270	270	271	271	272	272	273	275	276	277	278	279	280	281	281	282	282	282	282	281	281	281	280	280	280	281	281	282	283	283	283	283	282	281	280	279	277	276	275	274	273	272	271	270	270	269	268	267	265	264	263	262	261	261	261	260	260	260	260	260	260	261	261	262	264	266	269	272	275	278	280	283	284	286	287	288	289	290	292	293	294	295	297	298	299	299	299	299	299	299	299	299	300	303	306	309	311	312	313	314	314	314	315	315	316	318	319	321	323	325	326	327	329	330	332	334	335	338	340	341	343	345	346	347	349	350	352	353	353	354	355	355	356	357	357	358	360	362	364	366	369	371	373	375	377	379	381	383	386	388	389	391	395	399	402	405	409	412	416	420	423	426	429	432	435	438	441	442	443	444	445	447	448	450	452	454	456	457	458	459	460	462	463	465	466	467	468	470	471	472	473	473	473	474	474	474	475	476	477	478	479	480	481	482	483	483	483	484	484	484	484	484	484	484	485	485	486	486	487	487	488	488	488	488	488	488	487	487	487	487	487	487	488	489	490	490	488	486	484	483	481	478	476	473	470	467	465	462	460	458	456	454	452	450	448	446	444	443	442	441	441	440	440	439	438	437	436	434	432	431	429	428	426	424	422	421	418	415	412	409	406	403	400	397	395	392	390	388	385	383	381	380	378	377	376	377	378	380	382	384	386	388	390	392	394	396	398	399	401	402	403	404	405	406	409	411	414	417	420	423	426	429	432	435	438	440	442	444	445	446	445	444	443	444	445	446	448	451	455	457	460	463	465	468	470	473	475	478	480	482	483	485	486	488	489	489	490	491	491	492	493	493	494	494	495	495	495	495	495	495	495	495	495	495	494	494	494	493	492	490	489	487	486	485	483	482	480	477	473	469	466	462	459	457	454	452	449	446	444	441	438	435	432	429	426	424	421	419	418	416	414	413	411	409	407	404	402	400	399	398	397	396	396	395	395	396	397	397	398	398	397	396	395	393	392	391	391	392	394	396	397	399	401	403	405	407	409	411	413	414	416	417	419	420	421	421	422	423	423	424	424	425	425	424	424	423	422	421	420	419	417	415	413	411	408	406	404	401	399	395	392	390	390	392	393	395	397	399	401	402	403	405	407	410	412	415	417	419	420	420	421	421	422	422	423	424	424	425	425	426	428	430	432	434	436	437	439	440	441	442	443	443	444	446	447	448	450	450	451	452	452	453	454	455	457	458	460	461	463	464	465	465	465	464	463	462	459	458	456	455	456	458	460	462	463	465	466	466	466	466	466	467	467	467	468	468	468	468	467	466	464	462	459	455	454	456	457	459	461	463	465	468	470	472	474	476	478	479	480	481	481	482	483	484	484	485	486	487	487	488	488	488	488	488	487	487	487	487	487	487	486	486	484	484	483	482	481	479	476	473	470	466	462	459	457	455	453	451	452	453	453	454	454	455	455	456	456	456	456	456	456	455	455	454	454	453	452	451	449	448	447	446	445	443	442	441	440	438	436	434	433	433	435	437	438	440	442	442	443	443	443	444	444	445	445	445	445	444	443	443
254	255	256	257	258	258	259	259	259	259	260	259	259	259	258	257	256	254	252	250	249	247	246	244	243	241	240	238	236	234	232	230	228	226	223	221	220	220	219	217	214	211	209	206	204	201	199	196	194	192	191	189	188	187	186	185	184	183	182	181	180	179	179	179	178	178	178	178	178	177	176	176	175	175	175	176	177	177	178	179	180	181	182	183	184	186	187	188	191	193	195	197	199	202	204	206	208	210	213	215	217	219	221	224	227	229	232	235	238	241	243	245	248	250	253	255	258	260	262	264	266	267	267	267	267	267	266	266	266	266	266	266	266	266	266	267	267	268	268	269	269	270	271	272	273	274	275	276	277	278	279	279	280	280	280	280	280	279	279	278	278	278	279	279	280	281	281	281	280	279	278	277	276	275	274	273	271	270	269	269	268	267	266	265	264	263	262	261	260	259	259	259	259	259	259	259	259	259	259	259	260	262	265	268	271	274	276	279	281	283	284	286	287	288	289	290	291	292	294	295	296	297	297	297	296	296	296	296	298	299	301	304	307	309	309	310	311	311	311	311	312	313	314	316	318	320	322	323	324	326	327	328	330	331	334	336	338	340	342	343	345	346	348	349	351	351	352	353	353	354	356	357	359	361	363	365	367	370	372	374	376	378	380	382	384	387	388	391	394	397	401	404	407	410	414	417	421	424	427	430	433	436	439	441	442	443	444	445	446	448	450	452	453	455	456	457	459	460	461	462	463	464	466	467	468	470	471	471	472	472	472	472	472	473	474	475	476	477	478	479	479	480	480	480	480	480	481	481	481	481	482	482	482	483	483	484	484	484	484	484	485	485	485	485	484	484	485	485	486	486	487	489	490	490	488	486	484	482	480	477	474	471	468	466	463	461	459	457	455	453	451	449	448	447	446	445	443	442	442	442	441	440	439	437	436	434	432	430	428	427	425	423	421	419	416	412	409	406	402	399	397	394	392	390	387	385	382	380	378	377	376	375	374	375	377	378	381	383	385	387	389	391	393	394	396	398	399	400	401	402	403	405	408	412	415	418	422	425	428	430	433	436	439	441	442	443	443	442	441	440	440	441	444	447	450	453	456	459	462	464	467	469	472	474	477	479	481	483	484	485	486	487	488	488	489	489	490	491	492	493	494	494	494	494	494	494	494	494	494	494	494	493	493	493	493	492	491	489	488	486	485	483	482	480	477	474	470	467	463	460	458	455	453	450	447	444	442	439	436	433	430	427	425	422	421	420	418	417	415	414	412	410	407	404	402	401	400	399	398	397	397	397	397	398	399	400	400	400	399	398	397	395	394	393	393	395	396	398	399	401	403	405	407	409	412	414	415	416	418	419	421	422	423	424	424	425	425	426	426	426	426	425	424	423	422	421	420	418	416	413	411	409	407	404	402	399	396	393	392	392	393	395	396	398	400	402	403	405	407	408	411	415	418	419	420	421	421	421	422	423	423	424	425	425	425	425	427	429	432	434	436	438	439	440	441	442	443	443	444	445	446	448	449	450	451	452	453	453	454	455	456	457	459	460	462	464	466	467	467	467	467	466	464	461	459	457	457	458	459	461	462	464	465	466	466	466	466	467	467	467	468	468	468	468	467	467	467	465	463	460	456	455	456	458	460	462	464	466	468	471	473	475	477	479	480	481	481	482	483	483	484	485	486	487	487	488	488	489	489	488	488	488	488	488	488	487	487	487	486	485	484	483	482	481	480	478	475	471	467	463	460	458	456	454	453	454	455	455	456	456	457	457	458	458	458	458	458	458	457	457	457	456	455	454	453	451	449	448	446	445	444	443	442	440	439	437	435	434	435	436	438	440	441	443	444	444	445	445	446	446	447	447	447	447	447	446	445
252	253	253	254	254	254	255	255	255	256	256	256	256	256	255	254	253	251	250	248	247	246	244	243	241	240	238	236	234	233	231	229	227	225	223	221	220	220	219	216	213	211	208	206	203	201	199	196	194	191	189	188	186	185	184	183	181	180	179	179	178	178	178	178	177	177	177	177	176	176	175	175	174	174	174	175	176	177	178	178	179	180	181	183	184	185	187	188	190	192	194	196	198	200	203	205	207	209	212	214	216	218	220	223	226	229	232	235	238	241	243	245	248	250	253	255	257	260	262	263	264	265	265	266	266	265	265	265	265	264	264	264	264	265	265	265	266	266	266	267	267	268	269	270	271	273	273	274	275	276	277	277	278	279	279	279	278	278	277	277	276	276	276	277	277	278	279	278	278	277	275	274	273	272	271	270	269	268	267	266	265	264	263	262	261	260	260	259	258	258	257	257	257	257	257	257	257	257	257	258	259	261	264	267	270	272	275	278	280	282	283	284	285	286	287	288	290	291	292	293	294	295	294	294	294	294	294	294	296	298	300	302	305	306	306	307	307	308	307	307	308	309	311	313	315	317	319	320	322	323	324	326	327	329	331	333	335	337	339	341	342	344	345	347	348	349	350	351	352	354	356	358	360	362	364	366	368	371	373	375	377	379	381	383	386	388	390	393	396	400	403	406	409	412	415	419	422	425	427	430	433	436	439	441	442	443	444	445	447	448	449	451	452	454	455	457	458	459	460	461	462	463	465	466	467	468	469	469	470	470	470	470	471	471	472	473	474	475	476	476	477	477	477	477	477	477	478	478	478	478	479	479	479	480	480	480	481	481	481	481	482	482	482	482	482	482	483	483	484	485	486	487	489	490	489	487	485	483	481	479	476	472	469	466	464	461	459	457	455	453	452	451	450	449	448	447	446	444	443	443	442	442	440	439	437	435	433	431	429	427	425	424	422	420	417	413	409	405	402	399	396	394	391	389	387	384	382	379	378	376	375	373	373	373	374	375	378	380	383	384	386	388	389	390	392	394	395	397	398	398	400	403	406	409	413	417	420	423	426	429	431	434	436	438	440	441	440	440	439	437	437	439	442	445	448	452	455	458	461	464	466	468	471	473	475	478	480	482	483	484	485	485	486	486	487	487	488	490	491	492	493	493	493	493	493	493	493	493	493	493	493	493	492	492	492	492	491	489	488	487	485	484	482	481	478	475	471	468	465	462	459	456	454	451	448	445	442	440	437	434	431	428	426	424	422	421	421	419	418	417	415	413	410	407	406	404	403	401	400	399	399	399	399	400	401	402	402	402	401	401	400	398	397	395	395	395	397	398	400	402	404	406	408	410	412	414	416	417	419	420	422	423	424	425	426	426	427	427	428	428	427	427	426	425	423	422	421	419	417	414	412	410	408	405	403	400	397	395	394	394	394	396	397	399	400	403	405	406	408	410	413	417	419	421	421	421	422	422	422	423	424	425	425	426	426	426	428	431	434	436	438	439	440	441	442	443	443	444	445	446	447	448	449	450	451	452	453	454	455	456	457	458	459	461	463	466	467	469	470	470	470	468	466	463	461	459	459	460	461	462	463	465	466	466	466	466	467	467	467	468	468	468	468	467	467	467	467	465	463	460	457	456	458	459	461	463	465	467	470	472	474	476	478	480	481	481	482	483	483	484	485	486	487	487	488	489	489	489	489	489	489	489	488	488	488	488	487	487	487	486	485	484	483	482	481	479	476	473	469	465	461	459	457	455	455	456	457	457	458	459	459	460	460	460	460	460	460	460	460	459	459	459	457	456	454	452	450	449	447	446	445	443	442	441	439	438	436	435	436	437	439	441	442	444	445	446	446	447	447	448	449	449	449	449	449	448	447
249	250	250	250	250	251	251	251	252	252	253	253	253	253	252	251	250	249	248	247	245	244	243	242	240	238	237	235	233	232	230	228	227	225	222	221	220	220	219	216	213	210	208	205	203	201	198	196	193	191	188	186	185	183	182	180	179	178	178	177	177	177	176	176	176	176	176	176	175	175	174	174	174	174	174	175	176	176	177	178	179	180	181	182	184	185	187	188	190	192	194	196	198	200	202	204	206	209	211	213	215	218	220	223	226	229	232	235	239	241	243	245	247	250	252	254	257	259	261	262	263	263	264	264	264	264	263	263	263	263	263	263	263	263	263	263	264	264	265	265	266	266	268	269	270	271	271	272	273	274	275	275	276	277	277	277	277	276	275	275	274	274	274	274	275	275	275	275	275	274	272	271	270	269	268	267	266	265	264	264	263	262	261	260	259	258	258	257	257	256	256	255	255	255	255	255	255	256	256	257	258	260	262	265	269	271	274	276	278	280	282	283	284	285	286	287	288	289	291	292	292	292	292	292	291	291	292	293	295	297	299	301	303	303	303	304	304	304	304	304	305	306	308	310	312	314	316	318	320	322	323	325	327	329	330	331	333	335	337	338	340	341	343	344	346	347	348	350	353	355	357	359	361	363	365	367	369	372	374	376	378	380	382	385	388	390	393	395	399	402	404	407	410	413	416	419	422	425	428	431	433	436	439	441	442	443	444	446	447	447	448	450	451	453	454	455	457	458	460	461	462	463	464	465	466	467	467	468	468	468	468	469	469	469	470	471	472	473	473	474	475	475	475	475	475	475	475	474	475	475	475	475	476	476	477	477	478	478	478	478	479	479	479	479	480	480	481	481	482	483	484	486	487	489	490	489	486	484	482	480	477	474	470	467	465	462	460	458	456	455	454	453	452	451	450	449	448	446	445	445	444	443	441	439	437	435	433	431	430	428	426	424	422	420	417	413	409	405	402	398	396	394	391	389	386	384	381	379	377	375	374	372	371	371	371	372	374	377	379	381	383	384	385	387	388	390	392	393	394	396	398	401	404	408	411	415	418	422	424	426	429	431	433	435	436	437	436	436	436	435	435	437	441	444	447	451	454	457	460	463	465	467	470	472	474	476	479	480	481	482	483	483	484	484	485	486	487	488	489	491	491	492	492	492	492	492	492	492	492	492	492	492	492	492	492	492	491	490	488	487	485	484	482	481	479	476	472	469	466	463	460	458	455	452	449	446	443	440	438	435	433	430	428	427	425	424	423	422	421	420	418	415	413	410	408	407	405	404	402	401	400	401	401	402	404	405	405	404	404	403	402	401	399	398	397	397	398	399	401	402	404	406	408	410	412	415	417	418	420	422	423	424	425	426	427	428	428	429	429	429	428	428	427	426	425	423	422	420	418	415	413	411	408	406	403	401	398	397	396	396	396	397	398	399	401	403	406	408	410	412	415	418	420	421	421	421	422	423	423	424	424	425	426	426	426	427	430	433	435	438	440	441	441	442	443	443	444	445	446	446	447	448	449	450	451	451	452	454	455	456	457	459	460	462	464	467	469	471	472	472	472	471	469	466	464	463	462	462	463	464	465	466	466	466	467	467	467	468	468	468	468	467	467	467	467	467	466	464	462	460	457	458	459	461	462	464	467	469	471	473	475	478	479	480	481	482	483	483	484	485	486	486	487	488	489	489	490	490	490	489	489	489	489	488	488	488	488	487	487	486	485	484	483	482	481	480	478	474	470	466	462	460	458	456	456	457	458	459	460	461	461	461	462	462	462	462	462	462	462	462	461	461	459	458	456	454	452	450	448	446	445	444	442	441	440	438	437	437	438	439	440	441	443	445	446	447	448	449	449	450	451	451	451	452	451	451	450
246	247	247	247	246	247	247	248	248	249	250	250	250	250	250	249	248	247	246	245	243	242	241	240	238	237	235	233	232	230	228	227	225	224	222	220	220	219	217	214	212	209	207	205	202	200	198	195	193	190	188	185	183	182	180	179	177	177	176	176	176	175	175	175	175	175	175	174	174	174	174	173	173	174	174	175	176	177	177	178	179	180	182	183	184	186	187	188	190	192	194	196	198	200	201	204	206	208	210	213	215	217	220	222	226	229	232	236	239	241	243	245	247	250	252	254	256	258	259	260	261	262	262	262	262	262	262	262	262	262	262	262	262	262	262	262	262	262	263	263	264	265	266	267	268	269	269	270	271	272	273	274	274	275	275	275	275	274	273	273	272	272	272	272	273	272	272	272	271	270	269	268	267	267	266	265	264	263	262	261	260	259	258	258	257	257	256	256	255	255	254	254	254	253	253	253	254	254	255	257	258	260	262	265	268	270	273	275	277	279	280	281	282	283	284	285	287	288	289	290	290	290	290	289	289	289	290	292	294	295	297	299	301	301	301	301	301	300	300	301	302	304	306	309	312	314	316	318	320	322	323	325	328	330	331	332	333	334	335	337	338	339	341	343	345	347	349	352	354	356	358	360	363	365	367	369	371	373	375	377	379	381	384	386	389	392	395	397	400	403	406	408	411	414	417	420	423	425	428	431	433	436	439	441	442	443	444	445	446	447	447	448	450	451	453	454	456	457	459	460	461	462	463	464	465	466	466	466	466	467	467	467	467	468	468	469	470	471	471	472	473	473	473	473	473	472	472	471	472	472	472	472	472	473	474	474	474	475	475	476	476	476	477	477	477	478	478	479	480	482	483	484	486	487	489	489	488	486	483	481	478	475	471	468	466	463	461	459	458	457	456	455	454	453	452	451	450	448	447	446	445	444	442	440	438	435	433	431	430	428	426	424	423	421	417	413	409	405	402	398	396	394	391	389	386	384	381	379	377	375	373	371	371	370	370	370	371	373	375	378	380	381	382	383	384	386	388	390	392	394	396	399	402	406	409	413	416	420	422	424	426	428	430	431	431	432	432	432	432	432	433	437	441	444	447	450	453	456	459	462	464	466	468	470	472	474	476	478	479	480	481	482	482	482	483	484	485	487	488	489	490	491	491	491	492	492	492	492	492	492	492	492	492	492	492	492	491	490	488	487	486	484	483	481	479	476	473	470	467	464	462	459	456	453	451	448	445	442	439	437	434	432	431	430	429	428	427	426	425	423	421	418	415	413	411	409	407	406	404	403	403	403	404	405	407	407	407	407	407	406	405	403	401	399	398	398	399	400	401	403	405	407	409	411	413	416	418	420	421	423	424	425	427	428	428	429	430	430	430	430	430	429	428	427	426	425	423	421	419	417	414	412	409	406	404	401	399	398	398	397	397	398	399	400	402	404	406	408	411	413	416	419	420	421	421	422	423	423	424	424	425	426	426	427	427	428	431	434	437	439	440	441	442	442	443	444	445	445	445	445	446	447	448	448	449	450	451	452	453	454	456	458	460	462	465	468	470	472	473	474	474	473	472	470	469	467	466	466	466	466	467	467	467	467	467	467	468	468	468	468	467	467	467	467	467	466	464	462	461	460	458	459	461	463	464	466	468	470	472	474	477	479	480	481	482	483	484	484	485	486	487	487	488	489	489	490	490	490	490	490	490	489	489	489	489	488	488	488	487	487	486	485	484	483	482	481	479	475	471	467	464	461	459	458	458	459	460	461	462	462	463	463	464	464	464	464	464	464	464	464	463	462	461	459	457	455	453	451	449	447	445	444	442	441	440	439	438	438	439	440	441	443	445	446	448	449	450	451	451	452	453	453	453	454	453	453	452
244	244	244	243	243	243	243	244	245	246	247	247	247	247	247	247	246	245	244	243	242	240	239	238	237	235	233	232	230	228	227	225	224	222	221	219	218	217	215	213	210	208	206	204	201	199	197	195	192	190	187	185	182	180	179	177	176	175	175	174	174	174	174	174	174	174	174	174	173	174	173	173	173	173	174	174	176	177	178	179	180	181	183	184	186	187	188	190	192	193	195	197	199	200	201	203	206	208	210	212	215	217	219	222	226	229	232	235	239	241	243	245	247	249	252	254	256	257	258	259	260	260	260	260	260	261	260	260	260	260	260	260	260	260	260	260	260	261	261	261	262	263	264	265	266	267	267	268	269	270	271	272	272	273	274	273	273	272	272	271	271	270	270	270	271	270	269	268	268	267	266	265	265	264	263	262	261	260	260	259	258	257	256	256	255	255	255	254	254	253	253	252	252	252	251	251	252	253	254	256	258	260	262	265	268	270	272	274	275	277	278	279	280	281	282	284	285	286	287	288	288	288	287	286	286	286	288	290	292	294	296	298	299	299	299	299	298	298	298	299	301	303	306	309	312	314	316	318	320	322	324	326	328	331	333	334	335	336	336	337	338	339	341	343	345	348	351	354	356	358	360	362	364	366	368	370	372	374	376	378	380	383	385	388	391	393	396	399	402	404	407	410	412	415	418	421	423	426	428	431	433	436	439	441	442	443	444	445	446	446	446	447	449	450	452	453	454	456	458	459	460	461	462	463	463	464	465	465	465	465	465	466	466	466	466	467	468	468	469	470	470	471	471	471	471	470	469	469	469	469	469	469	469	469	470	471	471	472	473	473	473	473	474	474	475	475	476	477	478	480	481	483	484	486	487	489	489	487	484	482	479	476	473	469	467	464	462	460	459	459	458	457	456	455	454	453	452	450	449	448	447	445	442	440	438	435	433	431	429	427	426	424	423	420	417	413	409	405	402	399	396	394	391	389	386	384	381	379	377	375	373	371	370	370	369	369	370	371	372	374	376	377	379	380	381	383	385	387	389	392	395	397	401	404	407	411	414	417	420	422	424	425	426	427	427	427	427	427	428	429	432	436	440	444	447	450	452	455	458	460	462	465	467	468	470	471	473	475	476	478	479	480	480	481	481	482	484	485	487	488	489	489	490	490	491	491	491	491	491	491	491	491	491	491	491	492	491	490	488	487	486	484	483	481	480	477	474	471	468	466	463	460	458	455	452	449	446	443	441	438	437	435	434	433	432	431	430	429	428	425	423	420	417	415	413	411	410	408	407	406	406	407	407	408	409	410	410	410	409	408	407	405	403	400	399	398	399	401	402	404	406	408	410	412	414	417	419	421	422	424	425	426	428	429	430	430	431	432	432	432	431	430	430	428	428	426	424	422	420	417	415	412	410	407	405	402	400	399	399	399	399	399	399	400	402	404	406	408	411	413	416	419	420	421	422	422	423	424	424	425	426	426	427	427	427	430	433	436	438	440	441	441	442	443	444	444	444	444	443	443	443	443	444	445	446	447	448	449	451	452	454	456	459	462	466	469	471	473	474	474	474	474	473	473	472	471	469	469	469	469	468	467	467	467	467	468	468	468	468	467	467	467	467	467	466	465	462	461	460	460	460	461	462	464	466	468	470	472	474	476	478	480	481	482	483	484	485	486	487	487	488	488	489	490	490	491	491	491	491	490	490	490	490	489	489	489	488	488	487	487	486	485	484	483	482	481	479	475	471	468	465	462	460	459	459	460	461	462	463	464	464	465	465	466	466	466	467	467	466	466	466	464	463	461	459	457	454	452	450	448	446	444	443	441	440	439	439	440	441	442	443	445	447	448	450	451	452	452	453	454	454	455	456	456	456	455	455
241	241	240	240	239	239	240	241	242	243	244	244	245	245	245	244	244	243	242	241	240	239	237	236	234	233	231	230	228	226	225	223	222	220	219	217	216	214	213	211	208	206	204	202	200	198	196	194	191	189	186	184	181	179	177	175	174	174	174	173	173	173	173	173	173	173	173	173	173	173	173	172	173	173	174	174	176	177	178	180	181	182	184	186	187	188	190	191	193	194	196	198	200	200	201	204	206	208	210	212	215	217	219	222	226	229	232	235	238	241	243	245	247	249	251	253	255	256	257	258	258	258	258	258	258	258	258	258	258	258	258	258	258	258	258	258	258	259	259	260	261	262	263	264	264	265	265	266	267	268	269	270	271	271	272	272	271	271	270	269	269	268	268	268	268	267	266	265	265	264	263	262	262	261	260	259	259	258	257	257	256	255	255	254	254	253	253	253	252	252	251	251	251	250	250	250	250	252	254	256	258	259	262	264	267	269	271	272	274	275	276	278	279	280	281	282	283	284	285	285	285	285	284	283	283	285	287	289	290	292	294	296	297	297	297	297	296	296	297	298	300	303	306	308	311	314	316	318	320	323	325	327	329	332	334	336	337	338	339	339	341	342	344	346	348	351	353	356	358	360	362	364	366	368	370	372	373	375	377	379	381	384	387	389	392	395	397	400	403	405	408	411	413	416	419	422	424	426	429	431	434	436	439	441	442	443	444	444	444	445	445	446	447	449	450	452	453	455	456	457	458	460	460	461	462	463	463	463	463	464	464	464	464	464	464	465	465	466	467	468	468	469	468	469	469	468	467	466	466	465	465	465	465	466	467	468	469	469	470	471	471	471	471	472	472	473	474	475	476	478	480	481	483	484	486	488	488	487	485	482	480	477	473	470	468	465	463	462	461	461	460	459	459	458	456	455	454	452	451	449	447	445	442	440	438	436	433	431	429	427	425	424	422	420	417	413	409	406	402	399	396	394	392	389	387	384	382	380	377	375	373	371	370	370	369	369	369	370	370	371	373	374	376	377	378	380	382	384	387	390	393	396	398	402	405	408	411	414	417	419	420	422	422	422	422	422	422	422	424	427	431	436	440	443	446	449	451	454	456	458	461	463	464	466	467	469	470	472	473	474	476	477	478	479	480	481	483	484	486	487	487	488	489	489	490	491	491	491	491	491	491	491	491	491	491	491	491	490	488	487	486	484	483	482	480	478	475	472	469	467	464	462	459	456	453	451	448	445	442	440	439	438	437	436	436	434	433	432	430	428	425	422	419	417	415	413	412	411	409	409	409	410	410	411	412	413	413	413	412	411	409	407	404	401	399	399	400	402	403	405	407	409	411	413	415	418	420	422	423	425	426	428	429	430	431	432	433	433	433	433	433	432	431	430	429	427	425	423	421	418	416	413	411	408	406	404	402	401	400	399	399	399	400	400	402	404	406	408	410	412	415	418	420	421	422	422	423	424	425	425	426	427	427	427	428	431	434	437	439	441	441	442	442	443	443	443	442	442	441	441	440	441	441	441	442	443	445	446	448	450	452	455	458	462	466	469	472	473	474	474	474	474	474	473	473	472	472	472	472	471	470	468	467	467	468	468	468	468	467	467	467	467	467	466	465	464	462	461	461	461	461	462	464	466	467	469	471	473	475	477	479	481	482	483	484	485	486	487	488	489	489	489	490	491	491	491	491	491	491	491	491	490	490	490	489	489	488	488	488	487	487	486	485	483	482	481	480	476	472	468	465	462	460	460	460	461	462	463	464	465	466	467	467	468	468	468	469	469	469	469	468	466	464	462	460	458	456	453	451	449	447	446	445	443	442	441	441	442	443	444	446	447	449	450	452	453	454	454	455	456	456	457	458	458	458	458	457
237	237	237	237	236	236	237	238	239	240	241	242	242	242	242	242	241	241	240	239	238	237	236	234	233	231	229	228	226	224	223	222	220	218	217	215	213	212	210	208	206	204	202	200	198	197	194	192	190	188	185	182	180	177	175	174	174	173	173	173	173	173	173	173	173	173	172	172	172	172	172	172	172	173	174	174	176	178	179	181	182	184	185	187	188	190	191	193	194	196	198	199	200	201	202	204	206	208	211	213	215	217	219	222	226	229	231	234	237	240	242	244	247	249	251	253	254	255	256	257	257	257	256	256	256	256	256	256	256	256	256	256	256	256	256	256	256	257	257	258	259	260	261	262	262	263	263	264	265	266	267	268	269	270	270	270	270	269	268	268	267	266	266	266	266	265	264	262	262	261	260	259	259	258	258	257	257	256	255	255	254	253	253	252	252	251	251	251	251	250	250	249	249	249	248	248	250	252	253	255	257	259	261	264	266	268	269	271	272	274	275	276	277	278	279	281	282	283	283	283	283	282	281	280	281	283	285	287	289	291	293	294	295	295	295	294	294	295	296	298	300	302	305	308	311	314	316	319	321	323	326	328	330	333	335	337	338	339	341	342	343	345	346	348	350	353	355	358	360	362	364	366	368	370	372	373	375	377	379	381	382	385	388	390	393	396	399	401	404	406	409	411	414	417	419	422	424	426	429	431	434	436	439	441	442	443	443	443	443	444	444	445	446	448	449	450	452	453	454	455	456	457	458	460	461	461	462	462	462	462	462	462	462	462	462	462	463	464	465	465	466	466	466	467	466	466	465	463	463	462	461	461	462	463	464	465	466	467	467	468	468	468	469	469	470	471	472	473	475	476	478	480	481	483	484	485	486	486	485	483	480	477	474	471	469	467	465	464	464	463	463	462	461	460	458	457	456	454	452	450	447	444	442	440	438	436	434	431	429	427	425	423	422	420	417	413	410	406	402	399	397	394	392	389	387	385	383	380	378	376	374	372	371	370	369	368	368	369	369	370	371	372	373	375	376	378	380	382	385	388	391	394	396	399	402	405	408	411	413	415	416	417	418	418	418	418	418	419	422	426	431	435	440	443	445	448	450	452	454	456	458	460	462	463	464	466	467	469	470	471	472	473	475	477	479	481	482	483	485	485	486	487	487	488	489	490	490	490	490	490	491	491	491	491	491	491	491	490	488	487	486	484	483	482	481	479	476	473	471	468	465	463	460	458	455	452	450	447	445	443	441	441	440	440	439	438	436	435	432	430	426	423	420	419	418	416	414	413	412	411	412	413	414	414	415	416	416	415	415	413	411	409	405	402	400	399	401	403	405	407	409	411	412	414	416	419	421	423	424	426	427	429	430	431	432	433	433	434	434	434	434	433	433	432	430	428	426	424	421	419	416	414	411	409	407	406	404	403	402	401	400	400	400	400	402	403	405	407	409	412	415	417	419	420	421	422	423	424	424	425	426	427	428	428	429	431	435	438	440	441	441	442	442	442	442	442	441	440	440	439	439	440	440	441	441	442	442	443	445	447	450	453	457	461	465	470	472	473	474	474	475	475	475	474	474	473	474	474	474	474	472	470	469	468	468	468	468	467	467	467	467	467	466	465	464	463	462	462	462	462	463	464	465	467	469	471	472	474	476	479	480	482	483	484	485	486	487	488	489	490	490	491	491	492	492	492	492	492	492	491	491	491	490	490	490	489	489	488	488	487	487	486	485	484	483	481	480	477	472	469	466	463	461	461	462	462	464	465	466	467	467	468	469	470	470	470	470	471	471	471	470	468	466	464	462	459	457	454	452	450	449	448	447	445	444	443	443	444	446	447	448	449	451	453	454	455	456	456	457	457	458	459	460	460	460	460	460
234	234	234	234	233	233	234	235	236	237	238	239	240	240	240	240	239	239	238	237	236	235	234	233	231	229	228	226	224	223	221	220	218	216	214	212	211	209	207	206	204	202	200	198	197	195	193	191	189	186	183	180	178	176	174	173	173	173	172	172	172	172	172	172	172	172	171	171	171	171	171	172	172	173	174	175	177	179	180	182	183	185	186	188	189	191	193	194	196	197	199	200	201	202	204	205	207	209	211	213	215	217	220	222	225	228	231	234	236	239	242	244	246	248	250	252	253	254	255	256	256	255	254	254	254	254	254	254	254	254	253	253	253	253	253	254	254	254	255	256	257	258	259	260	260	260	261	262	263	264	265	266	267	268	268	268	268	267	267	266	265	265	264	264	263	262	261	260	259	258	258	257	256	256	256	255	255	254	253	253	252	251	251	250	250	250	249	249	249	248	248	248	247	247	246	247	249	251	253	255	256	258	260	263	265	267	268	269	271	272	274	275	276	277	279	280	281	281	281	281	280	280	279	279	280	282	284	286	288	289	291	292	293	293	292	292	293	294	296	298	300	302	305	308	311	313	316	319	321	324	326	329	331	334	336	338	340	341	342	344	346	347	349	351	353	355	358	360	362	364	366	368	370	372	373	375	377	379	380	382	383	385	388	391	394	397	399	402	405	407	410	412	415	417	420	422	424	426	429	431	433	436	438	440	441	441	442	442	442	443	443	444	445	446	448	449	450	451	452	453	454	455	456	457	459	460	461	461	461	461	461	460	460	460	460	460	461	462	462	463	464	464	464	465	464	464	462	461	460	459	458	458	459	459	461	462	463	464	465	466	466	466	466	467	468	469	470	471	473	474	476	478	480	481	482	483	484	484	484	483	480	477	475	472	470	468	467	467	466	466	465	464	463	462	460	459	457	455	453	450	447	444	442	440	438	435	433	431	429	427	425	423	421	419	416	413	410	406	403	400	397	395	392	390	388	386	384	382	379	377	375	373	371	370	369	368	368	368	368	369	370	370	371	373	374	376	378	380	383	386	389	391	394	397	400	402	405	407	409	411	412	413	412	413	414	415	415	417	422	426	431	435	439	442	444	446	448	451	452	454	455	457	458	460	462	463	464	465	466	468	469	471	473	475	478	480	481	482	483	484	485	485	486	487	488	489	490	490	490	490	490	490	490	491	491	491	491	490	488	487	486	484	483	482	481	480	477	474	472	469	467	465	462	460	457	454	452	450	448	446	445	444	444	443	442	441	439	437	435	431	427	423	420	420	419	418	417	415	415	414	415	416	417	417	418	418	418	418	417	416	413	410	406	402	400	400	401	404	406	408	410	412	414	416	418	420	422	424	425	427	429	430	431	432	433	433	434	434	435	435	435	434	434	433	431	429	427	424	421	419	416	414	412	411	409	408	407	405	404	404	403	402	402	401	401	403	405	407	409	411	414	416	418	420	421	422	422	423	424	425	426	427	428	428	429	431	435	438	440	441	441	441	441	441	441	440	439	438	438	439	439	440	441	441	442	442	443	443	444	445	447	451	455	460	465	469	473	473	474	474	475	475	475	475	475	475	475	475	475	475	474	473	471	469	468	468	467	467	467	467	466	466	465	464	463	463	463	464	464	464	464	465	467	468	470	472	474	476	478	480	481	483	484	485	486	487	488	489	490	491	492	492	492	493	493	493	492	492	492	492	491	491	491	490	490	490	489	489	488	488	487	486	485	484	483	482	480	477	473	469	466	463	462	463	463	464	465	466	467	468	470	471	471	472	472	472	472	472	472	472	471	470	468	465	462	460	457	455	453	452	450	450	448	447	446	445	445	447	449	450	451	452	453	455	456	457	457	458	459	459	460	461	461	462	462	462	462
230	231	231	231	230	231	231	232	234	235	236	236	237	237	237	237	237	236	236	235	234	233	232	231	229	228	226	224	223	221	219	218	216	214	212	210	208	207	205	203	202	200	198	197	195	193	191	190	187	185	182	179	176	174	173	173	173	172	172	172	171	171	171	171	171	171	171	171	171	171	171	172	172	173	174	175	178	180	181	183	184	186	187	188	190	192	193	195	196	198	200	200	201	203	205	207	209	210	212	214	216	218	220	223	226	228	231	233	236	238	241	243	245	247	250	251	252	253	254	254	254	253	253	252	252	252	252	252	252	251	251	251	251	251	251	252	252	252	253	254	255	256	257	258	258	259	259	260	261	263	264	265	266	266	266	266	266	266	265	264	263	263	262	262	261	260	259	258	257	256	255	255	254	254	253	253	252	252	251	250	250	249	249	249	248	248	248	247	247	247	246	246	246	245	245	247	249	251	253	255	256	258	260	262	264	265	267	269	270	271	273	274	275	277	279	280	280	280	280	279	279	278	278	278	279	281	282	284	286	288	290	291	291	291	290	290	292	294	296	297	299	302	305	308	311	314	317	319	322	324	327	329	332	334	337	339	341	342	344	346	348	349	351	353	355	357	360	362	364	366	368	370	372	374	375	377	379	381	382	383	384	386	388	391	394	397	400	402	405	408	410	413	415	418	420	422	424	426	429	431	433	436	438	439	439	440	440	441	441	442	442	442	444	445	446	447	448	449	450	451	452	453	454	455	457	458	459	459	459	459	459	458	458	458	458	458	459	460	460	461	462	462	462	462	462	461	460	459	457	456	455	455	455	456	458	459	461	462	463	463	463	463	464	464	465	467	468	469	471	472	474	476	477	479	480	481	482	482	483	482	480	478	476	473	472	470	469	469	469	468	468	467	466	464	462	460	458	456	453	450	447	444	442	439	437	435	433	431	429	427	425	423	421	418	416	413	409	406	403	400	398	395	393	391	389	387	385	383	380	378	376	373	371	370	369	368	367	367	367	368	369	369	369	371	372	374	376	378	381	384	386	389	391	394	397	399	402	404	405	406	407	408	407	407	409	410	412	417	422	426	430	435	438	441	442	445	447	448	449	451	452	453	455	457	458	460	461	462	463	465	467	469	471	473	476	478	480	481	482	483	483	484	484	485	487	488	489	490	490	490	490	490	490	490	490	491	490	490	488	487	486	485	484	483	481	480	478	476	473	471	469	466	464	461	459	456	454	453	451	450	448	447	447	446	445	443	441	439	436	432	428	424	421	420	420	420	419	418	417	417	418	419	419	420	420	420	420	420	419	418	415	412	408	404	401	400	402	404	406	408	411	413	415	417	419	421	423	425	426	428	430	431	433	433	434	434	435	435	435	435	435	435	435	434	432	430	427	424	421	419	417	415	414	413	412	411	409	408	407	407	406	405	404	403	402	402	404	406	408	410	412	414	416	418	420	421	422	422	423	424	426	427	428	429	429	431	434	438	440	441	441	441	441	441	440	439	438	438	438	439	440	440	441	442	442	443	444	444	444	444	445	448	453	459	464	469	472	473	474	474	475	475	476	475	475	475	476	476	476	476	476	476	474	472	469	468	467	467	467	467	466	465	464	464	465	465	465	465	465	465	466	466	468	470	472	474	475	477	479	480	482	483	484	486	487	488	489	490	491	492	493	493	493	493	493	493	493	493	492	492	492	492	491	491	490	490	489	489	488	488	487	486	485	484	483	482	480	478	473	469	466	464	464	464	465	465	466	468	469	471	472	473	473	473	473	474	474	474	474	474	472	471	468	466	463	460	458	456	454	453	452	451	450	449	448	447	448	450	451	453	454	455	455	457	458	459	459	460	460	461	462	463	463	464	464	465	464
227	227	227	227	227	228	229	230	231	232	233	234	234	234	235	235	234	234	234	234	233	231	230	229	228	226	225	223	221	219	217	215	213	211	209	208	206	204	203	201	199	198	196	195	193	191	190	188	186	183	180	177	175	173	173	172	172	172	171	171	171	171	171	170	170	170	170	170	170	170	171	172	173	174	175	176	179	181	182	184	185	187	188	189	190	192	194	195	197	199	200	201	202	203	206	208	210	212	214	215	217	219	221	223	226	228	230	233	235	238	240	242	244	247	249	250	251	251	252	252	252	251	251	250	250	250	250	250	249	249	249	249	249	249	249	249	250	250	251	252	253	254	255	255	256	257	258	259	260	261	262	263	264	264	264	264	264	264	263	262	262	261	260	260	259	259	258	256	255	254	253	252	252	251	251	250	250	249	249	248	247	247	247	247	247	246	246	246	245	245	245	244	244	244	245	247	249	251	253	255	256	258	260	262	263	265	267	268	270	271	273	274	275	277	278	279	279	278	278	277	277	277	277	277	279	280	281	283	285	287	288	289	289	289	289	289	291	293	295	297	299	302	305	308	311	314	317	320	322	325	327	330	332	335	337	339	341	343	345	348	350	351	353	355	357	359	361	364	366	368	370	372	374	376	378	379	381	382	383	384	385	387	389	392	395	398	401	403	405	407	410	413	415	418	420	422	424	426	428	431	433	435	436	437	437	438	438	439	440	440	441	441	442	444	445	446	446	447	448	449	450	451	452	453	454	455	456	457	457	457	457	456	456	455	456	456	457	458	458	459	460	460	460	460	459	458	457	455	454	453	452	452	452	453	454	456	458	459	460	460	460	460	461	462	463	464	466	467	469	470	472	474	475	476	477	479	479	480	481	481	480	479	477	475	474	472	471	471	470	470	469	469	467	465	463	461	459	456	453	450	448	445	442	439	437	435	433	431	429	427	425	423	421	418	415	412	409	407	404	401	398	396	394	392	390	388	386	384	382	379	377	374	372	370	369	368	367	367	366	367	367	367	368	368	370	372	374	376	379	381	383	386	388	391	393	396	398	400	401	402	403	403	402	402	404	407	412	418	423	427	430	434	437	439	441	443	444	445	446	447	448	449	451	453	454	455	457	458	460	462	464	467	469	472	474	477	478	480	481	481	482	482	483	484	486	487	488	489	489	489	490	490	490	490	490	491	491	490	489	487	486	485	484	483	482	481	479	477	475	473	470	468	466	463	461	459	458	456	454	453	452	451	450	449	447	444	442	440	438	434	431	427	424	423	423	422	422	421	420	420	420	421	422	422	422	421	420	420	420	419	417	414	410	406	402	400	402	405	407	409	411	413	416	418	420	422	424	426	427	429	431	433	434	434	434	435	435	436	436	436	436	436	435	435	433	431	428	424	422	419	418	416	416	415	415	413	412	411	410	409	409	408	407	405	404	403	403	405	407	409	411	413	415	417	419	421	422	422	423	424	425	427	428	429	430	431	433	436	439	440	440	440	440	439	438	437	437	437	438	440	440	441	442	443	443	444	444	445	445	445	445	446	450	457	463	467	471	473	474	474	475	476	476	476	475	476	475	475	476	477	477	476	475	473	471	469	468	467	467	466	465	465	465	466	467	467	467	467	467	467	467	468	469	471	473	474	476	478	479	481	482	484	485	486	488	489	490	491	492	493	493	494	494	494	494	494	494	493	493	492	492	492	492	491	491	490	490	489	489	488	487	486	485	484	482	482	481	478	474	470	467	465	465	466	466	467	468	470	472	473	474	475	475	475	475	476	476	476	476	474	473	471	469	466	463	461	459	457	456	455	454	453	452	451	450	449	450	452	454	455	457	457	458	459	460	461	461	462	462	463	464	465	465	466	467	467	466
