142	142	141	140	138	137	133	126	125	127	128	131	136	138	139	142	146	149	151	154	152	150	151	152	153	154	155	153	151	147	146	146	146	146	146	145	144	143	142	142	142	141	140	137	134	133	131	129	129	132	134	135	136	134	132	132	131	129	127	124	121	119	116	113	111	112	112	113	112	111	109	106	103	100	97	93	90	88	87	86	83	81	78	70	67	67	70	70	70	67	62	58	57	58	59	60	60	60	60	60	61	61	60	58	57	56	55	53	52	51	51	52	54	57	62	61	61	58	48	39	36	35	35	36	35	33	31	29	27	29	31	31	29	29	30	31	32	32	29	28	28	28	28	28	28	28	28	28	28	28	28	28	28	28	28	28	28	28	28	28	28	28	27	26	24	24	25	24	23	23	23	23	22	22	22	23	21	18	16	15	16	18	19	20	20	20	20	15	11	15	17	17	18	19	19	20	20	20	20	19	18	17	16	15	14	13	12	11	11	10	10	10	10	10	10	11	11	11	10	10	9	9	9	9	9	9	9	9	9	9	9	10	10	9	8	8	8	8	8	8	8	8	8	8	8	7	7	7	7	8	8	8	8	8	8	8	8	8	8	8	8	8	8	8	8	8	8	8	8	9	9	9	9	9	9	9	8	8	8	8	9	13	23	28	24	16	14	14	14	19	27	26	25	24	22	18	11	8	7	7	7	8	9	7	9	14	16	14	9	7	6	7	7	7	7	7	7	7	7	7	8	8	8	9	8	10	13	11	15	17	19	19	17	17	11	9	13	13	10	11	13	12	14	19	22	23	23	23	22	19	17	20	24	27	29	29	29	29	30	32	32	32	32	27	24	22	19	16	14	13	13	13	13	12	13	17	22	21	22	26	29	30	29	29	31	33	34	34	33	34	34	35	36	36	35	35	34	31	31	31	31	31	31	31	31	31	31	31	31	31	31	32	37	40	44	43	39	41	53	61	62	62	64	56	48	47	47	47	52	59	61	62	64	66	69	72	76	79	83	85	82	80	79	80	82	83	83	81	79	78	77	77	79	78	77	76	76	74	69	65	62	60	60	59	59	58	57	56	55	54	56	59	60	60	59	56	56	59	60	61	62	64	65	65	66	67	68	72	77	79	82	88	94	100	104	104	105	108	112	114	115	115	115	115	115	116	117	118	122	127	128	130	131	132	131	131	132	133	135	138	142	144	145	145	144	147	150	151	152	154	156	158	160	161	163	165	168	170	173	176	180	183	187	191	195	198	200	202	203	203	202	201	198	195	193	190	187	184	181	178	175	173	171	168	165	163	160	158	157	155	154	152	151	150	150	150	150	150	150	149	149	149	150	150	150	152	154	154	153	152	150	147	145	144	143	141	140	138	138	137	137	137	137	137	135	132	128	123	119	116	114	112	111	111	109	106	104	105	103	100	99	99	101	99	97	101	105	105	105	105	106	108	110	111	112	114	116	117	118	121	123	126	128	130	133	136	138	139	138	137	138	139	142	143	144	146	151	155	157	157	157	157	157	157	157	157	157	157	157	157	157	157	157	157	157	159	161	160	158	156	155	153	151	149	148	149	149	150	151	153	156	160	163	165	167	169	171	173	176	183	189	193	196	198	201	204	206	207	206	205	207	211	212	213	215	218	222	224	227	230	232	234	236	239	243	247	251	254	256	257	258	258	257	256	255	253	252	252	252	252	253	254	256	256	256	256	255	255	256	255	255	253	251	249	245	241	237	233	228	225	223	220	218	216	214	212	211	208	204	200	200	199	197	195	193	191	192	192	191	191	191	190	186	183	182	183	185	188	191	193	194	194	195	197	200	202	204	206	208	211	213	216	218	221	223	226	229	231	234	237	241	244	247	249	251	253	254	256	257	258	259	260	262	263	264	265	267	267	268	269	269	269	268	267	267	267	268	269	270	270	271	272	274	277	280	283	287	290	291	291	289	285	282	278	275	272	270	268	266	263	261	258	256	256	254	253	252	250	249	249	249	247	246	245	244	243	242	240	237	233	229	225	222	219	217	213	210	208	207	205	203	200	198	196	193	191	189	188	185	184	182	179	176	173	171	169	168	168	167	166	165	163	161	160	157	156	155	156	157	160	165	167	166	167	169	170	170
140	140	139	136	129	128	126	126	127	128	130	132	136	139	140	142	146	148	150	153	155	157	158	158	158	159	160	159	156	147	145	145	145	146	147	146	144	142	142	142	142	142	141	139	136	133	130	129	129	133	136	137	138	136	134	133	131	130	128	125	121	118	116	114	113	114	114	114	113	113	110	107	104	102	99	95	91	89	88	87	84	81	80	71	67	67	69	72	74	72	65	61	61	62	63	62	61	62	61	60	61	61	61	60	60	60	60	57	53	51	51	51	51	56	65	63	60	59	51	43	38	35	35	36	35	35	33	31	27	28	30	31	31	30	30	30	31	31	29	28	28	28	28	28	28	28	28	28	28	28	28	28	28	28	28	28	28	28	28	28	28	28	28	27	26	26	26	26	25	23	22	22	22	22	21	21	22	21	18	16	16	17	18	19	20	22	22	17	13	16	18	18	18	19	20	21	21	21	21	21	20	19	17	16	15	13	12	12	11	11	10	10	10	10	10	11	11	11	11	10	9	9	9	9	9	9	9	9	9	9	10	10	10	10	9	9	9	8	8	8	8	8	8	8	8	7	7	7	7	8	8	8	8	8	8	8	8	8	8	8	8	8	8	8	8	8	8	8	8	8	8	9	9	9	9	9	9	9	9	9	10	17	24	26	21	14	14	14	15	22	27	27	26	24	23	20	13	9	8	7	7	6	7	7	9	14	15	10	7	7	7	7	7	7	7	7	7	7	7	7	7	7	7	7	7	7	7	7	8	8	11	15	14	11	8	8	14	17	11	13	16	11	8	10	15	21	23	22	22	23	21	22	25	28	30	30	29	29	30	32	32	31	31	28	26	26	25	19	15	14	16	16	14	14	17	22	26	24	24	26	29	31	31	31	33	35	35	35	36	37	38	39	38	35	31	31	31	30	31	31	31	31	31	31	31	31	31	31	31	31	31	31	32	38	46	47	44	42	50	56	58	62	65	60	49	47	47	47	49	55	60	62	64	67	70	74	78	82	87	87	82	80	80	80	82	83	83	82	82	80	78	78	80	80	78	76	74	71	64	62	61	60	59	58	57	56	56	55	54	54	56	59	60	59	57	55	55	60	64	65	65	64	64	65	66	67	68	74	78	81	84	88	94	100	103	103	105	108	111	114	115	116	116	116	116	117	117	119	123	126	128	130	132	132	131	131	133	135	136	139	143	145	145	144	145	148	150	151	151	152	154	156	158	160	162	164	167	170	173	177	181	184	188	192	196	198	201	203	204	204	204	202	200	197	195	192	188	185	182	179	177	174	172	169	167	164	162	159	156	154	153	152	151	150	149	149	149	148	148	149	149	148	148	147	146	149	153	154	153	152	151	148	144	143	141	140	138	137	136	136	135	134	134	133	132	130	127	123	119	116	113	111	108	105	103	100	99	100	99	98	99	99	98	97	96	99	103	104	105	104	104	106	108	109	111	113	115	117	119	122	124	127	129	132	135	137	138	138	137	136	137	140	142	143	144	146	151	154	155	156	157	157	157	157	156	157	157	157	157	157	157	157	157	157	158	161	162	159	155	152	151	150	149	147	147	148	149	149	151	153	157	161	164	165	167	168	170	172	176	182	189	193	195	197	200	202	204	205	204	203	205	209	211	212	214	217	221	224	227	230	233	235	237	239	243	246	250	253	255	256	256	256	255	254	252	250	248	248	248	249	250	251	252	253	253	253	252	252	252	253	252	251	249	246	242	239	235	232	228	225	222	220	217	215	212	210	209	206	202	199	198	198	197	195	193	192	192	192	190	188	186	185	183	182	182	183	185	188	191	194	195	195	196	198	200	202	204	207	209	211	214	216	218	221	223	226	228	231	234	237	241	245	248	251	252	254	255	257	257	259	260	261	263	264	266	267	269	270	271	272	272	272	271	270	270	270	271	272	273	273	274	275	276	278	281	284	287	290	291	291	289	287	284	280	277	274	272	270	267	264	261	259	257	256	255	253	251	249	248	248	247	246	244	243	241	239	238	237	234	231	227	224	221	218	215	211	207	205	204	203	200	197	195	192	190	188	187	186	184	182	180	177	174	171	169	167	166	165	165	165	163	161	160	159	157	155	155	156	158	162	165	166	165	166	169	169	169
139	139	135	130	125	123	124	126	128	129	131	132	135	138	141	142	144	146	147	151	155	158	158	158	158	158	159	158	155	150	146	145	145	145	146	146	144	142	142	142	142	142	142	141	138	134	130	129	130	133	137	138	139	138	136	134	132	130	128	124	121	118	116	115	115	116	116	115	115	114	113	109	105	102	100	97	94	91	89	89	88	83	80	72	67	67	68	73	75	72	68	66	65	64	64	64	64	65	63	61	60	61	61	61	61	60	61	60	55	51	51	50	51	55	65	64	60	56	49	44	39	36	36	36	36	35	35	34	31	28	29	31	31	31	31	29	29	29	29	28	28	28	28	28	28	28	28	28	28	28	28	28	28	28	28	28	28	28	28	28	28	28	28	27	27	26	27	27	26	24	22	22	22	22	21	21	21	21	20	18	17	17	18	19	20	22	22	20	16	17	17	18	19	20	21	22	22	23	22	22	21	20	18	17	15	14	13	12	11	11	11	10	10	10	11	11	11	11	11	10	10	9	9	9	9	9	9	9	9	9	10	10	10	10	10	10	10	9	9	9	8	8	8	8	8	8	7	7	7	7	8	8	8	8	8	8	8	8	8	8	8	8	8	8	8	8	8	8	8	8	8	8	8	8	9	9	9	9	9	9	12	21	24	23	17	13	13	14	16	21	20	23	24	23	22	21	18	12	10	9	8	7	6	7	7	10	10	7	6	7	7	7	7	7	7	7	7	7	7	7	7	7	7	7	7	7	7	6	7	7	7	7	7	7	7	7	9	11	15	20	20	13	8	8	10	20	22	22	22	24	23	23	26	28	29	29	29	28	29	30	31	32	31	29	26	26	27	24	17	17	19	20	19	20	23	25	26	26	26	27	29	31	32	33	34	36	35	37	40	41	40	41	39	32	29	30	31	31	31	31	31	31	31	31	31	31	31	31	31	31	32	32	35	44	50	50	49	48	50	52	56	63	65	63	52	47	47	47	48	51	55	60	64	68	72	75	78	84	88	85	81	80	80	81	82	83	82	80	79	77	76	77	79	78	74	72	68	65	62	62	61	60	59	57	55	54	54	55	55	56	57	59	58	57	55	54	56	62	66	65	64	63	63	64	66	67	71	76	79	81	85	89	94	99	101	102	104	108	112	114	115	116	117	118	118	119	119	121	124	126	129	131	132	133	133	133	134	135	136	139	144	145	145	145	146	148	150	151	151	151	152	155	157	159	162	164	167	170	173	177	181	185	189	193	196	199	201	204	205	205	205	204	202	199	196	193	190	187	184	181	179	176	174	171	168	166	163	160	157	155	153	151	150	149	149	148	147	147	147	148	148	147	146	145	146	148	152	154	154	153	152	149	143	141	140	138	136	135	134	134	133	132	131	130	129	127	126	122	119	116	114	113	108	101	98	97	97	97	96	96	97	96	98	97	96	98	103	105	105	104	104	106	108	109	110	112	115	117	120	122	125	128	131	134	137	138	138	137	136	136	137	140	142	143	143	146	149	152	154	155	156	156	156	157	157	157	157	157	157	157	157	157	157	158	159	161	162	158	153	150	149	148	147	147	147	149	149	149	151	154	158	161	163	165	166	167	168	171	176	181	187	191	193	195	197	199	199	199	199	200	202	207	210	210	212	216	221	224	227	230	233	235	237	239	242	245	249	251	253	255	255	254	253	251	248	246	244	244	244	245	247	248	249	250	250	250	249	249	249	250	249	248	246	243	239	236	234	231	228	225	221	219	217	214	210	208	206	204	201	198	198	197	196	194	193	191	191	191	188	185	183	183	182	182	183	183	184	186	191	195	196	197	198	199	201	203	205	207	210	212	214	216	218	221	224	226	229	231	234	238	242	245	249	251	253	254	255	256	257	258	259	261	263	265	267	269	271	272	273	274	274	275	274	274	274	274	275	275	276	276	277	278	279	281	283	285	288	290	291	291	290	288	285	282	280	277	275	272	269	265	262	260	258	257	256	254	251	249	248	247	246	244	242	240	238	236	235	234	231	228	225	223	219	216	213	209	206	204	202	200	197	194	191	189	187	185	184	183	182	180	177	174	172	169	167	165	163	162	163	162	161	159	157	156	155	155	154	156	157	159	161	162	162	164	167	167	166
138	137	131	125	122	120	122	125	127	129	130	132	134	136	139	141	143	144	145	148	150	151	152	152	153	154	155	155	154	150	148	147	147	148	147	145	143	142	142	142	142	142	142	142	140	136	133	132	131	134	139	140	140	139	137	135	133	129	126	123	120	117	115	116	117	117	117	117	117	116	114	111	107	104	101	99	97	94	91	91	91	84	79	74	68	67	67	69	71	70	67	68	68	67	66	65	66	66	63	61	61	61	61	61	60	61	61	60	57	53	50	50	50	52	61	65	62	54	46	43	41	38	37	36	36	35	35	35	34	30	28	29	31	31	31	30	29	29	29	28	28	28	28	28	28	28	28	28	28	28	28	28	28	28	28	28	28	28	28	28	28	28	28	28	27	27	27	27	26	25	23	22	21	21	21	21	20	21	21	20	18	17	18	20	20	21	21	20	18	17	18	18	19	20	21	22	23	24	23	23	22	21	19	17	15	14	13	12	11	11	10	10	10	11	11	11	10	10	11	10	10	9	9	9	9	9	9	9	9	10	10	10	10	10	10	10	10	10	10	9	9	9	8	8	8	8	7	7	7	7	8	8	8	8	8	8	8	8	8	8	8	8	8	8	8	8	8	8	8	8	8	8	8	8	8	8	8	8	9	9	13	21	23	20	14	13	13	14	17	16	9	10	14	17	19	21	21	15	12	11	10	9	7	7	7	7	8	7	7	7	7	7	7	7	7	7	7	7	7	7	7	7	7	7	7	7	7	7	7	7	7	7	7	7	6	6	7	7	11	18	19	19	14	12	16	19	19	20	22	24	23	23	25	28	28	28	28	29	29	31	32	32	31	29	27	27	30	29	28	25	24	23	23	24	25	26	27	27	28	28	30	32	33	34	35	36	37	39	42	43	41	41	38	30	29	30	31	31	31	31	31	31	31	31	31	31	31	31	31	32	34	38	46	51	52	52	51	51	50	51	56	62	63	62	52	48	47	48	49	51	53	56	64	70	73	75	78	86	89	83	80	80	80	81	82	82	80	76	72	72	71	71	71	70	67	66	64	63	62	62	62	61	60	57	54	53	53	54	57	58	58	56	54	55	56	55	57	64	66	64	63	63	63	63	65	68	73	76	79	83	86	90	94	98	101	102	104	109	114	117	116	117	118	119	121	122	122	123	125	128	130	132	133	135	136	137	136	136	136	140	144	146	146	146	146	147	149	150	151	151	152	154	157	159	162	164	167	170	173	177	182	186	190	194	197	199	202	204	205	205	205	205	204	202	199	195	192	189	186	183	181	179	176	172	170	167	165	163	159	156	153	151	149	149	148	147	147	147	147	146	147	147	147	145	149	151	151	154	154	153	152	149	142	139	137	135	134	133	132	131	131	131	130	128	125	124	123	120	118	117	114	112	106	99	96	95	94	94	93	93	93	95	100	99	96	98	103	105	106	105	105	106	108	109	111	113	116	118	121	123	126	130	133	136	138	138	137	136	135	136	137	140	142	143	143	144	147	150	153	154	154	154	155	156	156	157	157	157	157	157	157	157	157	158	160	162	162	157	152	149	148	146	145	145	147	148	149	149	151	154	158	161	163	164	165	165	165	168	174	178	181	185	188	190	192	195	196	195	194	197	200	204	208	210	212	216	221	225	227	229	233	235	237	239	242	245	248	250	252	253	253	252	250	248	246	243	241	240	241	242	244	245	246	247	247	247	247	246	246	246	246	245	243	240	237	234	232	230	227	224	221	218	216	213	209	206	204	201	199	197	197	197	196	194	192	190	189	187	185	183	183	182	182	182	183	183	184	187	193	196	197	198	199	200	201	203	205	208	210	212	215	217	219	222	224	227	229	232	236	240	243	245	248	250	252	253	253	254	255	256	257	259	262	265	268	270	272	274	275	276	277	277	277	277	277	277	278	279	279	280	280	281	282	284	285	287	289	291	291	291	289	287	285	283	281	279	276	274	270	266	263	261	260	259	257	255	253	251	249	248	246	243	241	238	236	234	233	231	229	226	224	221	217	214	210	208	205	203	200	198	194	191	189	187	184	182	181	180	179	177	174	172	170	168	166	163	161	160	160	159	158	156	154	153	152	153	154	155	156	157	157	157	157	159	161	162	161
133	130	125	122	120	120	121	124	126	127	129	131	133	135	137	138	141	142	143	145	146	145	145	146	147	148	148	149	150	149	149	151	152	152	148	145	144	143	143	144	142	142	142	142	141	139	138	137	135	138	142	142	141	139	136	134	133	128	124	123	119	115	115	117	118	118	119	119	119	117	116	114	110	107	103	101	100	98	95	93	92	86	81	77	74	70	67	66	66	66	66	68	69	69	68	66	68	64	60	60	61	61	61	61	61	61	61	61	60	56	51	50	49	51	55	65	65	54	45	44	42	40	39	37	36	36	36	35	35	32	29	28	30	31	31	30	29	29	29	29	28	28	28	28	28	28	28	28	28	28	28	28	28	28	28	28	28	28	28	28	28	28	28	28	28	27	27	27	27	26	25	23	21	21	21	21	20	21	22	21	20	18	19	20	21	22	24	24	22	20	18	19	19	20	20	21	23	24	24	23	23	21	19	17	16	14	13	12	11	10	10	10	10	11	11	11	10	10	10	10	9	9	9	9	9	9	9	9	10	10	10	10	10	10	10	10	10	10	10	10	9	9	9	9	8	8	7	7	7	7	8	8	8	8	8	8	8	8	8	8	8	8	8	8	8	8	8	8	8	8	8	8	8	8	8	8	8	8	9	12	16	21	23	16	13	13	13	13	18	11	7	7	7	8	10	14	17	16	15	14	13	12	9	7	8	9	8	7	7	7	7	7	7	7	7	7	7	7	7	7	7	7	7	7	7	7	7	7	7	7	7	7	7	7	7	6	6	6	7	8	9	15	19	20	22	15	10	15	18	19	21	21	25	28	28	28	28	29	31	32	33	32	31	28	28	31	33	33	32	30	26	24	25	26	27	27	28	29	29	30	32	33	34	35	36	38	37	39	38	40	40	41	40	33	29	30	31	31	31	31	31	31	31	31	31	31	31	31	33	36	46	51	55	56	55	55	54	53	52	52	57	62	62	59	51	48	47	48	49	51	53	55	63	70	73	78	84	89	90	83	81	81	80	81	82	82	79	75	71	71	71	69	68	67	66	65	63	62	62	62	62	62	60	56	54	52	52	52	55	57	55	52	53	58	61	57	59	64	66	64	63	65	65	63	65	68	73	75	79	85	88	90	93	97	100	102	105	111	117	119	119	120	122	123	123	124	124	124	126	129	131	132	134	136	138	139	138	137	139	142	145	147	149	148	147	147	149	150	151	152	153	155	157	159	162	164	167	170	174	178	182	187	191	194	197	200	202	204	205	205	205	205	205	204	202	199	195	191	187	184	182	180	177	173	171	168	166	164	162	158	154	151	149	148	148	147	147	149	148	148	150	153	151	146	151	151	148	151	151	150	149	146	142	140	138	134	133	133	131	130	130	130	129	126	123	121	120	118	117	116	112	108	103	97	96	94	93	92	92	92	93	97	100	100	97	100	104	106	106	105	105	107	108	109	111	114	117	119	121	124	128	131	134	137	138	138	137	135	135	135	137	140	142	143	143	143	145	148	151	152	151	152	153	154	156	157	158	157	156	155	156	156	156	157	159	161	160	155	151	149	146	143	143	144	145	146	148	149	151	153	156	160	162	163	163	163	163	165	171	176	177	179	183	186	187	190	193	192	192	195	199	203	207	209	212	215	220	224	226	228	231	233	235	238	241	244	246	248	250	250	250	250	248	246	244	240	238	237	237	239	241	242	243	243	243	243	244	243	243	243	243	242	241	238	235	233	231	229	226	223	220	218	215	212	209	206	203	200	198	196	196	196	195	194	191	188	185	184	183	183	183	182	182	182	183	183	183	187	195	197	198	199	199	200	202	204	206	208	210	213	216	218	220	223	226	228	231	234	237	240	243	245	247	248	249	250	251	251	252	254	255	256	259	264	268	270	273	275	277	278	279	279	279	279	279	280	280	281	282	282	283	284	285	286	287	289	290	291	291	290	288	285	283	281	280	278	277	275	273	268	265	263	262	260	259	257	255	254	252	250	247	244	241	238	235	233	230	227	225	224	221	219	216	212	210	207	205	203	200	197	193	190	187	184	181	179	178	176	176	174	172	171	169	167	165	163	161	160	159	158	157	155	152	151	149	151	153	154	155	155	156	157	157	157	158	159	160
129	125	123	121	120	120	122	124	125	127	128	130	132	134	135	136	139	143	143	144	144	143	143	144	145	146	147	146	145	142	146	154	155	150	148	147	148	147	144	146	145	142	142	142	142	141	141	141	141	142	143	142	140	138	135	133	132	127	123	122	119	114	116	120	120	119	121	122	121	119	117	116	113	110	105	103	102	101	99	96	94	93	90	84	82	78	72	67	66	65	65	67	68	68	67	66	66	64	61	60	61	61	61	61	61	61	60	61	61	58	53	50	49	50	52	61	64	55	46	44	42	42	42	40	36	36	36	36	35	34	32	29	29	31	31	31	30	30	30	30	29	28	28	28	28	28	28	28	28	28	28	28	28	28	28	28	28	28	28	28	28	28	28	28	28	28	28	27	27	27	26	24	22	21	21	21	20	21	23	23	21	19	19	19	22	25	28	28	25	22	19	19	20	20	20	20	22	23	23	24	24	23	20	18	16	14	13	12	10	10	10	10	10	11	11	11	10	10	9	9	9	9	9	9	9	9	9	9	10	10	10	10	10	10	10	10	10	10	9	9	9	9	9	9	9	8	8	8	8	7	7	7	7	7	7	8	8	8	8	8	8	8	8	8	8	8	8	8	8	8	8	8	8	8	8	8	8	8	9	14	20	21	21	14	12	13	12	14	15	8	7	7	7	7	7	7	8	11	14	16	14	14	10	7	8	9	9	8	7	7	7	7	7	7	7	7	7	7	7	7	7	7	7	7	7	7	7	7	7	7	7	7	7	7	6	6	6	6	6	6	6	8	14	20	17	9	8	10	12	14	18	20	24	28	29	29	29	29	31	34	34	32	31	25	25	31	34	33	32	29	24	25	26	26	28	29	30	31	32	33	34	35	35	36	38	38	36	31	31	35	40	42	42	36	30	30	31	31	31	31	31	31	31	31	31	31	34	37	42	50	55	56	57	57	58	57	56	54	53	53	56	61	60	57	52	48	47	47	47	50	54	55	60	70	73	82	89	91	89	84	83	82	81	81	82	81	77	74	71	71	71	68	66	66	67	67	65	62	61	60	62	61	57	53	51	51	51	53	56	59	55	52	52	58	62	59	60	64	66	64	64	66	65	64	65	68	71	74	80	86	88	89	92	95	98	103	108	113	118	121	122	124	127	126	125	125	125	126	128	130	131	132	134	136	138	138	137	138	141	144	146	148	150	150	149	149	149	151	152	153	154	155	157	159	162	164	166	170	175	179	183	187	191	194	197	199	202	204	205	205	205	205	205	205	205	202	198	193	189	186	183	181	178	174	172	169	167	165	163	160	156	152	149	148	147	148	150	154	153	153	154	151	146	145	150	149	144	143	145	147	146	145	144	143	141	138	133	132	131	130	130	129	128	124	121	119	117	116	115	113	109	104	100	97	96	94	92	91	90	90	92	98	101	100	97	102	105	106	106	106	106	107	108	110	113	116	118	121	123	127	130	133	135	138	138	137	136	134	134	135	137	140	142	143	143	143	144	146	148	149	148	149	150	152	154	156	157	156	155	154	155	155	155	156	157	157	156	153	150	147	144	141	142	144	144	145	147	149	151	153	155	158	159	159	159	161	162	164	167	172	174	175	179	182	182	184	188	189	190	195	198	201	205	208	211	214	219	223	225	227	230	232	234	237	239	242	245	246	248	248	248	248	246	244	241	237	235	233	233	235	238	239	239	239	239	239	239	239	239	238	238	237	236	234	232	231	229	227	225	222	220	218	215	213	209	207	204	201	198	196	196	196	195	194	192	188	184	183	183	183	182	182	182	182	183	183	184	188	195	197	198	199	200	201	203	205	207	209	211	214	217	220	222	225	227	230	232	235	237	239	241	243	245	246	247	247	247	248	248	250	253	256	258	262	266	270	273	275	278	279	280	281	280	280	281	281	282	282	283	284	285	286	287	288	289	290	291	291	290	288	286	283	280	279	278	277	277	276	274	271	268	266	265	263	262	260	258	257	255	252	249	245	242	238	235	232	228	225	223	222	220	219	216	213	210	208	207	204	201	197	194	190	187	183	180	178	176	175	174	173	171	170	168	167	165	164	163	161	160	159	157	156	154	152	149	151	152	153	153	154	156	157	158	158	159	160	161
127	125	122	120	119	120	122	124	126	127	127	128	130	132	133	134	138	141	142	141	140	140	140	140	142	144	147	146	141	136	138	144	147	145	146	145	150	152	151	151	147	143	142	142	141	142	143	143	143	143	143	142	140	138	136	134	131	127	124	124	120	117	120	123	122	122	123	124	123	121	119	118	115	112	108	105	103	103	101	98	97	96	94	90	85	83	79	72	66	65	65	65	65	65	64	66	71	69	63	61	61	61	61	61	61	61	61	60	61	59	55	51	49	50	51	54	59	52	45	43	42	43	44	42	38	36	36	36	36	35	34	31	29	29	31	31	31	30	30	30	29	28	28	28	28	28	28	28	28	28	28	28	29	29	28	28	28	28	28	28	28	28	28	28	28	28	28	28	27	27	27	27	25	23	22	21	20	21	22	23	22	21	19	19	21	26	28	27	25	22	20	20	21	20	19	19	21	22	23	25	26	24	20	17	15	14	13	12	10	10	10	10	10	10	11	11	11	10	10	10	9	9	9	9	9	9	9	10	11	10	9	10	10	10	10	10	10	9	9	9	9	9	9	9	9	8	8	8	8	8	7	7	7	7	7	7	7	7	8	8	8	8	8	8	8	8	8	8	8	8	8	8	8	8	8	8	8	8	9	15	20	20	16	12	12	12	13	16	11	7	7	7	7	7	7	7	7	7	7	9	9	10	8	7	7	8	8	8	7	7	7	7	7	7	7	7	7	7	7	7	7	7	7	7	7	7	7	7	7	7	7	7	7	6	6	6	6	6	6	6	6	6	8	12	12	8	7	8	8	9	14	18	24	28	29	29	29	29	30	33	34	31	28	24	22	27	31	31	30	25	22	23	24	26	28	30	32	34	35	36	36	36	37	38	39	40	34	28	28	32	40	43	43	38	32	30	31	31	31	31	31	31	31	32	33	38	45	50	53	57	57	57	57	58	58	58	57	55	55	54	56	60	59	57	55	49	47	47	47	49	53	56	62	70	74	82	88	89	88	87	85	82	81	82	83	81	76	73	71	72	70	65	64	66	69	69	65	62	60	59	61	60	54	51	51	52	53	57	63	64	61	53	52	57	60	59	60	64	65	64	63	64	64	64	65	67	70	74	82	86	88	89	92	94	97	104	110	114	118	121	123	125	127	128	126	126	127	128	129	130	131	132	133	134	135	136	136	138	142	145	147	148	150	150	150	150	150	151	152	153	154	155	157	159	161	163	166	170	175	180	184	188	191	193	196	199	201	204	205	205	205	205	205	205	205	204	199	195	191	188	184	181	178	175	172	170	168	165	163	161	158	153	149	148	148	150	154	156	154	152	149	147	143	142	145	144	142	140	143	145	145	146	146	145	143	141	134	130	130	130	130	129	127	124	120	118	115	114	113	110	106	103	99	96	95	94	92	90	89	89	92	98	104	101	97	102	104	106	106	106	106	107	108	111	114	116	119	122	126	129	132	135	137	137	137	136	134	134	134	135	137	140	142	143	143	143	143	144	144	145	145	146	148	150	151	153	155	154	153	153	154	154	155	155	155	155	154	151	148	146	142	140	142	144	144	144	146	148	151	153	155	156	157	156	156	158	161	162	165	169	172	173	174	176	177	177	181	185	188	193	197	200	203	206	209	213	219	222	223	225	228	231	233	235	238	241	243	244	246	246	246	246	244	242	238	235	232	230	230	232	234	235	235	235	235	235	234	234	234	234	233	232	231	230	229	228	227	225	223	221	219	217	215	213	210	208	205	202	199	197	196	195	195	194	193	189	184	182	183	182	182	182	182	182	183	183	185	189	193	196	198	200	201	202	204	206	208	210	213	215	218	221	224	226	229	231	233	235	237	238	239	240	242	243	244	244	244	245	246	248	252	256	258	261	265	269	272	275	278	280	281	281	281	281	281	282	282	283	284	285	286	287	288	289	290	291	291	290	289	287	283	280	277	276	275	275	275	275	275	273	272	270	268	266	264	262	260	258	256	253	249	246	242	238	235	231	228	224	223	222	221	220	218	215	213	211	209	206	203	199	195	191	187	184	181	178	176	175	174	173	171	170	168	167	166	165	165	164	162	161	160	158	157	154	150	149	149	150	151	152	155	156	157	159	160	160	160
122	122	120	119	119	120	122	124	127	128	128	127	128	129	130	131	135	138	138	137	136	136	137	136	136	139	143	141	136	133	135	136	135	138	142	139	142	149	149	148	143	142	141	142	145	145	145	145	144	143	143	142	141	140	138	136	132	128	127	128	122	120	123	124	124	124	125	125	125	123	122	119	117	113	110	107	105	103	102	99	99	99	95	92	88	83	80	74	67	65	65	65	64	64	64	65	71	73	66	61	60	61	61	61	60	60	61	60	61	60	58	52	50	50	51	52	53	47	43	42	40	42	45	45	41	37	36	36	36	36	35	33	29	28	30	31	31	31	30	30	30	29	28	28	28	28	28	28	28	28	28	28	28	28	28	28	28	28	28	28	28	28	28	28	28	28	28	28	27	27	28	28	27	26	25	23	21	20	20	21	22	22	21	21	21	24	27	25	22	22	21	21	21	21	20	19	20	21	22	26	30	26	20	16	15	15	14	12	10	9	9	9	9	9	10	11	11	10	10	10	10	9	9	9	9	9	9	10	10	9	8	9	10	10	10	10	10	9	9	9	9	9	9	9	9	8	7	7	8	8	7	7	7	7	7	7	7	7	7	7	7	7	8	8	8	8	8	8	8	8	8	8	8	8	8	8	8	8	9	12	17	17	12	11	12	12	15	18	8	7	7	7	7	7	7	7	7	7	7	7	7	7	7	7	7	7	7	7	7	7	7	7	7	7	7	7	7	7	7	7	7	7	7	7	7	7	7	7	7	7	7	7	7	6	6	6	6	6	6	6	6	6	6	7	9	8	8	7	8	8	10	14	22	27	28	28	29	28	28	28	26	24	23	22	21	22	23	22	21	20	19	20	22	25	28	31	33	36	37	37	36	35	36	38	39	39	31	27	28	37	43	44	41	37	33	31	31	31	31	31	31	32	35	40	46	50	52	54	56	57	56	53	49	49	49	54	56	56	56	56	57	59	60	59	57	51	47	47	47	47	48	55	65	70	72	80	87	88	88	88	87	83	80	82	83	79	75	73	71	70	68	65	64	67	68	67	64	61	59	58	59	58	53	51	51	53	54	61	65	66	63	55	55	57	58	57	60	63	64	63	62	63	63	65	66	68	70	75	84	86	88	91	93	95	97	103	109	113	115	117	120	123	126	128	127	126	127	130	131	130	131	132	132	132	133	134	135	137	141	144	145	146	148	150	150	151	151	152	152	153	154	155	157	159	161	164	167	170	175	180	184	187	190	192	195	198	201	204	205	205	205	205	205	205	205	204	200	196	193	190	185	181	179	176	173	171	169	167	164	161	158	153	149	148	148	152	154	153	150	147	145	143	141	140	141	141	142	142	145	146	147	147	147	146	143	140	133	129	129	130	130	129	127	124	121	118	115	114	112	108	105	101	97	94	93	93	93	91	90	89	90	95	103	103	97	100	104	105	107	106	106	107	108	111	114	117	121	124	128	131	134	136	137	137	136	134	133	133	133	135	138	141	142	143	143	143	143	143	143	143	143	144	146	148	150	152	152	152	152	152	152	152	153	153	152	152	152	149	147	143	141	139	141	143	143	144	145	148	150	152	154	156	155	154	154	157	160	161	163	168	171	171	171	171	173	174	177	181	185	190	194	198	201	204	208	211	215	219	221	223	226	229	231	234	236	239	240	242	243	244	244	243	242	240	237	234	231	229	228	229	230	231	231	232	232	231	231	231	231	231	230	229	228	228	227	226	225	223	221	220	218	217	215	212	210	208	205	202	200	198	196	195	195	194	193	189	183	182	182	182	181	182	182	182	182	183	186	190	194	196	198	200	201	203	205	207	209	211	213	216	220	223	225	227	230	231	233	235	235	236	237	238	239	239	240	240	241	243	245	247	252	256	258	261	265	269	272	275	278	279	280	281	281	281	281	281	282	283	283	285	286	287	288	289	290	291	290	290	288	285	282	278	275	273	272	272	273	274	274	274	273	272	270	268	265	263	260	259	256	253	249	246	243	239	235	232	229	226	224	223	223	222	220	218	216	213	211	207	204	200	196	192	188	185	183	180	177	176	174	173	171	170	169	168	167	167	166	166	164	163	162	160	158	154	150	146	146	148	148	150	152	153	155	157	159	159	158
118	118	117	118	118	120	123	125	127	128	128	127	126	127	128	129	131	134	134	134	134	134	134	133	131	132	134	132	132	131	132	131	129	130	132	132	134	136	138	139	141	141	141	148	155	155	152	148	145	144	143	142	142	141	140	137	134	130	128	127	124	124	126	126	127	127	127	127	126	125	123	120	117	114	111	107	105	103	101	100	97	95	93	91	87	82	78	74	70	66	65	65	64	64	64	64	65	70	67	62	61	61	61	60	60	60	60	61	61	61	60	55	51	51	51	53	50	45	43	41	39	40	44	45	44	39	36	36	37	36	36	35	31	27	28	30	31	31	30	30	30	30	29	28	28	28	28	28	28	28	28	28	28	28	28	28	28	28	28	28	28	28	28	28	28	28	28	28	28	28	28	28	28	28	27	25	23	21	20	20	21	22	22	22	21	21	21	21	20	21	21	21	22	22	21	20	20	21	21	24	29	25	18	15	15	16	16	12	9	9	9	9	9	9	9	10	10	11	11	10	10	9	9	9	9	9	9	9	8	7	7	8	9	9	9	9	9	8	8	9	9	9	9	9	9	8	7	7	8	8	8	8	7	7	7	7	7	7	7	7	7	7	7	7	7	7	7	8	8	8	8	8	8	8	8	8	8	8	8	9	11	11	11	11	11	12	17	14	7	7	7	7	7	7	7	7	7	7	7	7	6	6	7	7	7	7	7	7	7	7	7	7	7	7	7	7	7	7	7	7	7	7	7	7	7	7	7	7	7	7	7	7	6	6	6	6	6	6	6	6	6	6	6	6	8	9	8	7	7	8	8	13	22	26	27	27	27	26	24	20	17	18	20	20	20	20	19	18	16	17	17	18	22	26	29	32	36	38	38	36	34	33	35	38	39	37	29	27	29	40	43	42	37	34	32	31	31	31	31	33	36	40	47	51	54	54	53	54	55	53	47	42	40	40	40	42	48	55	56	56	56	58	58	58	58	54	48	47	47	47	47	55	64	69	72	78	86	88	88	89	89	85	82	83	81	77	74	73	70	69	67	66	65	67	67	65	61	59	59	58	57	56	52	51	52	53	55	61	65	65	62	56	56	55	52	54	59	61	62	62	62	62	63	65	67	69	71	75	84	87	90	93	94	95	97	101	106	110	112	115	118	122	125	127	126	125	127	130	131	130	131	131	131	132	132	133	134	135	139	142	143	143	145	148	149	150	151	151	152	153	154	156	158	160	162	165	167	170	174	178	182	186	189	192	195	197	201	204	205	205	205	205	205	205	205	205	202	197	194	191	186	182	178	176	174	172	170	167	164	161	157	152	149	148	148	152	152	149	147	144	142	142	140	139	139	142	143	145	147	148	148	148	147	145	142	138	129	125	126	128	129	129	127	125	121	119	116	114	112	108	103	100	96	94	93	94	95	94	92	91	91	92	100	102	96	97	102	105	106	106	106	107	109	111	116	120	123	126	129	132	135	137	137	136	135	133	133	133	133	135	138	141	143	143	143	143	143	143	143	143	143	143	144	145	148	149	149	149	149	150	149	150	150	150	150	150	150	147	144	141	138	138	140	142	142	143	145	147	150	152	154	154	152	151	152	155	158	159	161	165	168	169	169	169	170	172	175	178	181	186	192	196	199	202	205	207	210	215	219	221	223	226	229	232	234	236	238	239	241	242	242	241	239	237	235	233	230	227	226	225	226	228	228	228	229	228	228	228	228	229	227	226	225	226	225	224	222	220	218	217	217	215	214	212	210	208	205	203	201	199	197	196	195	195	193	189	184	182	182	181	181	182	182	182	183	185	188	192	195	197	198	199	200	201	203	206	209	211	214	217	221	223	225	227	230	231	232	233	234	234	234	235	236	236	236	237	240	242	245	247	252	256	259	262	266	269	272	275	277	278	279	279	279	279	279	279	280	281	282	284	285	286	287	289	290	290	290	289	286	284	281	277	274	272	269	268	270	272	273	274	274	273	271	268	265	262	260	258	256	252	249	246	244	241	238	234	231	228	226	225	224	223	222	220	218	215	212	207	203	200	196	193	189	186	184	181	179	177	175	174	172	171	170	169	168	168	168	167	166	165	163	162	159	155	150	146	145	147	147	147	148	149	150	152	154	155	155
117	117	119	119	119	121	123	125	128	128	128	128	127	126	126	128	130	130	131	133	133	131	131	130	128	127	126	127	128	128	128	127	126	125	125	126	129	132	134	137	139	141	141	150	157	158	157	151	145	144	143	143	142	142	141	139	136	133	130	128	126	126	129	130	130	130	130	129	128	127	124	121	117	113	110	107	105	103	101	100	97	93	91	88	86	83	80	77	75	70	66	65	64	64	64	64	63	64	65	65	63	62	61	61	61	61	60	61	61	60	61	58	54	51	51	52	50	46	43	41	39	39	41	44	43	41	38	36	36	37	37	36	34	29	27	29	31	31	30	30	30	30	29	28	28	28	28	28	28	28	28	28	28	28	28	28	28	28	28	28	28	28	28	28	28	28	28	28	28	28	28	28	28	28	28	26	24	22	21	20	21	21	21	21	21	20	18	18	17	17	17	20	22	22	20	19	19	20	21	21	23	22	17	13	13	17	17	12	11	11	10	9	9	9	9	9	10	10	10	10	10	9	9	9	9	9	9	8	7	7	7	7	7	8	8	8	8	7	8	9	9	9	9	9	9	8	7	7	8	8	8	8	8	8	8	7	7	7	7	7	7	7	7	7	7	7	7	7	7	7	8	8	8	8	8	8	8	8	8	9	10	10	10	11	11	13	18	10	7	7	7	7	7	7	7	7	7	7	7	7	7	7	7	7	7	7	7	7	7	7	7	7	7	7	7	7	7	7	7	7	7	7	7	7	7	7	7	7	7	7	7	7	6	6	6	6	6	6	6	6	6	6	6	6	7	10	11	10	8	8	8	12	21	25	27	26	25	23	20	17	15	17	18	18	19	19	19	18	18	18	17	20	23	27	30	34	38	39	37	34	33	33	35	38	38	33	27	27	34	42	41	37	36	35	33	31	31	33	40	44	47	50	52	54	55	55	53	49	46	42	40	40	39	39	39	40	41	50	56	56	56	55	56	57	57	55	49	47	47	47	46	54	63	68	71	76	82	87	88	89	89	86	84	83	79	75	74	72	71	70	68	68	67	66	65	62	58	57	59	59	57	55	52	51	52	54	54	57	61	59	57	56	55	51	50	52	56	59	61	62	62	62	64	66	68	70	72	75	83	87	90	93	95	96	97	100	104	108	111	114	118	121	124	126	126	127	129	130	131	131	131	132	132	132	132	132	132	133	137	139	139	140	143	146	148	149	150	151	153	154	155	157	159	161	163	166	168	171	174	177	181	184	188	191	195	198	201	204	205	205	205	205	205	205	205	205	203	199	194	191	187	182	179	176	175	173	171	168	165	161	157	152	149	148	148	151	152	148	144	141	141	141	141	139	140	144	145	146	148	149	149	148	147	145	141	132	124	122	122	124	125	125	126	125	122	120	117	115	112	107	103	100	99	96	94	95	96	96	95	94	95	95	96	99	95	95	100	103	105	106	107	108	111	113	118	123	125	128	130	132	135	136	136	135	134	132	132	132	133	135	138	141	143	143	143	143	143	143	143	143	143	143	143	143	144	144	145	146	147	146	145	146	146	145	146	148	147	143	140	138	136	137	139	141	142	144	145	147	149	151	152	150	148	147	148	151	154	156	157	161	164	166	167	166	167	170	174	176	178	184	190	194	196	198	202	205	207	211	215	219	222	224	226	230	233	234	235	237	238	239	238	238	237	235	234	232	230	226	224	223	223	224	225	225	225	225	225	225	225	224	224	223	223	223	223	222	220	218	216	214	214	213	212	211	209	208	205	203	202	200	199	197	196	195	193	190	185	183	182	181	181	182	183	184	186	187	190	193	195	196	197	197	198	199	200	204	208	211	214	218	221	223	225	227	229	230	231	231	231	231	231	232	233	234	235	237	240	242	245	249	253	257	260	263	266	270	272	274	276	277	277	277	276	275	275	276	276	277	278	281	283	285	286	288	289	289	289	287	285	282	280	277	273	270	266	264	265	269	271	272	272	272	270	267	264	261	258	256	254	252	249	247	245	242	240	237	234	232	230	229	227	225	223	221	219	217	213	208	203	200	197	194	191	188	185	182	180	178	176	175	173	172	171	171	170	169	169	168	167	165	164	162	159	156	152	147	145	148	147	145	145	145	146	146	148	150	151
117	118	121	122	122	123	124	126	129	129	128	129	128	128	129	129	130	130	130	132	130	128	127	127	127	126	123	122	123	122	122	122	122	123	123	124	126	129	132	135	138	140	141	144	153	158	157	149	145	144	144	143	143	142	142	140	139	137	134	132	131	132	135	135	133	132	132	131	130	129	126	122	117	113	109	106	105	103	102	102	99	94	91	88	87	86	84	82	81	77	71	67	66	64	64	63	63	63	63	64	63	62	62	63	63	63	61	60	61	60	61	60	57	51	49	51	50	46	43	41	39	39	40	43	43	43	41	38	37	37	37	36	35	33	30	27	29	31	31	30	30	30	29	29	28	28	28	28	28	28	28	28	28	28	28	28	28	28	28	28	28	28	28	28	28	28	28	28	28	28	28	28	28	28	28	27	26	24	22	21	20	20	20	20	20	20	18	16	15	12	14	19	20	20	18	17	18	20	21	21	22	21	18	13	14	15	15	14	17	18	14	10	9	9	9	9	9	9	10	10	10	9	9	9	9	9	8	7	7	7	7	7	7	7	7	7	7	7	7	8	9	9	9	9	9	8	8	8	8	8	8	8	8	8	8	8	8	7	7	7	7	7	7	7	7	7	7	7	7	7	7	8	8	8	8	8	8	8	9	9	9	10	10	11	11	15	15	8	7	7	7	7	7	7	7	7	7	7	7	7	7	7	7	7	7	7	7	7	7	7	7	7	7	7	7	7	7	7	7	7	7	7	7	7	7	7	7	7	7	7	7	6	6	6	6	6	6	6	6	6	6	6	6	6	7	14	18	15	8	8	9	14	20	24	25	24	22	19	16	12	11	11	12	12	15	18	19	19	19	19	19	21	25	28	31	35	38	40	36	33	34	35	38	39	36	29	27	29	38	41	37	36	40	41	39	35	34	38	50	52	54	53	54	56	57	55	46	41	40	40	39	40	40	40	40	39	40	44	54	56	55	54	54	56	57	55	49	47	47	47	47	53	62	67	70	73	78	85	88	89	88	86	84	82	78	75	73	73	73	72	69	68	66	63	61	59	58	57	58	57	56	54	51	51	52	52	53	52	52	51	51	52	50	49	51	51	52	54	60	62	62	62	65	67	69	71	72	75	83	88	91	94	96	98	99	102	106	109	110	113	117	121	123	125	127	131	133	132	131	131	132	132	132	131	131	131	131	132	134	135	135	136	141	145	147	149	150	151	153	155	156	158	160	162	165	167	169	171	174	177	180	183	187	192	196	199	202	205	205	205	205	205	205	205	205	205	203	199	194	190	186	182	179	177	176	175	172	169	165	161	156	152	150	148	147	149	152	146	141	139	140	140	141	141	142	145	146	146	147	148	148	148	146	144	138	126	122	120	119	119	120	122	123	123	122	120	118	116	113	109	104	101	101	99	96	95	96	98	98	97	97	98	99	96	94	94	99	102	104	106	108	110	112	115	119	123	125	127	128	131	133	135	135	134	133	132	131	132	133	136	139	141	143	143	143	143	143	143	143	143	143	143	143	143	142	142	144	147	146	143	142	143	143	142	143	143	141	138	135	134	133	134	137	140	142	143	145	146	148	149	149	147	145	145	146	148	151	153	152	155	159	162	163	163	164	167	171	175	178	183	188	190	193	196	200	204	206	208	212	217	220	222	224	227	230	231	232	233	234	235	235	235	235	233	232	231	228	225	222	221	220	221	222	222	222	222	222	222	221	220	219	220	220	221	221	220	218	216	213	212	211	211	210	209	208	207	205	204	202	201	200	199	197	195	193	191	187	185	183	182	182	182	184	186	188	189	191	193	194	195	196	197	198	199	200	203	206	211	214	217	221	223	224	226	227	228	228	229	229	229	229	230	232	233	235	237	240	243	246	250	254	258	261	264	267	269	271	273	275	275	275	274	273	273	272	272	272	273	275	278	280	282	285	287	288	288	287	285	282	280	278	275	271	268	264	262	262	265	268	270	270	270	268	266	263	258	254	252	252	250	249	248	246	244	242	239	237	235	233	232	229	227	224	222	220	218	214	209	204	201	198	195	192	189	186	183	180	178	176	175	174	173	172	172	171	170	170	168	166	165	163	161	159	157	154	148	146	146	145	144	143	143	143	144	145	146	147
119	119	121	123	124	126	127	129	131	131	131	131	131	132	134	134	132	131	131	130	128	126	125	125	126	124	120	119	118	117	117	118	120	121	122	123	124	126	129	133	135	138	140	140	144	152	152	146	145	144	144	144	144	143	143	142	141	140	138	136	135	137	140	140	139	137	135	134	132	131	127	123	118	113	109	107	105	104	104	104	103	98	93	90	88	87	87	87	84	82	78	73	69	67	65	64	64	63	63	62	62	62	62	63	64	63	61	60	61	61	61	61	60	54	51	52	49	45	42	40	39	40	42	43	43	44	44	42	40	38	37	37	36	35	33	27	27	30	31	30	30	30	30	29	29	28	28	28	28	28	28	28	28	28	28	28	28	28	28	28	28	28	28	28	28	28	28	28	28	28	28	28	28	28	28	28	26	25	24	22	20	20	20	20	20	20	20	18	17	13	12	16	18	15	11	13	16	20	22	22	21	22	20	16	16	15	12	12	17	17	13	10	8	9	9	9	9	9	9	9	9	9	9	9	9	9	8	7	7	7	7	7	7	7	7	7	7	7	7	8	9	9	9	9	9	8	8	8	8	8	8	8	8	8	8	8	8	8	7	7	7	7	7	7	7	7	7	7	7	7	7	7	8	8	8	8	8	9	9	9	9	10	10	10	11	15	10	7	7	7	7	7	7	7	7	7	7	7	7	7	7	7	7	7	7	7	7	7	7	7	7	7	7	7	7	7	7	7	7	7	7	7	7	7	7	7	7	7	7	7	7	6	6	6	6	6	6	6	6	6	6	6	6	6	6	10	19	17	9	8	11	19	22	22	22	21	20	16	12	8	8	7	7	8	9	14	20	20	19	19	20	22	26	29	32	35	37	38	36	34	35	39	41	41	33	27	27	32	41	43	39	39	43	44	45	45	46	48	53	55	56	55	56	57	58	54	42	39	39	39	39	40	39	39	39	40	39	41	50	56	54	53	52	54	57	56	50	47	47	47	46	50	57	61	66	71	77	82	85	88	87	86	83	80	76	75	73	73	74	72	68	66	65	62	61	60	59	59	60	59	56	53	51	51	50	49	49	49	49	48	48	48	47	48	50	51	51	53	59	63	63	64	66	68	70	71	72	75	82	91	94	95	97	98	99	103	107	109	111	114	117	121	123	124	129	134	135	135	134	132	131	131	131	131	131	131	131	131	132	132	133	135	140	145	147	149	150	151	154	156	157	158	160	163	165	167	169	171	174	176	180	183	188	193	197	201	204	205	205	205	205	205	205	205	205	204	202	198	193	189	185	182	179	178	177	176	173	170	166	162	157	153	150	149	147	146	147	143	139	138	138	138	139	141	143	144	145	146	147	147	147	147	145	142	134	124	120	118	116	117	117	118	120	121	122	121	118	116	114	110	106	102	101	99	96	96	97	99	99	98	97	98	98	96	95	94	98	102	103	106	108	112	114	115	118	121	124	125	127	129	132	133	133	133	132	131	131	132	134	137	140	142	143	143	143	143	143	143	143	143	143	143	143	143	142	142	143	145	144	142	141	141	140	141	141	139	137	135	133	131	131	133	135	139	141	142	144	146	147	146	146	145	144	144	144	146	149	151	151	152	155	158	159	160	161	164	168	173	177	180	184	187	190	193	197	202	205	207	210	214	218	219	221	224	226	227	229	230	231	231	232	232	232	232	231	229	227	224	221	219	218	218	219	219	220	220	220	219	217	216	216	217	218	219	219	218	217	214	212	210	208	208	208	207	207	206	204	203	202	201	200	199	197	195	193	191	189	188	185	183	183	183	185	187	188	189	191	193	194	195	196	198	200	201	202	203	205	209	212	215	219	222	223	224	225	225	226	226	226	227	228	230	232	233	236	239	242	245	248	252	256	259	262	264	267	269	270	272	273	273	272	271	271	271	270	270	270	271	273	275	277	279	283	285	287	287	285	283	280	278	276	272	269	265	263	261	261	262	264	266	267	267	266	264	261	256	251	248	246	247	247	246	245	244	243	240	238	236	234	232	230	227	225	222	220	217	213	208	204	201	198	196	192	188	186	183	180	178	176	175	175	174	173	172	172	171	170	167	165	163	162	160	159	157	153	148	145	143	142	141	140	139	140	141	142	144	144
121	121	122	124	126	129	131	133	135	135	135	135	135	136	139	140	138	135	132	131	128	125	124	123	124	122	119	119	117	114	116	117	118	120	121	122	123	124	126	130	132	134	135	138	140	145	146	146	146	145	145	144	145	145	144	143	142	141	140	137	134	135	140	142	141	139	138	136	134	132	129	124	119	115	111	109	107	106	106	105	103	100	95	92	89	88	88	89	86	83	82	79	77	76	71	67	66	64	63	62	62	62	61	62	62	62	61	60	61	61	60	61	61	59	57	57	54	46	42	41	41	43	43	43	44	44	45	45	44	40	37	37	37	36	35	32	27	28	30	30	30	30	30	30	29	29	29	28	28	28	28	28	28	28	28	28	28	28	28	28	28	28	28	28	28	28	28	28	28	28	28	28	28	28	28	28	27	27	26	23	21	20	19	20	20	20	20	19	16	11	9	13	16	13	8	8	14	20	22	23	22	21	20	18	16	15	11	9	10	10	9	8	8	9	9	9	9	9	9	9	9	9	9	9	9	8	7	7	7	7	7	7	7	7	7	7	7	7	7	7	8	9	9	9	9	8	8	8	8	8	8	8	8	8	8	8	8	8	7	7	7	7	7	7	7	7	7	7	7	7	7	7	7	7	8	8	8	9	9	9	9	10	10	10	11	13	8	7	7	7	7	7	7	7	7	7	7	7	7	7	7	7	7	7	7	7	7	7	7	7	7	7	7	7	7	7	7	7	7	7	7	7	7	7	7	7	7	7	7	7	7	7	6	6	6	6	6	6	6	6	6	6	6	6	6	7	17	20	12	8	10	19	21	19	17	17	17	12	8	8	7	7	7	8	8	11	19	19	18	19	21	23	26	29	32	35	36	36	37	36	39	41	41	40	30	26	28	36	43	44	42	43	43	48	51	51	51	53	55	57	58	57	57	58	58	55	44	39	39	40	39	39	39	39	39	40	39	40	45	54	54	53	51	51	56	57	52	48	47	46	46	47	50	52	59	67	75	81	83	86	86	85	83	78	76	75	74	74	74	72	68	66	64	63	62	63	63	62	62	61	57	53	51	50	49	48	47	47	47	47	47	47	46	47	50	51	52	56	59	62	63	64	66	68	70	72	73	76	83	90	94	94	93	95	97	103	107	110	113	115	118	121	123	124	128	132	134	136	135	132	131	131	130	130	130	131	131	130	130	131	133	136	140	143	146	148	150	151	153	156	157	158	160	162	165	167	169	172	174	177	180	183	188	194	198	202	205	205	205	205	205	205	205	205	204	203	201	197	192	188	185	182	180	178	177	176	174	170	166	163	158	154	151	150	147	144	143	141	139	137	136	135	136	139	142	144	145	145	146	146	146	145	144	139	127	121	119	116	115	116	115	115	116	118	121	121	119	116	114	111	107	104	101	98	97	97	98	100	101	100	98	97	96	97	98	94	95	100	102	105	108	111	114	115	116	119	121	123	125	127	130	131	132	132	131	130	131	132	135	137	140	142	143	143	143	143	143	143	143	143	143	143	143	143	142	142	140	140	140	139	138	137	138	139	139	138	137	134	132	130	131	132	134	137	140	141	143	145	144	143	142	142	142	142	143	144	146	148	150	151	153	155	157	157	159	162	166	170	174	177	181	184	187	190	195	200	204	207	209	211	215	217	218	221	223	225	226	227	228	229	229	229	229	229	228	227	225	223	220	218	216	215	216	216	217	217	217	216	215	213	213	215	217	217	216	216	215	213	210	208	206	205	205	205	205	204	203	202	202	202	201	199	197	195	193	192	190	189	186	183	182	183	185	188	188	189	191	193	194	195	197	198	201	202	203	203	204	207	210	212	216	219	221	221	222	222	223	224	225	227	229	231	233	235	237	240	244	247	250	253	257	260	262	265	267	268	269	270	271	271	270	269	268	267	267	267	267	269	271	273	275	278	282	284	286	285	284	282	279	276	273	270	267	264	262	260	259	260	261	262	263	264	263	261	259	255	250	245	241	241	243	243	243	242	241	239	237	235	233	231	229	227	224	221	219	215	211	207	203	200	197	194	190	187	185	181	178	177	176	176	175	174	173	172	172	171	169	165	162	160	159	159	158	156	153	149	145	142	141	140	138	137	137	138	139	141	142
126	127	127	128	129	131	134	137	138	138	138	139	140	141	142	143	142	140	137	133	130	127	124	124	125	123	121	121	118	113	113	115	116	118	120	120	121	122	124	126	129	130	133	138	141	143	145	146	146	146	146	146	147	148	146	144	142	142	140	133	130	130	133	138	138	137	137	136	135	133	129	125	120	117	114	112	109	108	106	105	103	100	97	94	91	89	89	89	87	85	84	84	82	82	79	73	70	68	66	64	62	62	61	61	61	61	61	61	61	61	61	61	61	61	60	60	58	47	42	42	43	44	44	44	45	46	46	46	46	42	37	37	38	37	35	34	31	28	29	30	30	30	30	30	30	30	29	29	28	28	28	28	28	28	28	28	28	28	28	28	28	28	28	28	28	28	28	28	28	28	28	28	28	28	28	28	28	28	27	25	23	21	19	20	20	19	19	19	18	15	11	12	15	16	12	9	12	19	22	22	21	21	21	20	18	17	11	9	9	9	8	8	9	9	9	9	9	9	9	9	8	8	9	9	10	8	7	7	7	7	7	7	7	7	7	7	7	7	7	7	8	9	9	9	9	8	8	8	8	8	8	8	8	8	8	8	8	7	7	7	7	7	7	7	7	7	7	7	7	7	7	7	7	7	8	8	8	8	8	9	9	9	10	10	10	9	7	7	7	7	7	7	7	7	7	7	7	7	7	7	7	7	7	7	7	7	7	7	7	7	7	7	7	7	7	7	7	7	7	7	7	7	7	7	7	7	7	7	7	7	7	7	6	6	6	6	6	6	6	6	6	6	6	6	6	7	14	18	12	8	8	14	14	11	9	9	10	8	7	7	7	7	7	8	8	10	16	19	17	19	21	24	26	28	31	33	34	35	37	39	41	41	38	34	27	27	30	37	42	40	34	35	37	48	52	52	53	54	55	57	56	54	56	57	56	53	47	40	39	39	39	39	39	39	39	40	40	39	41	50	53	52	52	49	49	55	53	49	47	46	46	47	52	51	55	64	71	79	82	83	85	85	84	80	76	77	77	76	75	74	70	66	63	64	65	66	66	64	63	61	57	53	51	50	48	47	47	47	48	48	47	46	45	47	50	52	57	59	60	62	63	64	66	68	70	72	73	77	82	85	87	88	89	90	93	99	107	113	115	116	118	122	125	126	127	130	133	134	135	133	131	131	131	130	130	130	130	130	130	132	133	135	137	140	144	146	148	151	153	156	157	158	160	162	165	167	170	172	175	178	181	184	188	194	198	202	205	205	205	205	205	205	205	205	204	203	200	195	191	188	184	182	180	179	177	176	174	171	167	164	160	155	151	150	147	144	142	141	139	137	135	134	135	139	142	143	144	144	145	146	145	144	140	133	123	119	116	114	114	115	115	113	113	115	117	117	117	115	113	111	108	105	103	99	98	99	100	101	101	101	99	97	96	98	100	95	93	96	100	103	106	109	111	113	115	117	119	120	123	126	128	130	131	131	130	130	131	133	136	139	142	143	143	143	143	143	143	143	143	143	143	143	143	143	142	140	137	136	137	136	134	134	136	137	137	137	136	133	130	129	130	131	133	136	138	140	143	143	142	141	140	139	139	140	141	142	143	144	146	149	151	153	154	155	158	162	164	166	169	174	178	182	185	189	193	197	201	204	206	208	211	214	215	217	220	223	224	225	225	225	226	226	226	226	225	224	223	221	219	217	215	213	213	213	214	214	215	214	212	211	211	213	215	215	214	213	212	211	209	206	204	203	203	203	202	201	201	201	202	201	201	199	197	195	192	191	191	189	185	182	182	183	185	188	188	189	191	193	194	195	196	198	200	201	202	203	204	206	208	209	212	215	217	218	219	221	223	224	226	228	231	233	235	237	239	243	246	249	252	255	258	260	262	264	266	267	268	269	269	269	268	267	265	264	263	263	264	267	270	273	275	278	281	284	285	285	283	281	279	276	273	270	267	264	262	260	259	258	258	259	260	261	260	259	256	253	248	243	239	237	237	237	237	238	238	237	235	233	230	229	227	225	223	220	217	214	209	205	202	199	196	192	188	185	183	179	176	175	175	176	175	174	173	172	170	169	167	164	161	158	157	157	156	155	153	150	146	143	141	140	138	137	135	135	136	137	139
130	132	132	131	131	133	136	139	140	140	140	141	143	145	146	145	145	144	141	138	134	130	126	126	126	124	122	121	119	115	114	115	115	117	119	119	120	121	122	124	126	128	130	139	142	142	143	145	146	147	149	150	151	151	148	144	142	140	136	130	128	128	129	130	132	134	135	135	135	134	129	126	123	119	117	115	112	109	108	106	103	101	99	96	92	90	89	89	88	86	85	85	84	84	83	79	74	72	70	68	66	64	62	61	61	60	60	60	61	61	61	61	60	61	60	60	55	45	41	42	44	45	46	46	46	47	47	46	46	44	40	38	38	38	37	35	34	32	30	30	30	30	30	30	30	30	29	29	28	28	28	28	28	28	28	28	28	28	28	28	28	28	28	28	28	28	28	28	28	28	28	28	28	28	28	28	28	28	28	26	25	23	20	19	19	19	19	19	18	16	15	14	17	22	22	18	17	19	20	19	19	22	23	23	22	22	17	12	9	9	9	9	9	9	9	9	9	9	9	9	8	8	9	11	16	10	7	7	7	7	7	7	7	7	7	7	7	7	7	7	8	8	9	9	9	8	8	8	8	8	8	8	8	8	8	8	8	8	8	8	7	7	7	7	7	7	7	7	7	7	7	7	7	7	8	8	8	8	8	8	9	9	9	10	9	7	6	7	7	7	7	7	7	7	7	7	7	7	7	7	7	7	7	7	7	7	7	7	7	7	7	7	7	7	7	7	7	7	7	7	7	7	7	7	7	7	7	7	7	7	7	7	6	6	6	6	6	6	6	6	6	6	6	6	6	6	10	15	10	8	7	8	8	8	8	8	7	7	7	7	7	7	7	8	8	9	13	19	19	19	21	25	27	28	29	31	33	34	37	39	40	39	35	28	26	27	31	34	39	39	32	33	43	49	48	50	54	54	55	55	48	43	49	51	48	45	46	41	39	39	39	39	39	39	40	39	39	39	40	47	52	52	51	45	41	49	55	54	48	46	46	46	47	47	51	59	67	73	79	82	84	85	84	82	80	81	81	78	75	74	72	67	62	65	66	66	65	64	62	58	54	52	50	49	48	47	47	47	48	48	46	45	45	47	50	56	63	61	62	63	64	65	66	67	70	71	72	76	81	83	84	85	87	89	91	96	104	112	115	116	117	122	125	126	127	129	131	133	134	134	131	129	130	130	130	130	129	129	131	132	133	134	136	138	142	144	145	149	153	156	157	158	159	161	164	167	170	172	175	179	182	185	189	194	198	202	204	205	204	205	205	205	205	204	204	201	198	194	191	187	184	182	180	179	177	176	174	172	168	165	161	156	151	150	147	144	142	141	139	137	135	134	135	141	143	143	141	142	144	144	142	137	131	126	120	116	113	112	112	113	113	112	113	114	115	114	114	113	113	110	107	106	104	101	99	100	101	101	101	101	98	96	96	98	100	96	93	96	99	102	105	107	109	111	114	116	117	119	122	125	128	130	130	130	129	129	131	134	138	142	143	143	143	143	143	143	143	143	143	143	143	143	143	142	140	138	135	134	135	134	133	133	133	133	133	132	131	130	128	127	128	130	132	135	136	138	140	140	139	137	137	136	136	137	139	140	142	142	142	145	148	151	152	153	156	159	161	162	165	171	176	179	182	187	191	194	197	200	203	205	207	210	212	214	216	219	221	222	222	221	221	222	221	222	222	222	221	220	218	216	213	211	211	211	211	212	212	212	211	209	209	210	212	212	212	211	210	209	207	205	203	201	201	201	200	199	199	199	199	199	198	198	196	193	191	191	190	188	184	183	182	183	185	188	188	189	192	194	194	195	196	197	199	200	201	201	203	205	207	208	210	212	215	217	219	221	224	226	227	230	233	235	237	239	242	245	248	250	253	256	258	260	262	263	265	266	266	267	267	266	265	264	263	262	261	261	262	264	267	270	274	278	281	283	285	284	283	281	279	276	273	271	268	266	263	261	258	257	256	256	257	257	257	256	253	250	246	241	237	234	233	232	232	233	234	233	231	229	227	226	225	224	221	218	215	213	209	205	202	198	195	191	186	183	181	177	175	173	174	175	175	174	172	171	168	166	165	163	159	156	154	153	154	154	153	151	148	145	141	140	139	137	134	132	133	135	136
134	135	134	133	134	136	138	140	142	142	143	144	146	147	148	148	148	147	144	141	136	132	130	128	127	125	122	120	119	117	115	115	115	115	116	117	119	120	121	122	125	126	127	135	140	140	141	144	145	147	149	151	152	152	149	144	141	138	134	129	128	128	128	128	129	131	132	133	134	132	128	127	125	122	120	117	114	111	109	107	105	102	100	98	95	92	90	89	89	87	86	86	86	86	86	84	79	76	74	72	69	67	65	62	61	60	60	60	60	60	60	61	61	61	61	59	52	45	43	44	45	46	47	47	46	46	46	45	45	45	43	41	39	38	38	37	35	34	32	30	30	30	30	30	30	30	29	28	28	28	28	28	29	29	29	28	28	28	28	28	28	28	28	28	28	28	28	28	28	28	28	28	28	28	28	28	28	28	28	28	26	24	22	20	19	19	19	19	18	18	17	17	19	24	25	24	22	20	20	19	19	21	23	23	22	22	21	17	10	9	9	9	9	9	9	9	9	8	8	8	8	8	9	14	18	10	7	7	7	7	7	7	7	7	7	7	7	7	7	7	7	8	9	9	9	8	8	8	8	8	8	8	8	8	8	8	8	8	8	8	7	7	8	8	8	7	7	7	7	7	7	7	7	7	8	8	8	8	8	8	8	9	9	9	8	7	6	7	7	7	7	7	7	7	7	7	7	7	7	7	7	7	7	7	7	7	7	7	7	7	7	7	7	7	7	7	7	7	7	7	7	7	7	7	7	7	7	7	7	7	7	7	7	6	6	6	6	6	6	6	6	6	6	6	6	6	9	10	9	7	7	7	8	8	8	8	8	7	7	7	7	7	7	8	8	8	9	16	21	21	22	26	28	29	29	30	32	34	35	37	38	37	32	27	26	26	27	28	32	34	32	35	48	46	42	45	54	57	52	49	45	42	41	41	41	43	48	44	39	39	40	39	39	39	39	39	39	39	40	45	49	49	46	40	38	42	54	55	48	46	46	46	45	45	47	54	61	69	75	79	82	84	83	83	82	83	82	78	75	73	72	68	64	65	65	65	64	61	57	53	52	51	50	49	48	47	47	47	48	48	46	45	45	46	50	60	64	62	63	64	64	65	66	66	69	71	72	76	81	83	84	84	85	87	90	92	98	107	114	116	116	121	123	125	125	126	127	128	128	127	126	126	127	129	131	129	128	129	131	132	133	134	135	137	141	143	144	148	153	156	157	158	159	161	164	167	170	172	176	179	183	187	190	194	198	202	205	205	205	205	205	205	205	204	202	199	195	192	190	188	185	183	180	179	177	175	174	172	168	165	162	156	152	150	148	144	142	141	139	138	136	134	135	140	142	139	135	138	141	138	134	127	122	119	115	112	111	109	108	108	109	109	110	111	111	112	112	112	112	110	107	106	105	102	100	101	101	100	100	98	95	94	95	98	100	95	93	98	101	104	106	108	109	111	114	116	117	119	121	125	128	130	130	129	128	129	131	135	139	142	143	143	143	143	143	143	143	143	143	143	143	143	142	141	139	136	133	133	133	131	130	130	130	128	127	126	126	127	126	124	125	127	130	134	135	136	137	136	135	134	134	134	134	136	137	140	141	141	141	142	145	148	150	150	152	156	158	160	163	168	173	176	178	183	187	190	192	195	199	201	204	206	209	211	213	215	218	219	218	217	216	216	217	217	218	219	219	218	216	214	211	209	208	208	208	209	209	209	208	207	207	207	209	209	209	209	208	206	205	203	201	200	200	199	198	198	198	197	196	195	195	195	193	191	190	189	189	187	184	186	186	185	187	189	190	190	193	195	195	196	196	197	198	198	199	200	201	203	206	208	209	211	213	216	218	221	225	227	229	232	235	237	239	241	244	247	249	252	254	256	258	259	261	262	263	264	264	265	264	264	263	262	261	260	260	260	261	263	265	268	272	276	281	283	285	285	283	282	280	277	275	272	270	268	265	262	259	257	256	255	254	254	254	253	250	247	243	239	234	231	230	229	228	229	229	229	228	225	223	222	222	221	219	217	214	212	209	205	202	198	194	190	186	182	179	176	174	172	172	173	173	172	171	169	165	163	161	159	156	153	151	150	150	151	151	151	149	146	142	139	140	139	135	132	131	132	133
137	136	135	135	136	138	140	142	144	146	147	148	149	149	150	150	150	149	145	142	139	135	132	129	128	125	122	120	120	119	117	117	115	112	113	116	117	118	118	119	121	123	124	129	135	137	140	145	144	141	144	149	151	150	146	142	139	136	134	130	128	128	128	128	128	129	129	130	130	128	127	126	126	125	123	120	116	113	110	109	107	104	101	99	96	93	91	91	91	90	88	88	89	89	90	89	86	82	79	77	74	71	69	67	66	64	60	60	60	60	60	60	61	61	61	59	54	50	49	48	48	48	48	48	46	45	44	44	45	45	45	44	40	38	38	38	36	35	33	31	29	30	30	30	30	30	29	29	28	28	29	29	29	29	29	29	28	28	28	28	28	28	28	28	28	28	28	28	28	28	28	28	28	28	28	28	28	28	28	28	26	22	23	22	19	19	19	16	14	17	18	18	18	22	26	25	23	22	22	21	21	20	21	21	17	18	19	18	14	12	11	11	11	11	9	9	8	8	8	8	8	8	8	10	11	8	7	7	7	7	7	7	7	7	7	7	7	7	7	7	7	7	8	9	9	9	9	9	9	9	9	9	9	8	8	8	8	8	8	7	7	8	8	8	8	7	7	7	7	7	7	7	7	7	8	8	8	8	8	8	8	9	9	9	7	6	6	6	7	7	7	7	7	7	7	7	7	7	7	7	7	7	7	7	7	7	7	7	7	7	7	7	7	7	7	7	7	7	7	7	7	7	7	7	7	7	7	7	7	7	7	7	7	6	6	6	6	6	6	6	6	6	6	6	6	7	8	9	8	7	7	8	8	8	8	8	8	8	7	7	7	7	7	8	8	8	8	13	22	22	23	26	29	30	30	30	31	33	34	35	38	38	31	26	26	26	27	27	27	29	31	35	49	46	41	45	54	56	47	45	44	42	40	40	41	48	52	49	41	39	39	40	39	39	39	39	39	41	43	45	46	43	39	38	38	40	48	50	48	47	46	46	45	45	45	50	56	65	71	75	79	82	82	81	81	81	80	77	74	72	71	69	64	62	60	60	59	55	52	52	52	51	50	49	49	48	47	48	50	51	48	45	45	45	50	60	62	61	62	63	64	65	66	67	70	71	72	76	81	82	83	83	84	86	87	87	92	101	109	114	116	119	120	121	122	123	124	124	122	120	122	124	125	129	131	129	128	129	131	133	134	135	136	137	140	143	145	149	152	155	157	158	159	161	164	167	169	172	176	180	184	187	191	195	198	201	205	205	205	205	205	205	204	203	200	197	193	191	189	188	186	183	181	179	177	175	173	171	168	164	161	157	152	151	149	145	143	141	139	138	137	135	134	138	139	134	133	135	137	133	127	122	120	116	112	110	108	107	106	105	105	106	106	107	108	109	110	111	110	108	107	104	103	101	100	101	100	99	97	95	93	94	96	98	98	93	96	101	103	105	107	109	110	112	115	117	118	119	122	125	129	130	129	128	128	129	132	136	140	143	143	143	143	143	143	143	143	143	143	144	144	144	143	140	137	134	133	132	130	127	126	127	127	127	126	124	123	123	122	122	123	125	128	132	134	135	135	134	133	131	131	132	133	134	136	138	140	141	141	141	143	145	147	148	149	152	156	160	163	166	170	172	174	178	182	186	188	191	194	197	200	203	206	209	211	213	214	215	215	213	211	211	212	213	215	216	216	215	214	212	209	207	205	204	205	206	207	207	205	204	203	203	205	206	207	206	205	204	203	201	200	199	199	197	196	196	194	192	192	192	192	191	190	188	187	188	188	188	188	189	190	190	191	192	192	192	194	196	196	197	197	197	197	197	197	198	200	202	205	207	209	211	213	216	219	222	226	229	231	234	236	238	240	243	245	247	250	252	254	255	257	258	259	260	261	262	262	263	262	262	261	261	260	259	258	259	260	262	265	267	271	276	280	283	285	285	284	283	280	278	276	274	271	269	266	263	261	258	256	254	252	251	251	250	249	245	240	235	231	228	226	225	225	225	225	225	224	222	220	218	218	217	216	214	213	210	208	205	202	198	194	190	186	183	180	176	173	171	170	170	170	169	168	167	163	160	158	156	153	152	151	150	148	148	149	150	150	147	143	139	139	140	137	132	129	129	129
139	138	137	137	139	141	142	144	147	149	151	152	152	151	150	150	150	148	145	143	142	137	132	130	128	126	123	121	120	119	118	117	115	112	112	114	116	116	115	116	117	119	122	126	130	132	135	142	140	137	137	141	145	144	139	135	135	134	132	130	129	128	128	128	128	128	128	128	128	128	127	126	126	126	125	123	119	116	112	111	109	105	103	100	98	95	94	93	93	92	91	90	91	91	92	93	91	89	87	85	83	78	74	72	74	73	64	60	59	59	60	60	61	61	61	60	56	52	52	52	51	51	51	49	48	46	44	43	43	44	44	44	41	38	38	39	38	36	34	32	30	29	30	30	30	30	29	29	29	29	29	29	29	29	29	29	28	28	28	28	28	28	28	28	28	28	28	28	29	28	28	28	28	28	28	28	28	28	28	28	27	20	20	23	22	20	18	13	10	13	17	18	18	21	25	21	17	21	24	23	22	15	11	11	9	10	13	14	16	16	15	17	18	18	13	9	9	9	8	8	8	8	8	8	7	7	7	7	7	7	7	7	7	7	7	7	7	7	7	7	7	7	8	8	9	9	9	9	9	9	9	9	9	8	8	8	8	8	7	7	8	8	8	8	8	7	7	7	7	8	8	7	8	8	8	8	8	8	8	8	8	8	9	9	8	7	6	6	6	7	7	7	7	7	7	7	7	7	7	7	7	7	7	7	7	7	7	7	7	7	7	7	7	7	7	7	7	7	7	7	7	7	7	7	7	7	7	7	7	7	7	7	7	6	6	6	6	6	6	6	6	6	6	6	6	8	13	14	10	7	7	7	8	8	8	8	8	8	7	7	7	7	7	8	8	8	8	11	20	22	23	25	28	29	29	29	30	32	33	36	39	39	33	27	26	26	26	26	26	27	28	32	43	47	46	47	50	50	44	44	44	42	41	42	46	54	55	51	43	39	39	39	39	39	40	39	39	41	42	40	40	39	38	38	38	40	44	51	50	47	46	46	45	45	44	45	52	63	68	71	76	78	79	79	79	79	78	76	73	72	71	68	61	58	56	55	54	52	52	52	52	51	49	49	51	51	50	51	54	56	51	45	45	44	48	59	61	61	62	63	64	65	66	68	70	71	72	78	81	82	82	81	81	83	85	86	88	94	103	109	111	114	115	118	119	121	122	122	121	120	122	124	126	129	132	130	129	131	133	134	135	136	137	139	141	144	147	149	151	154	157	158	159	162	164	167	169	172	176	180	185	188	191	194	197	200	204	205	204	205	205	204	204	202	198	194	192	190	188	187	185	183	180	178	176	174	172	169	165	162	161	157	152	151	150	147	144	142	140	138	137	135	135	137	136	133	134	135	135	130	123	121	117	113	110	108	107	105	103	101	101	102	103	104	105	106	108	108	108	107	105	102	99	99	99	100	99	97	94	92	93	94	96	97	93	92	98	102	104	106	108	109	111	113	116	118	119	120	122	126	129	129	128	127	128	129	132	137	141	143	143	143	143	143	143	143	143	143	143	144	144	145	142	140	138	133	132	130	128	125	124	124	125	125	123	119	117	117	118	120	122	123	127	131	134	134	134	134	131	129	130	131	132	133	134	136	139	140	140	139	140	142	144	145	147	150	153	158	162	165	168	170	171	174	178	182	185	187	190	194	197	199	202	205	209	211	212	212	212	209	207	206	207	210	213	214	214	213	212	210	207	205	202	201	202	204	205	204	202	200	200	200	201	203	204	204	203	202	200	199	198	198	197	195	194	193	191	190	189	189	189	188	187	187	187	187	188	189	190	190	191	192	193	194	194	194	195	196	198	199	200	199	199	199	198	198	199	201	204	207	209	211	213	216	219	222	226	229	231	234	237	239	241	243	245	247	248	250	252	254	255	256	257	258	259	260	261	261	261	261	260	259	258	258	257	258	259	262	265	268	272	276	280	283	285	285	285	283	281	279	276	274	272	269	267	264	261	259	256	254	252	250	250	249	247	241	235	231	227	224	222	221	221	221	221	221	221	219	217	215	214	213	213	212	211	209	206	203	201	197	193	190	187	184	181	176	173	171	170	169	168	168	168	167	164	161	158	156	154	153	152	150	148	146	147	149	149	147	144	139	138	140	138	133	130	126	126
141	140	140	141	142	144	145	147	150	152	153	154	153	152	150	148	147	146	144	142	142	137	132	129	128	127	124	122	120	119	118	117	115	112	111	111	113	114	114	115	116	116	118	122	126	129	131	134	135	135	136	138	141	141	135	132	131	130	129	132	131	129	128	128	128	128	128	128	128	128	127	127	126	125	125	124	122	119	115	113	110	107	104	102	100	98	97	96	95	94	93	93	93	94	94	95	95	93	92	91	87	83	79	76	76	76	67	60	59	59	59	60	60	60	61	62	59	55	55	55	54	52	51	50	48	47	44	42	42	43	43	44	44	40	39	39	38	37	36	33	31	29	29	30	30	29	29	29	29	29	29	29	29	29	29	29	28	28	28	28	28	28	28	28	28	28	28	29	30	29	28	28	28	28	28	28	28	28	28	28	28	23	15	20	24	22	20	15	11	11	13	16	18	19	19	15	10	18	23	24	22	13	8	8	8	8	8	10	15	17	18	20	22	21	18	11	9	8	8	8	8	7	7	7	7	7	7	7	7	7	7	7	7	7	7	7	7	7	7	7	7	7	7	8	9	9	9	9	9	9	9	9	9	8	8	8	8	8	7	8	8	8	8	8	7	7	7	7	8	8	8	8	8	8	8	8	8	7	7	8	8	8	8	8	7	6	6	6	6	6	6	7	7	7	7	7	7	7	7	7	7	7	7	7	7	7	7	7	7	7	7	7	7	7	7	7	7	7	7	7	7	7	7	7	7	7	7	7	7	7	7	7	7	6	6	6	6	6	6	6	6	6	6	6	6	8	16	17	10	7	7	7	8	8	8	8	8	7	7	7	7	7	7	8	8	8	8	9	17	22	23	25	26	27	27	26	28	30	32	35	38	38	33	26	26	26	26	26	26	26	26	28	35	45	47	47	44	43	43	45	47	44	43	45	51	55	55	52	46	42	40	39	39	40	39	39	39	39	39	38	38	38	38	38	38	38	42	53	54	49	46	45	45	45	44	44	47	60	67	70	73	75	76	76	76	77	76	74	72	72	71	68	61	58	55	54	53	53	52	52	51	50	47	46	51	53	53	55	59	59	54	45	44	44	45	54	59	60	62	64	65	65	66	68	69	69	70	76	80	80	79	78	77	79	82	85	86	90	97	102	105	109	111	115	117	118	119	119	120	120	122	125	127	129	132	132	133	134	135	136	137	138	139	140	142	144	147	149	151	153	156	158	160	162	164	167	169	172	176	180	185	188	191	193	196	199	202	203	204	204	204	204	202	200	196	192	190	189	187	186	183	181	179	177	175	173	170	167	163	161	160	157	153	151	151	149	146	143	141	138	136	135	135	136	134	134	135	134	134	128	122	119	115	111	109	106	104	102	98	96	95	96	97	98	101	103	105	106	106	105	103	99	97	97	96	97	96	93	90	90	94	95	97	96	91	92	100	103	105	108	109	110	111	113	116	117	119	120	123	126	128	128	127	127	127	130	134	140	143	143	143	143	143	143	143	143	143	143	143	144	145	145	143	141	139	133	130	128	126	124	122	119	118	117	115	114	114	114	116	119	121	123	125	129	132	133	133	131	128	128	129	130	131	132	133	135	137	138	137	137	138	140	142	144	146	149	152	157	162	164	166	168	169	171	174	178	183	186	188	191	194	196	198	201	205	207	208	209	209	206	203	202	204	207	210	211	211	210	209	207	205	202	200	199	199	200	201	200	198	197	197	198	199	201	202	202	201	200	198	197	197	196	194	192	191	191	190	189	188	188	187	187	188	188	188	188	189	189	190	189	190	193	194	194	194	195	196	198	199	201	202	202	202	201	201	201	201	202	204	207	209	211	213	216	218	221	225	228	231	234	237	239	241	243	245	246	246	248	250	251	253	254	255	255	257	258	259	259	259	259	259	259	258	258	257	257	259	262	265	268	272	276	280	282	284	285	285	283	281	279	277	274	272	270	267	264	262	259	256	254	251	250	249	247	243	237	232	228	225	222	220	219	218	217	216	216	217	216	214	212	211	210	210	210	209	207	204	201	199	195	192	189	186	184	180	176	173	171	170	170	169	169	170	169	167	164	161	158	157	155	153	151	147	145	146	148	148	147	144	139	137	139	138	134	129	125	124
143	144	144	145	145	147	148	150	153	154	155	156	155	152	150	148	147	145	144	141	138	135	131	130	128	127	125	123	121	120	119	117	115	112	110	109	109	111	113	114	115	115	115	119	123	126	128	129	130	131	133	136	137	136	134	133	130	128	128	131	133	130	128	128	128	128	128	128	128	128	128	128	127	126	125	124	122	120	117	115	111	108	104	102	101	101	101	100	99	98	97	97	96	96	97	98	97	95	93	91	88	84	81	79	79	78	69	61	59	59	59	59	59	60	63	66	65	58	56	55	54	52	50	49	48	45	42	41	42	43	43	44	45	43	40	39	39	38	37	35	33	31	30	29	30	29	29	29	29	29	29	28	29	29	29	28	28	28	28	28	28	28	28	28	28	29	29	30	31	30	28	28	28	28	28	28	28	28	28	28	28	27	20	16	22	24	23	20	15	11	11	13	16	17	16	15	13	18	22	23	23	13	8	8	9	9	8	9	15	17	19	21	22	22	19	11	8	8	8	8	7	7	7	7	7	7	7	7	7	7	7	7	7	7	7	7	7	7	7	7	7	7	7	8	8	9	9	9	9	9	9	9	9	8	8	8	8	8	8	8	8	8	8	7	7	7	7	7	8	8	7	8	8	8	8	8	7	7	7	8	8	8	8	8	7	6	6	6	6	6	6	6	6	7	7	7	7	7	7	7	7	7	7	7	7	7	7	7	7	7	7	7	7	7	7	7	7	7	7	7	7	7	7	7	7	7	7	7	7	7	7	7	7	6	6	6	6	6	6	6	6	6	6	6	7	8	16	14	9	7	7	8	8	8	8	8	8	7	7	7	7	7	7	8	8	8	8	9	15	22	23	24	26	26	26	26	26	28	31	35	37	34	29	26	26	26	26	26	26	26	26	26	32	44	48	45	40	40	42	47	48	45	45	47	51	54	55	52	48	43	40	39	39	40	39	39	39	39	39	39	39	39	38	38	38	38	39	47	55	54	50	46	45	45	44	44	44	50	61	68	71	73	75	75	74	74	73	72	73	73	71	66	60	57	54	53	53	53	52	51	50	48	45	45	49	53	54	57	60	61	58	47	43	43	44	50	57	60	63	66	68	68	66	66	65	66	67	73	76	76	75	74	74	76	79	82	84	89	96	101	105	110	111	113	115	116	118	118	120	122	124	126	128	130	132	133	134	135	136	137	138	139	140	141	143	145	147	149	151	154	156	158	160	162	164	167	169	172	176	180	184	187	190	193	195	196	199	201	202	203	203	202	200	197	193	191	189	188	186	184	181	179	178	176	175	172	169	165	162	160	160	157	153	151	151	150	148	145	142	139	137	135	134	134	133	133	133	133	133	129	122	117	113	110	107	104	101	97	95	94	93	93	93	94	96	99	102	103	104	103	101	99	98	96	92	91	91	89	87	90	95	97	97	94	90	93	100	103	106	109	111	112	113	114	115	117	118	121	124	126	128	127	126	126	128	132	137	142	144	144	143	143	143	143	143	143	143	143	143	144	145	147	147	145	142	137	130	126	124	121	117	114	114	114	114	114	114	114	116	118	120	122	125	127	128	129	127	123	121	123	127	128	130	131	132	133	135	135	135	135	136	138	141	144	146	148	151	156	161	163	164	166	167	169	171	174	179	183	185	187	191	193	195	197	200	202	203	204	204	201	199	199	201	203	206	207	208	207	206	205	203	200	198	197	196	197	197	196	194	194	195	196	198	199	200	200	200	198	196	195	194	192	190	189	189	189	188	188	188	187	187	188	190	191	191	191	190	190	190	190	191	193	194	195	195	196	197	199	201	202	204	204	204	204	204	205	205	205	207	209	211	212	213	215	217	220	223	226	229	233	236	239	241	242	243	244	245	246	247	249	251	252	253	253	254	256	257	257	257	257	258	257	257	258	258	258	260	262	265	268	272	276	280	282	284	285	284	283	281	279	277	274	272	270	267	264	262	259	256	253	251	249	247	244	239	234	230	227	224	220	218	216	215	214	213	213	213	213	212	210	208	207	206	206	206	204	202	199	197	193	190	187	184	181	179	176	173	171	170	171	171	172	172	171	169	167	164	161	159	157	154	151	147	145	144	145	146	145	143	138	137	138	138	133	128	124	122
145	147	148	148	149	151	156	157	159	160	161	163	158	153	151	149	147	146	144	140	136	134	132	131	128	127	126	124	123	121	120	117	114	112	111	109	107	108	112	113	114	113	114	116	119	121	125	127	127	126	126	128	130	131	132	131	128	128	128	128	132	131	128	128	128	127	127	128	128	128	128	128	128	127	126	125	122	120	119	116	112	108	105	103	103	105	106	105	102	101	102	101	100	100	101	102	102	99	95	91	88	86	83	81	82	82	72	65	60	59	58	59	59	59	64	68	65	59	56	55	53	50	48	47	45	42	41	41	41	43	44	45	46	45	43	40	39	39	38	37	35	33	30	29	29	30	30	30	30	30	29	29	29	29	29	28	28	28	28	28	28	28	28	28	28	29	30	31	31	29	28	28	28	28	28	28	28	28	28	28	28	28	27	24	22	23	24	23	19	14	11	11	13	16	17	16	15	18	22	25	26	18	9	8	10	10	8	9	13	17	20	21	21	20	14	9	8	8	7	7	7	7	7	7	7	7	7	7	7	7	7	7	7	7	7	7	7	7	7	7	7	7	7	7	8	9	9	9	9	9	9	9	9	8	8	8	8	9	8	8	8	8	7	7	7	7	7	7	7	7	7	7	8	8	8	7	7	7	8	9	9	8	8	7	6	6	6	6	6	6	6	6	6	6	6	7	7	7	7	7	7	7	7	7	7	7	7	7	7	7	7	7	7	7	7	7	7	7	7	7	7	7	7	7	7	7	7	7	7	7	7	7	7	7	6	6	6	6	6	6	6	6	6	7	7	11	17	11	8	7	7	8	8	8	8	8	8	7	7	7	7	7	7	8	8	8	8	9	15	22	23	24	25	26	27	27	27	28	29	33	35	31	26	26	26	26	26	26	26	26	26	26	29	41	49	48	41	41	46	47	43	43	47	50	52	55	55	48	43	41	39	39	39	39	39	39	39	38	39	39	39	39	39	38	38	38	38	42	53	57	55	48	45	45	45	44	43	45	51	63	69	72	73	73	72	71	68	69	73	73	69	62	58	55	53	53	53	52	50	48	48	48	46	45	48	49	51	56	60	60	58	50	44	43	43	46	53	59	63	67	69	72	69	64	63	61	62	64	69	72	72	71	71	75	79	81	84	87	93	98	106	112	113	115	116	117	119	120	121	124	125	127	129	130	132	134	135	136	137	137	138	140	141	143	144	146	148	149	152	154	156	159	161	163	165	167	169	172	175	179	183	186	189	192	193	194	195	198	200	201	201	199	197	194	191	189	188	186	184	181	179	178	177	175	173	170	167	163	161	160	159	156	152	151	151	151	150	147	143	141	138	136	135	133	133	133	133	133	133	131	124	115	112	110	106	102	98	95	95	95	94	94	93	91	92	95	98	100	101	101	101	100	98	94	89	87	87	87	88	93	95	96	97	93	90	94	100	103	106	110	112	113	114	115	116	117	119	122	125	127	127	127	126	126	130	134	138	142	145	145	144	144	144	143	143	143	143	143	144	144	146	148	147	145	142	139	131	124	121	119	115	114	114	114	114	114	114	114	116	118	119	121	124	124	125	124	120	118	118	121	125	127	128	129	130	131	132	132	133	134	135	138	141	143	145	147	149	154	159	161	162	164	167	169	170	172	175	179	181	183	188	191	193	194	196	196	197	197	196	195	195	196	197	199	201	203	204	203	203	201	200	198	196	194	194	194	193	192	191	191	193	195	197	198	199	198	198	196	194	192	191	189	188	187	187	187	186	187	188	188	188	190	191	193	194	193	192	191	191	191	192	193	194	195	196	197	198	200	202	204	205	206	207	207	208	209	209	210	211	212	213	214	215	215	216	220	223	225	228	231	234	237	239	240	241	241	243	244	246	248	250	251	251	252	252	254	255	255	255	256	257	256	257	258	259	261	262	264	266	269	272	276	280	282	284	284	284	282	280	278	276	274	272	269	266	264	261	258	255	253	250	247	244	241	237	233	230	226	222	219	216	214	213	212	211	210	210	210	210	208	206	203	202	202	202	202	200	197	195	191	188	185	182	179	177	175	172	171	170	171	173	174	174	173	171	168	165	163	159	157	154	150	147	144	142	142	143	142	139	137	137	138	136	131	127	124	122
147	149	151	151	152	158	169	170	169	170	170	170	165	159	154	150	148	147	145	142	138	135	133	131	128	127	127	126	124	123	121	118	114	112	112	112	109	107	109	111	111	111	112	115	116	118	120	123	123	123	122	124	127	129	128	127	127	128	129	132	136	132	128	128	127	126	126	128	128	128	128	128	128	128	128	127	125	123	121	117	112	110	108	106	108	109	109	108	104	104	106	106	105	104	104	105	106	103	98	94	90	87	85	84	84	82	74	68	63	59	58	58	58	58	61	65	65	60	56	53	51	48	45	44	42	42	43	42	41	42	43	44	46	47	45	42	40	39	39	38	36	35	32	30	29	30	30	30	30	29	29	29	30	30	29	28	27	28	28	28	28	28	28	28	29	29	30	30	30	28	28	28	28	28	28	28	28	28	28	28	28	28	28	27	24	22	23	24	22	19	13	11	11	13	15	16	16	17	23	27	27	22	10	8	10	8	8	9	14	18	20	21	19	16	10	8	8	8	7	7	7	7	7	7	7	7	7	7	7	7	7	7	7	7	7	7	7	7	7	7	7	7	7	7	8	8	8	8	8	8	8	8	9	8	8	8	8	8	8	8	8	7	7	7	7	7	7	7	7	7	7	7	7	7	7	7	7	7	8	9	9	8	8	7	6	6	6	6	6	6	6	6	6	6	6	6	6	6	7	7	7	7	7	7	7	7	7	7	7	7	7	7	7	7	7	7	7	7	7	7	7	7	7	7	7	7	7	7	7	7	7	7	7	7	7	6	6	6	6	6	6	6	6	7	8	15	13	9	7	7	7	8	8	8	8	8	8	7	7	7	7	7	7	8	8	8	8	9	17	23	23	23	24	25	26	27	27	28	29	31	34	30	26	26	26	26	26	26	26	26	26	26	26	34	49	55	51	43	40	36	31	32	45	50	53	56	56	46	41	40	40	39	39	39	39	39	38	38	39	39	39	39	38	38	38	38	38	41	50	56	57	49	46	45	45	44	43	43	44	52	62	68	70	69	68	67	66	67	73	73	63	57	55	54	53	53	53	52	48	46	47	51	49	46	47	47	48	51	56	55	51	47	43	43	43	44	48	57	62	66	70	72	69	62	60	59	59	61	62	66	69	69	70	76	81	83	84	87	90	95	106	111	116	118	117	118	120	122	123	125	126	128	130	131	133	135	136	137	137	137	139	141	142	143	145	147	148	150	152	154	157	159	161	163	165	167	169	171	174	178	182	184	187	189	191	191	192	193	195	196	196	194	193	191	189	187	186	184	181	179	177	176	174	172	169	168	165	163	160	159	159	156	152	151	152	152	151	148	144	141	138	138	137	134	133	133	133	133	133	132	128	115	111	108	105	101	97	95	96	98	97	97	96	93	91	91	95	97	98	99	100	98	96	91	86	84	84	85	89	94	96	96	95	92	92	96	100	103	106	109	112	114	115	116	117	119	121	123	126	127	127	126	125	127	132	137	139	142	145	146	144	144	144	143	143	143	143	144	145	145	146	147	145	143	140	136	127	122	119	117	114	114	114	114	114	114	115	116	116	117	118	120	122	123	122	121	118	118	119	120	124	126	126	126	127	128	129	130	131	133	135	138	141	143	145	146	147	151	156	158	160	163	165	166	167	170	174	176	177	179	185	189	191	192	192	192	191	191	192	192	192	192	192	193	195	197	198	198	198	198	197	195	193	192	191	191	190	189	188	190	192	194	196	197	197	197	195	194	191	190	188	187	186	186	187	186	186	188	189	189	189	191	193	195	195	195	194	193	193	193	193	193	194	195	196	197	199	201	203	205	207	209	210	210	211	213	213	214	215	215	217	218	218	217	217	220	222	224	227	230	232	234	236	237	239	240	242	243	245	247	249	250	251	252	252	253	254	254	255	256	257	257	258	260	261	263	265	267	268	271	274	277	280	282	283	283	282	280	279	276	274	272	270	267	265	262	260	257	254	252	248	244	241	238	235	233	229	225	221	218	215	212	211	210	208	207	207	208	208	206	204	201	199	199	200	200	198	195	192	190	186	184	180	177	175	174	172	170	170	172	174	175	175	174	172	169	167	163	159	156	153	149	147	144	141	138	139	138	136	136	137	137	134	130	126	123	121
147	149	152	153	156	166	172	173	173	172	171	172	170	167	159	153	150	150	147	142	139	138	135	131	129	129	128	127	126	123	121	118	115	114	115	114	112	108	107	108	109	109	109	113	115	116	117	118	119	119	120	122	125	126	125	125	127	128	135	142	140	132	128	128	128	127	126	127	128	128	128	128	128	128	128	128	128	127	124	118	114	112	111	111	111	111	112	112	109	111	113	113	110	110	108	109	108	105	101	97	93	89	87	86	85	82	75	70	65	61	58	58	58	58	58	59	61	60	55	51	48	46	44	44	45	48	51	49	44	42	42	43	45	45	44	44	42	39	39	39	38	37	34	32	30	29	30	30	30	29	29	30	30	30	29	28	28	28	28	28	28	28	28	28	29	29	29	29	28	28	28	28	28	28	28	28	28	28	28	28	28	28	27	26	24	22	22	23	23	22	17	13	12	11	13	15	16	17	21	26	28	25	14	11	14	12	10	11	17	20	21	20	16	11	9	8	8	7	7	7	7	7	7	7	7	7	7	7	7	7	7	7	7	7	7	7	7	7	7	7	7	7	7	7	8	8	8	8	8	8	8	8	8	8	8	8	8	8	8	8	8	7	7	7	7	7	7	7	7	7	7	7	7	7	7	7	7	7	7	8	8	7	7	7	6	6	6	6	6	6	6	6	6	6	6	6	6	6	6	7	7	7	7	7	7	7	7	7	7	7	7	7	7	7	7	7	7	7	7	7	7	7	7	7	7	7	7	7	7	7	7	7	7	7	7	7	7	7	7	7	7	7	7	7	11	17	12	10	7	7	7	8	8	8	8	8	8	7	7	7	7	7	7	8	8	8	8	9	19	23	23	23	24	25	26	26	27	28	29	31	33	28	26	26	26	26	26	26	26	26	26	26	26	28	40	51	49	36	28	27	26	27	37	45	55	58	55	46	41	41	41	40	39	39	39	38	38	39	39	39	39	39	38	39	40	39	39	39	40	48	52	49	46	45	44	44	44	43	43	45	52	61	63	63	65	65	65	65	71	70	58	53	53	53	53	53	53	54	49	45	48	50	46	42	45	47	47	49	50	47	46	44	43	43	43	45	47	54	59	63	66	67	63	61	60	59	59	60	60	62	66	68	70	76	82	83	84	87	90	93	103	110	114	117	117	117	120	123	124	125	127	128	130	132	134	135	136	137	137	138	141	143	143	144	145	147	149	150	152	154	157	159	161	163	165	167	169	171	174	178	181	183	184	186	187	188	189	189	190	190	190	189	189	188	187	185	183	181	179	177	175	173	170	168	166	165	163	162	160	159	159	156	151	152	154	152	150	148	144	141	138	138	139	135	132	132	132	132	132	132	129	117	111	107	104	100	97	96	98	100	99	98	98	96	93	91	92	95	96	96	96	94	91	87	84	84	83	85	90	94	96	97	94	90	93	97	101	104	106	109	112	114	116	117	118	120	123	125	126	126	126	125	125	127	133	138	141	143	147	147	145	144	143	143	143	143	144	146	147	146	146	145	143	140	138	134	124	121	118	116	114	114	114	114	114	115	116	116	115	116	117	118	121	121	119	117	117	119	120	121	123	124	123	123	124	125	126	128	130	132	136	139	142	143	144	145	146	149	153	155	157	160	162	162	164	167	172	174	174	177	181	185	187	188	187	187	187	188	189	189	189	188	187	188	190	192	193	194	194	194	193	192	191	189	189	189	188	186	186	189	191	193	195	196	196	195	194	192	190	188	187	186	186	186	186	186	187	189	190	189	190	193	195	196	196	195	195	195	194	194	194	194	195	196	197	198	200	202	205	207	209	211	212	214	215	216	217	218	218	219	220	222	222	221	221	221	222	224	226	228	230	232	234	235	238	240	242	244	245	247	249	251	252	253	253	253	254	255	256	257	257	258	259	261	263	265	267	269	271	273	275	278	280	282	282	282	280	279	277	275	272	270	267	265	263	260	258	256	252	248	243	239	238	236	234	231	228	224	220	217	214	211	209	207	205	203	202	204	205	204	202	200	197	196	196	196	195	193	191	189	186	183	180	177	175	173	172	170	171	172	175	176	176	175	173	170	167	163	159	155	152	149	146	143	140	136	135	135	135	136	136	134	131	127	124	120	119
147	149	154	156	160	169	173	173	171	169	167	169	171	172	168	158	153	153	151	144	139	139	137	135	132	131	130	129	126	123	121	119	117	116	116	115	114	110	108	109	109	108	108	109	111	113	115	115	115	115	117	119	122	122	122	123	125	126	133	136	131	128	127	128	128	128	127	127	128	128	128	128	128	128	128	128	128	128	128	122	117	114	113	113	113	114	120	122	120	118	117	117	114	118	115	112	109	107	103	100	97	93	90	88	87	83	78	72	68	63	59	58	58	58	58	58	60	61	57	52	48	45	44	47	51	53	55	54	48	44	42	43	44	43	43	45	44	41	39	39	39	38	36	34	32	30	29	29	30	30	29	29	30	30	29	28	28	28	28	28	28	28	28	28	28	29	29	28	28	28	28	28	28	28	28	28	28	28	28	28	27	27	26	25	23	22	22	22	22	23	21	17	13	11	11	12	15	16	17	22	27	29	26	23	21	19	16	16	20	21	21	18	11	9	8	8	7	7	7	7	7	7	7	7	7	7	7	7	7	7	7	7	7	7	7	7	7	7	7	7	7	7	7	7	8	8	8	8	8	8	8	8	8	8	8	8	8	8	8	8	8	7	7	7	7	7	7	7	7	7	7	7	7	7	7	7	7	7	7	7	7	7	7	7	7	6	6	6	6	6	6	6	6	6	6	6	6	6	6	6	6	7	7	7	7	7	7	7	7	7	7	7	7	7	7	7	7	7	7	7	7	7	7	7	7	7	7	7	7	7	7	7	7	7	7	7	7	7	7	7	7	7	7	7	12	16	14	11	7	7	7	8	8	8	8	8	7	7	7	7	7	7	7	8	8	8	8	9	16	23	23	24	24	24	25	27	28	28	30	31	30	26	26	26	28	27	26	26	26	26	26	26	26	26	29	32	30	27	26	26	26	26	28	38	52	57	52	47	45	44	45	43	40	39	38	38	39	39	39	39	39	39	38	40	43	44	44	41	39	40	42	44	45	45	45	44	44	43	43	42	44	50	57	60	63	63	62	62	66	64	55	52	53	54	53	53	54	54	47	44	45	45	42	42	44	46	47	49	49	46	45	43	43	43	44	47	48	51	55	58	61	62	61	60	62	61	58	60	60	63	66	69	72	76	81	82	84	87	90	92	98	106	110	113	115	116	118	121	123	125	127	129	131	132	134	135	136	137	137	139	143	145	145	145	145	147	149	150	152	155	157	159	161	163	165	167	169	172	174	178	181	183	183	183	184	185	186	186	187	187	186	185	185	185	185	183	181	179	177	176	173	171	168	166	164	163	162	160	159	159	160	158	152	151	152	150	148	146	143	141	138	137	140	135	132	132	132	132	132	131	129	118	110	106	103	99	97	99	101	101	100	99	99	98	96	94	93	94	95	94	93	91	88	85	83	83	83	87	93	94	96	96	92	90	93	98	101	104	107	110	112	114	116	118	119	121	124	125	126	126	125	124	124	126	131	139	142	144	148	150	148	144	144	144	144	143	144	147	147	147	146	141	135	133	134	134	125	119	117	115	114	114	114	114	114	115	116	114	113	114	116	117	119	118	116	115	116	119	120	121	121	121	120	120	120	121	123	125	128	131	136	139	140	142	143	145	145	147	149	151	153	156	158	159	161	165	170	171	172	173	176	179	181	182	182	183	184	185	186	186	186	185	185	186	188	190	191	191	190	190	190	189	188	186	185	185	184	184	185	188	191	193	194	195	194	193	192	190	188	186	186	185	185	185	185	186	188	189	190	190	192	194	195	196	196	196	196	196	196	196	196	196	196	197	198	200	202	204	206	209	211	213	215	217	218	219	220	221	221	223	224	226	226	226	225	225	224	225	226	227	228	230	232	235	238	241	244	246	248	250	252	254	254	255	255	255	256	257	258	258	258	259	260	263	265	267	269	271	273	276	277	279	280	281	281	280	278	277	275	273	271	269	265	262	260	258	256	252	246	241	237	235	234	233	231	229	226	222	219	216	213	210	207	204	201	198	197	199	200	200	200	198	195	193	193	193	193	192	190	189	187	184	180	177	175	173	172	171	171	174	176	177	177	176	173	169	165	161	157	154	150	147	145	143	140	136	134	134	135	135	134	130	126	125	122	119	118
146	151	156	159	162	167	173	173	168	162	162	165	168	171	172	166	160	158	157	151	143	140	140	140	136	134	132	129	126	124	123	121	119	118	116	115	114	112	112	112	111	109	108	107	109	111	112	113	112	112	114	117	120	120	120	120	121	123	124	126	126	126	126	127	127	126	127	126	126	127	128	128	128	128	128	128	128	128	128	125	117	114	114	114	114	117	126	128	126	115	113	114	113	115	115	115	111	107	104	102	100	99	96	93	89	85	81	76	72	67	62	59	58	57	57	57	59	61	58	53	49	46	44	47	51	53	55	55	48	44	44	45	45	44	44	46	45	43	40	39	39	39	37	35	34	31	28	28	29	30	29	28	29	29	29	28	28	28	28	28	28	28	28	28	28	28	28	28	28	28	28	28	28	28	28	28	28	28	28	27	27	26	25	24	23	22	22	21	20	21	22	20	16	13	12	11	14	16	13	13	18	23	26	23	21	20	17	18	20	21	18	13	8	8	7	7	7	7	7	7	7	7	7	7	7	7	7	7	7	7	7	7	7	7	7	7	7	7	7	7	7	7	7	7	8	8	8	8	8	8	8	8	8	8	8	8	8	9	8	8	7	7	7	7	7	7	7	7	7	7	7	7	7	7	7	7	7	7	7	7	7	7	7	6	7	6	6	6	6	6	6	6	6	6	6	6	6	6	6	6	6	6	7	7	7	7	7	7	7	7	7	7	7	7	7	7	7	7	7	7	7	7	7	7	7	7	7	7	7	7	7	7	7	7	7	7	7	7	7	7	7	7	6	8	12	14	11	8	7	7	7	8	8	8	8	8	7	7	7	7	7	7	7	8	8	8	8	9	13	22	23	23	24	23	25	28	29	30	31	29	26	25	27	33	34	30	26	26	26	26	26	26	26	26	26	26	26	26	26	26	26	26	26	35	45	49	48	46	43	45	47	44	40	38	38	39	39	39	39	39	39	39	38	39	42	44	43	41	42	44	41	40	42	45	45	44	44	43	43	42	42	44	51	56	60	60	59	60	59	56	55	55	57	56	54	54	55	51	44	43	43	43	43	43	43	45	48	50	50	50	48	46	43	43	44	47	48	48	49	52	57	61	61	61	64	60	57	59	60	63	68	72	73	77	81	82	84	88	90	94	98	101	106	110	113	115	118	120	122	124	127	129	130	131	133	135	137	137	138	140	143	144	144	145	146	148	150	151	153	155	157	159	161	163	165	168	170	172	175	178	181	182	182	182	182	183	183	184	184	184	184	183	182	182	182	181	180	178	176	174	172	169	166	164	163	161	161	159	158	157	156	155	151	149	148	147	146	144	142	140	139	141	142	139	135	132	132	133	132	130	128	120	111	107	103	98	97	101	103	102	100	99	98	97	94	94	92	91	93	94	93	90	85	83	81	82	84	90	94	95	95	92	89	90	94	98	101	104	107	110	112	115	117	119	120	122	124	125	126	125	124	123	124	126	129	135	141	146	149	151	150	144	144	145	144	144	146	147	147	146	144	136	132	130	131	132	124	118	115	114	114	114	114	114	113	114	114	113	112	113	114	115	116	114	112	113	116	118	119	119	119	119	118	118	118	119	121	123	126	130	134	137	138	141	143	144	144	145	147	148	149	152	153	155	157	162	168	170	171	172	173	175	176	177	178	179	181	182	183	183	184	183	183	184	186	188	188	187	187	188	188	186	184	183	182	181	180	181	184	187	190	191	192	192	192	191	190	188	186	185	185	185	185	186	186	187	189	190	191	192	193	195	196	196	197	197	197	197	197	197	197	197	198	199	200	202	204	205	208	211	213	216	218	220	221	222	223	224	226	227	228	229	230	230	230	228	226	226	227	227	227	229	231	234	238	242	245	248	250	253	255	256	257	258	258	258	259	259	260	260	260	260	262	264	267	269	271	273	275	277	279	280	280	280	279	278	276	274	273	272	270	267	263	259	257	254	251	246	240	235	233	231	230	229	228	226	223	220	217	214	211	208	205	202	199	195	193	193	195	197	197	196	193	191	189	190	190	190	189	188	186	183	181	178	175	173	172	172	173	176	178	178	177	176	172	168	163	159	156	153	150	147	144	142	141	138	135	134	134	133	131	128	125	124	123	121	118
147	153	158	160	162	165	170	166	158	155	155	158	160	163	169	172	168	166	161	157	151	144	141	142	139	135	133	130	128	126	125	123	121	120	119	117	115	113	113	114	113	111	109	108	110	111	112	112	112	111	113	116	119	119	118	119	120	121	122	124	125	125	124	123	123	123	124	124	124	125	128	131	131	129	128	128	128	128	128	125	116	114	114	114	114	115	119	119	117	114	114	114	113	113	114	114	109	106	105	104	103	102	100	96	91	87	84	80	77	72	65	61	58	57	57	57	57	58	58	55	52	49	46	46	48	51	53	52	46	44	45	46	47	48	48	48	49	47	43	41	40	39	38	37	35	33	29	28	29	29	29	29	29	29	29	29	28	28	28	28	28	28	28	28	28	28	28	28	28	28	27	27	28	28	28	28	28	28	28	27	27	26	25	24	23	23	23	22	22	22	22	21	20	16	14	13	14	14	11	10	11	12	14	16	16	14	13	16	18	17	11	8	8	7	7	8	7	7	7	7	7	7	7	7	7	7	7	7	7	7	7	7	7	7	7	7	7	7	7	7	7	7	7	7	7	8	8	8	8	8	8	8	8	8	8	8	8	9	9	8	7	7	7	7	7	7	7	7	7	7	7	7	7	7	7	7	7	7	7	7	7	7	6	6	7	7	6	6	6	6	6	6	6	6	6	6	6	6	6	6	6	6	6	7	7	7	7	7	7	7	7	7	7	7	7	7	7	7	7	7	7	7	7	7	7	7	7	7	7	7	7	7	7	7	7	7	7	7	7	7	7	7	7	11	13	10	8	7	7	8	8	8	8	8	8	8	7	7	7	7	7	7	8	8	8	8	8	8	13	22	22	23	24	24	24	27	29	29	29	27	25	25	28	35	34	32	29	27	26	26	26	26	26	26	26	26	26	26	26	26	26	26	27	34	41	44	47	44	40	43	43	41	40	39	39	39	39	39	39	39	39	39	38	38	39	40	40	40	44	47	43	40	40	43	45	45	44	43	43	43	42	43	48	53	56	58	58	57	56	55	55	56	56	56	54	53	52	47	43	43	43	43	43	43	43	43	46	51	52	54	54	52	45	43	44	45	47	47	48	50	53	58	61	61	60	57	55	58	60	62	67	72	75	77	81	84	86	89	91	95	97	100	104	109	112	115	117	119	120	122	126	129	130	131	133	135	137	137	138	140	142	142	144	147	149	150	152	153	155	156	158	160	161	163	165	168	170	173	176	179	181	182	182	182	182	182	182	182	182	182	182	181	181	181	180	179	178	177	175	173	170	167	164	163	161	160	159	158	155	154	152	151	149	146	145	144	143	141	139	138	139	143	142	139	135	132	132	133	132	129	126	121	115	112	105	98	98	101	103	101	99	97	93	91	91	90	88	87	89	94	94	90	85	81	80	82	86	91	95	96	94	89	88	91	96	99	102	104	107	110	113	117	119	120	122	123	125	125	125	124	123	123	124	126	128	133	140	147	150	151	148	144	144	144	145	146	147	147	147	144	138	133	132	129	129	126	120	117	114	114	114	114	114	113	113	113	114	113	112	112	111	112	114	112	110	111	115	117	117	117	117	116	116	116	116	118	119	121	124	128	133	135	137	140	143	144	143	143	145	146	146	148	150	151	153	157	163	167	168	169	170	171	173	174	175	177	178	179	180	180	181	181	181	182	184	185	185	184	185	185	184	183	181	180	179	178	178	180	183	187	188	189	190	190	189	189	188	185	181	181	184	184	185	186	188	189	190	191	192	193	194	195	195	196	197	197	197	197	198	198	199	199	200	201	202	203	205	207	209	212	215	217	219	221	223	225	226	228	229	231	232	233	234	234	233	231	229	228	229	229	229	230	232	235	239	242	245	248	252	255	257	259	260	260	261	261	262	262	263	263	263	263	264	266	268	271	273	275	277	279	280	280	280	279	277	275	274	272	270	269	267	264	261	257	254	250	245	241	237	233	230	228	226	225	224	223	221	218	214	212	209	206	204	201	198	195	191	190	191	193	194	193	191	188	186	187	187	188	188	186	185	183	181	178	175	173	172	173	175	178	179	179	178	176	172	167	163	160	157	154	150	148	145	143	142	140	136	134	134	133	131	129	127	126	125	123	120
150	154	158	161	164	166	162	156	154	154	154	154	155	156	161	168	170	170	167	164	158	146	143	144	143	138	133	132	130	129	127	126	124	122	122	121	119	116	113	113	114	112	110	111	112	113	113	112	111	111	113	114	114	115	116	117	118	119	120	121	122	121	119	118	118	119	119	120	122	123	127	134	138	134	129	128	128	128	128	124	116	114	114	114	114	114	115	115	114	114	114	114	114	113	114	113	108	106	106	106	105	102	99	94	91	90	87	83	81	76	68	65	60	57	57	57	56	57	58	58	55	51	47	45	47	48	49	48	45	45	47	48	49	51	52	53	55	52	47	44	42	39	39	38	37	35	32	29	28	28	29	30	30	29	29	29	28	28	28	28	28	28	28	28	28	28	28	28	27	27	27	27	27	28	28	28	28	28	28	27	27	26	25	24	24	23	24	24	25	25	23	20	21	19	17	14	12	11	11	10	10	10	10	12	12	9	9	13	15	13	9	8	8	7	8	8	8	7	7	7	7	7	7	7	7	7	7	7	7	7	7	7	7	7	7	7	7	7	7	7	7	7	7	7	7	8	8	8	8	8	8	8	8	8	8	8	8	9	9	8	7	7	7	7	7	7	7	7	7	7	7	7	7	7	7	7	7	7	7	7	7	6	6	6	7	7	7	7	7	6	6	6	6	6	6	6	6	6	6	6	6	6	6	7	7	7	7	7	7	7	7	7	7	7	7	7	7	7	7	7	7	7	7	7	7	7	7	7	7	7	7	7	7	7	7	7	7	7	7	7	6	7	10	16	14	9	7	7	8	8	8	8	8	8	8	8	7	7	7	7	7	7	8	8	8	8	8	8	12	21	23	25	26	25	24	26	27	27	26	25	25	25	27	32	33	36	37	33	27	26	26	26	26	26	26	26	26	26	26	26	26	26	28	34	40	43	45	41	39	41	41	39	39	39	39	39	39	39	39	39	39	39	39	38	39	39	39	39	44	48	46	42	38	40	46	46	44	43	43	43	42	42	44	51	53	54	54	55	55	54	54	54	54	53	49	47	46	43	43	43	43	43	43	42	43	44	44	48	52	55	56	54	45	42	43	44	46	46	47	50	51	53	55	57	55	54	55	58	60	62	65	72	76	78	85	87	86	89	92	93	95	99	103	108	111	114	116	118	119	121	125	128	130	131	133	136	137	138	138	139	140	141	144	150	152	152	153	154	155	157	159	160	162	164	166	168	170	174	177	179	181	182	181	181	181	181	181	181	181	181	181	181	181	180	179	178	177	175	174	171	167	164	163	162	160	158	157	155	153	152	150	148	146	145	145	143	141	139	137	136	139	142	141	137	133	132	133	132	130	127	124	120	117	113	103	98	98	101	102	99	97	93	88	88	89	91	88	87	87	91	92	89	85	81	80	81	87	93	95	96	92	87	88	93	98	102	104	105	108	110	114	118	120	121	124	126	126	125	124	123	122	123	124	126	128	136	142	147	149	150	146	144	144	144	146	147	147	146	146	140	133	131	129	126	125	121	118	115	114	113	114	114	114	113	113	113	114	114	113	111	110	109	111	112	111	111	113	115	114	115	114	114	113	113	114	116	118	120	123	127	131	133	135	137	141	142	140	139	140	142	144	146	147	149	150	153	158	161	163	165	167	169	171	173	174	175	176	177	177	177	178	178	179	180	182	183	183	182	182	182	180	179	178	177	177	177	177	180	183	185	187	187	188	188	187	187	186	183	180	181	183	184	185	187	189	191	191	192	193	193	194	194	195	195	196	196	197	198	199	199	200	201	202	202	203	205	206	208	211	213	216	218	221	223	225	226	228	230	232	234	235	236	237	237	236	233	231	231	231	231	231	233	235	238	241	244	246	249	253	256	259	261	262	263	263	264	265	265	265	266	266	266	266	268	270	273	275	277	278	279	280	280	278	276	274	273	272	270	267	265	263	261	259	255	250	244	241	238	235	231	228	225	223	222	221	220	218	215	212	210	207	205	202	199	197	194	191	189	188	190	190	190	188	186	185	185	186	186	186	185	184	182	180	177	174	173	173	174	176	178	179	178	177	175	172	168	164	161	158	155	152	149	147	145	143	141	138	136	134	133	133	132	131	129	127	125	122
152	155	161	165	167	163	156	154	154	154	154	154	154	154	155	160	168	171	171	172	168	153	147	147	147	142	137	135	134	133	131	129	126	124	123	123	122	120	117	115	116	115	114	114	115	115	114	112	112	112	112	110	107	110	115	116	116	116	117	118	118	117	116	116	116	116	115	116	119	120	123	132	136	135	127	127	127	127	126	120	114	114	114	114	114	114	114	114	114	114	114	114	114	114	114	114	111	108	107	107	106	102	98	93	90	91	88	83	81	78	73	70	66	59	57	57	56	56	57	58	58	56	52	48	45	45	44	45	45	47	49	50	52	54	56	57	56	54	51	46	44	41	39	39	38	36	34	31	28	28	29	30	30	29	29	29	29	28	28	28	28	28	28	28	28	28	28	27	27	27	27	27	27	27	28	28	28	27	27	28	27	27	26	25	24	24	24	25	26	25	21	17	19	20	20	17	13	11	11	11	11	10	10	10	11	11	9	9	12	10	9	8	8	8	8	8	8	8	7	7	7	7	7	7	7	7	7	7	7	7	7	7	7	7	7	7	7	7	7	7	7	7	7	7	7	7	8	8	8	8	8	7	8	8	8	8	8	8	9	8	7	7	7	7	7	7	7	7	7	7	7	7	7	7	7	7	7	7	7	7	7	6	6	7	7	7	7	7	7	6	6	6	6	6	7	7	7	6	6	6	6	6	6	6	7	7	7	7	7	7	7	7	7	7	7	7	7	7	7	7	7	7	7	7	7	7	7	7	7	7	7	7	7	7	7	7	7	7	7	7	7	11	14	14	12	8	7	8	8	8	8	8	8	8	8	8	8	7	7	7	7	7	8	8	8	8	8	8	11	20	26	28	30	26	24	24	25	25	25	25	25	25	27	33	40	41	42	41	30	26	26	26	26	26	26	26	26	26	26	26	26	26	29	33	37	40	39	38	38	40	40	40	40	39	38	38	39	39	39	39	39	39	39	39	39	39	39	39	41	45	46	45	39	38	43	47	46	44	43	43	42	42	42	43	45	47	50	54	55	54	53	52	51	46	42	43	43	43	43	43	43	43	42	40	43	45	44	46	51	54	54	51	42	41	42	43	45	46	48	50	51	51	51	53	53	54	56	59	61	62	63	70	75	77	83	86	84	87	92	94	96	99	104	108	111	113	116	117	118	121	124	127	130	131	134	136	138	138	138	139	140	141	145	150	152	152	153	154	156	158	159	161	163	164	166	168	170	174	177	180	182	182	182	181	181	181	181	181	181	181	181	181	181	179	178	177	175	173	171	169	166	163	162	161	159	156	155	153	152	150	148	146	145	147	150	144	138	136	135	136	140	140	139	135	132	131	132	130	127	124	122	120	117	111	102	99	99	101	102	99	96	92	88	88	90	94	92	88	87	91	91	88	85	82	82	84	91	95	97	96	90	86	88	95	101	104	106	107	109	111	115	118	121	124	127	127	125	123	122	122	122	122	124	126	130	138	143	146	149	149	146	144	144	145	147	148	146	146	143	136	132	130	126	124	122	119	116	114	114	114	114	114	114	113	112	113	114	114	114	112	110	108	108	110	111	111	112	112	112	112	112	111	111	112	113	115	117	119	122	125	129	132	134	134	134	134	134	134	136	139	141	144	146	148	150	152	154	157	160	163	165	167	170	171	172	174	175	175	175	175	175	175	176	178	180	181	181	180	179	178	177	176	176	176	175	176	177	180	182	184	185	186	187	186	185	184	183	182	182	182	183	184	186	188	190	191	191	192	192	193	193	192	192	192	193	194	195	197	198	200	201	202	203	203	204	206	207	209	211	214	216	218	221	224	226	228	230	232	234	236	237	239	241	241	239	236	234	234	235	235	235	237	239	242	245	248	250	252	255	258	262	264	265	265	266	267	267	268	268	268	269	269	269	270	272	275	277	278	279	280	280	278	276	274	272	271	270	267	264	262	260	258	255	250	244	240	238	236	234	230	227	224	222	220	218	217	216	214	211	209	206	203	201	198	195	193	190	187	185	186	186	186	186	184	183	183	183	184	183	183	182	181	180	177	175	173	173	174	176	177	178	178	177	174	172	168	165	162	159	156	153	151	149	147	145	143	141	139	137	135	133	133	135	135	129	126	122
156	159	164	166	166	160	154	154	154	154	154	154	154	154	154	155	160	168	172	174	171	161	152	149	146	143	141	139	137	136	134	132	130	127	124	123	123	122	120	118	118	119	118	117	117	116	114	112	112	112	112	107	104	107	114	115	114	114	115	116	117	115	114	114	114	114	113	113	114	117	118	123	131	127	121	121	120	119	117	114	113	114	114	114	114	114	114	114	114	114	114	114	114	113	113	114	113	111	109	108	106	102	98	95	92	91	88	83	81	81	80	77	75	66	58	57	56	56	56	57	57	57	55	50	46	44	43	44	45	47	50	52	55	55	56	55	54	53	54	53	48	43	40	39	38	37	35	34	31	29	28	29	29	29	29	29	29	29	28	28	28	28	28	28	28	27	27	27	27	27	27	27	27	27	27	28	28	27	28	28	28	27	27	26	25	25	25	25	25	23	17	13	15	19	20	19	16	13	11	11	11	10	10	10	10	11	10	10	10	9	9	9	8	8	8	8	8	8	7	7	7	7	7	7	7	7	7	7	7	7	7	7	7	7	7	7	7	7	7	7	7	7	7	7	7	7	8	8	8	8	8	8	8	8	8	8	8	8	8	8	7	7	7	7	7	7	7	7	7	7	7	7	7	7	7	7	7	7	7	7	7	6	7	7	7	7	7	7	7	6	6	6	6	6	6	7	7	7	6	6	6	6	6	6	7	7	7	7	7	7	7	7	7	7	7	7	7	7	7	7	7	7	7	7	7	7	7	7	7	7	7	7	7	7	7	7	7	7	7	7	8	11	10	8	8	7	7	8	8	8	8	8	8	8	8	8	8	8	8	7	7	7	8	8	8	8	8	8	11	21	26	29	30	28	27	27	25	24	25	25	25	25	29	39	42	41	39	35	29	26	26	26	26	26	26	26	26	26	26	26	26	27	30	33	36	38	38	37	38	39	40	43	42	40	38	38	39	39	39	39	39	39	39	39	39	39	39	39	39	40	42	46	44	38	37	42	49	47	43	43	42	42	41	41	41	43	46	51	53	53	52	51	48	41	40	42	43	43	43	43	43	43	40	37	40	43	45	47	49	51	52	46	41	42	42	44	46	47	49	51	51	51	52	53	54	55	56	59	60	61	62	67	72	74	78	81	82	85	91	97	98	102	106	107	110	113	116	117	119	121	124	127	129	131	133	136	138	138	139	140	141	142	145	147	149	151	154	156	157	159	161	162	164	165	166	168	170	173	177	181	183	183	183	182	181	181	181	181	181	181	181	181	180	178	177	175	174	171	168	166	164	163	162	160	157	154	153	152	150	148	147	146	146	149	150	143	136	134	135	139	141	139	135	131	129	129	130	128	124	122	121	120	114	105	102	102	101	100	99	98	96	93	89	90	93	95	94	91	89	91	91	87	84	83	84	89	93	96	98	96	90	86	89	97	103	105	107	109	111	113	117	120	123	125	124	122	121	121	121	121	121	122	124	126	132	140	143	146	149	149	146	144	144	146	148	147	145	146	141	133	131	128	126	124	121	118	116	114	115	115	114	114	113	113	112	113	113	114	113	112	110	107	106	107	109	109	110	111	110	110	110	110	110	111	112	115	117	118	121	125	128	130	133	132	130	129	130	131	134	136	139	142	145	147	149	151	153	156	159	161	164	166	168	170	171	172	173	173	173	173	172	173	174	176	178	179	179	178	176	176	175	175	175	174	174	175	177	179	182	183	183	185	185	185	183	183	183	184	184	183	183	184	186	188	190	190	191	191	191	191	190	189	189	188	188	190	191	194	197	199	201	202	203	203	204	205	206	208	211	213	215	218	220	224	227	229	231	234	236	238	239	242	244	244	242	240	239	239	239	239	240	241	243	245	248	251	253	256	258	262	265	267	268	268	269	270	270	270	270	271	272	273	273	274	275	277	278	279	279	279	279	277	274	272	270	269	267	265	262	259	257	254	250	244	239	237	236	235	233	230	226	223	220	217	215	214	213	212	210	208	205	202	199	197	194	192	189	187	184	184	183	182	182	182	181	181	180	180	181	181	181	180	179	177	175	173	173	174	176	177	178	178	176	174	171	168	165	162	159	157	154	152	150	148	146	145	144	142	140	138	135	133	138	138	130	125	120
160	162	163	165	161	156	154	154	154	154	154	154	154	154	154	154	155	159	168	173	173	164	154	151	147	144	144	142	139	138	136	134	133	129	124	124	124	124	122	120	120	121	120	119	118	117	115	113	112	112	112	108	103	105	111	113	113	114	114	116	116	113	112	112	113	113	112	111	111	113	115	115	119	119	119	118	117	116	114	114	115	114	114	114	114	114	114	114	114	113	114	114	114	114	114	114	114	112	109	109	107	103	100	98	94	92	90	87	85	85	86	83	79	74	64	57	56	56	55	55	55	56	55	53	50	46	44	45	46	48	51	54	57	56	54	53	53	54	59	60	56	48	42	39	39	38	36	35	34	31	29	28	29	29	29	29	29	29	29	28	28	28	28	27	27	27	27	27	27	27	27	27	27	27	27	28	28	28	28	28	28	27	27	27	26	26	26	26	25	23	18	15	15	17	18	19	19	16	14	12	11	10	10	10	10	10	10	10	10	11	12	10	9	8	8	8	8	8	7	7	7	7	7	7	7	7	7	7	7	7	7	7	7	7	7	7	7	7	7	7	7	7	7	7	7	7	8	7	7	7	8	8	8	8	8	8	8	8	8	7	7	7	7	7	7	7	7	7	7	7	7	7	7	7	7	7	7	7	7	7	7	7	7	7	7	7	7	7	6	6	6	6	6	6	6	6	6	6	6	6	6	6	6	6	6	7	7	7	7	7	7	7	7	7	7	7	7	7	7	7	7	7	7	7	7	7	7	7	7	7	7	7	7	7	7	7	7	7	7	7	7	7	7	7	7	7	8	8	8	8	8	8	8	8	8	9	9	8	8	8	8	8	8	8	8	8	8	9	13	22	28	29	31	33	34	31	26	24	25	25	25	25	28	38	42	41	36	29	26	26	26	26	26	26	26	26	26	26	26	26	26	28	30	33	35	37	37	37	37	38	41	45	43	40	39	38	38	39	39	39	39	39	39	39	39	39	39	39	39	39	41	46	47	38	36	37	48	52	45	43	42	42	42	42	41	40	42	45	49	50	50	50	47	40	39	40	41	42	42	41	41	39	36	35	37	41	44	46	48	49	48	41	41	43	44	47	48	48	50	51	52	54	55	56	58	59	59	59	60	60	62	66	71	73	75	78	81	84	89	97	101	108	109	108	110	113	115	118	119	122	124	127	130	132	134	135	137	138	139	140	142	144	145	147	149	152	155	157	159	160	162	164	165	167	167	168	169	172	176	180	182	183	183	182	181	181	181	181	181	181	181	180	179	177	176	174	172	169	167	165	164	162	161	158	155	153	152	150	148	147	147	148	148	147	144	138	135	137	140	141	141	138	131	127	127	128	128	126	123	121	121	118	109	103	104	106	104	99	95	96	94	90	89	93	95	95	94	93	91	91	90	86	83	82	85	91	95	96	97	94	88	87	91	99	103	106	108	110	113	115	119	122	125	123	121	120	120	120	120	120	121	122	124	127	136	142	143	147	149	149	145	144	144	145	147	146	146	147	138	131	128	126	128	127	122	117	115	114	116	116	114	113	113	112	112	113	113	114	112	110	108	107	105	105	107	108	109	109	109	109	109	109	109	109	111	114	116	117	120	124	126	128	130	129	128	127	128	129	132	135	138	141	144	146	148	150	153	156	158	160	162	164	166	167	169	170	170	170	170	170	170	171	173	175	177	177	177	175	174	174	173	173	174	173	174	175	176	179	182	183	183	184	184	184	183	183	184	185	185	184	184	185	186	188	189	189	189	189	188	188	187	186	185	184	184	185	187	191	195	198	200	201	201	202	203	204	204	206	208	211	213	216	219	224	227	229	232	234	237	239	241	243	246	246	246	244	243	242	242	242	243	244	245	247	249	252	256	260	263	266	269	270	271	271	272	272	272	272	273	274	275	275	276	277	277	278	278	279	279	279	277	275	273	271	268	266	264	262	260	257	255	251	246	240	237	236	235	234	232	228	225	222	219	216	213	211	210	209	208	206	204	201	198	196	193	191	188	186	184	183	181	180	180	180	180	179	178	178	178	178	178	178	178	177	175	173	172	173	175	176	176	176	175	172	169	167	164	161	159	157	155	153	151	149	147	146	145	143	141	139	136	133	136	137	129	123	119
