189	188	188	188	189	190	192	193	195	196	195	195	194	193	191	192	194	196	198	199	199	199	199	199	199	200	202	204	207	211	214	217	221	225	228	230	232	235	237	239	240	240	239	238	237	238	239	241	243	246	248	250	253	255	256	257	257	256	255	253	252	251	252	253	255	257	258	259	259	259	258	256	254	252	250	249	247	245	243	241	239	237	235	234	232	231	230	229	226	223	221	218	214	211	209	207	205	203	200	197	194	192	191	192	192	193	195	196	195	195	195	199	200	201	204	208	212	215	217	218	218	218	214	210	209	209	209	210	212	216	219	221	225	229	231	232	233	232	232	231	231	231	229	223	220	216	217	219	220	220	220	221	221	223	223	222	223	226	229	233	236	237	240	244	245	244	244	245	245	248	252	255	258	260	263	265	267	270	272	274	275	277	279	281	283	284	285	285	284	284	285	286	286	284	282	281	283	286	288	289	290	291	292	293	293	294	294	293	293	292	292	293	293	293	292	291	290	288	286	283	281	280	278	277	276	275	274	273	272	270	269	268	267	267	268	266	265	264	262	261	257	254	252	254	255	255	252	251	250	250	252	254	257	260	263	265	267	269	271	272	274	276	280	282	284	289	293	295	298	301	303	306	309	315	322	327	332	335	337	340	344	347	351	354	358	365	371	378	385	391	394	398	402	405	408	409	410	411	413	414	412	410	407	404	402	399	396	393	390	387	383	378	372	368	366	363	360	358	355	352	348	344	341	339	337	334	332	329	327	324	321	319	317	314	312	309	307	305	303	301	297	294	290	287	284	280	277	275	273	269	265	262	261	259	257	255	252	248	245	243	241	238	235	233	232	230	228	227	225	224	224	223	222	222	222	221	218	218	218	218	216	215	215	216	216	215	214	213	211	208	204	200	197	195	194	191	190	191	193	195	196	197	197	196	194	191	187	183	180	176	172	169	168	169	172	175	177	178	180	183	186	188	191	192	194	195	196	197	198	199	201	203	204	205	205	205	205	206	206	206	206	205	204	202	200	198	197	199	200	201	201	201	202	203	205	205	206	207	209	211	212	212	212	214	214	214	213	214	215	218	220	222	224	226	227	229	231	232	234	235	236	237	239	241	241	242	243	245	246	247	249	251	252	254	255	257	258	260	260	260	262	265	266	268	270	273	275	276	277	278	280	281	283	285	286	287	288	288	290	291	292	293	294	297	299	302	305	308	310	311	313	315	317	319	321	323	326	328	330	332	334	337	339	341	345	349	352	354	357	359	362	364	366	366	366	366	365	364	364	363	360	356	353	351	348	346	343	341	338	335	333	330	328	325	324	323	321	319	318	317	315	313	311	310	309	308	308	309	309	309	307	303	303	304	304	304	303	302	302	301	299	298	298	297	296	296	296	295	295	296	295	295	296	296	296	296	296	296	297	297	298	299	298	298	298	299	301	303	306	309	313	316	317	317	318	320	321	321	320	320	319	318	317	316	316	316	315	314	314	314	315	316	316	316	317	319	320	321	322	323	325	328	328	327	327	326	324	321	318	318	318	318	320	323	324	325	325	325	326	327	327	327	325	322	318	316	315	314	313	310	309	309	310	310	311	311	311	311	311	312	314	315	317	319	320	321	322	323	324	325	325	326	326	325	325	325	323	320	317	315	313	311	309	307	304	302	300	297	294	292	289	287	284	281	279	277	276	275	274	274	273	272	271	269	268	267	267	267	268	267	265	264	263	263	262	261	260	259	259	258	257	256	255	254	253	252	251	250	249	248	246	245	244	242	241	240	238	237	235	233	231	230	228	228	228	227	226	226
192	193	192	192	192	193	194	196	198	199	198	198	197	195	194	195	196	198	199	201	201	200	200	200	201	203	205	207	209	211	214	217	220	225	229	231	234	238	240	242	244	244	243	242	241	241	241	243	247	250	253	256	257	259	259	259	259	259	257	255	254	254	254	255	257	258	260	261	262	261	260	259	256	254	252	251	249	247	245	242	240	238	236	234	233	232	230	228	226	224	222	219	214	211	208	206	205	204	201	199	196	193	192	193	196	197	196	194	194	196	199	202	202	203	205	209	213	216	218	219	219	218	214	211	211	211	210	210	212	217	222	225	227	229	231	232	232	232	232	232	233	233	231	226	220	218	218	219	221	221	221	220	221	223	223	222	223	226	229	233	235	235	236	239	241	243	243	242	242	246	250	253	257	260	262	264	266	269	271	272	273	275	277	279	280	281	282	282	282	282	285	286	285	283	281	280	281	284	286	287	289	290	291	291	291	292	292	291	290	290	290	291	291	290	290	289	287	286	283	281	279	277	275	275	275	274	271	270	269	268	268	266	265	265	264	262	261	261	260	259	258	255	253	253	254	253	251	250	249	250	251	253	256	259	261	264	266	268	270	272	273	276	279	283	286	289	292	294	298	301	303	305	309	315	321	325	329	332	335	338	341	345	350	353	359	365	372	380	387	391	394	397	400	403	406	407	408	409	410	410	409	406	404	401	397	394	391	389	386	383	379	374	368	365	363	360	357	355	352	349	345	342	339	337	335	333	330	327	325	322	319	316	314	311	309	307	305	303	302	299	295	292	289	286	283	279	275	273	271	267	263	260	258	256	254	252	249	245	243	241	239	236	234	232	230	227	226	225	224	223	222	221	221	220	220	218	217	216	216	215	213	212	213	215	215	214	213	212	209	206	203	200	196	193	192	190	188	188	190	193	194	195	194	193	191	189	185	181	177	173	170	168	167	169	172	175	177	179	181	184	186	189	191	193	195	196	197	198	198	199	202	204	206	207	207	207	208	208	208	208	208	207	206	204	201	198	197	198	199	201	200	201	202	203	204	206	206	208	209	211	212	212	213	214	214	214	215	215	217	218	220	222	225	227	228	229	231	233	234	236	237	238	239	241	242	242	243	245	246	248	249	251	253	255	256	257	258	259	260	260	262	265	267	267	269	271	273	276	277	279	281	282	283	284	286	287	288	289	290	292	293	295	296	299	301	304	307	309	311	312	313	315	317	319	321	324	327	330	332	333	335	338	340	342	346	350	352	354	357	359	361	364	365	366	367	366	365	364	363	362	360	357	354	351	347	345	343	341	338	336	334	331	329	326	325	324	322	320	318	316	315	313	312	311	310	309	308	309	309	308	306	304	304	304	304	304	304	303	303	303	301	300	299	299	298	298	298	297	297	297	297	297	298	298	298	298	298	298	299	299	300	301	300	300	300	300	301	303	306	309	312	315	317	318	319	321	322	323	323	323	322	321	319	319	319	318	317	316	316	316	317	317	318	318	319	321	322	323	324	324	327	330	330	329	328	327	325	322	319	319	319	319	321	324	326	326	326	326	326	327	327	328	328	325	320	317	316	316	314	312	311	311	312	312	313	313	313	313	313	313	315	317	319	320	322	322	322	324	325	325	326	326	326	325	325	324	322	319	316	314	312	310	308	306	303	301	298	296	293	291	289	286	283	280	279	277	277	276	275	275	274	274	273	271	269	268	268	268	268	268	266	265	264	263	263	262	261	260	260	259	258	256	255	255	254	252	252	251	249	247	246	245	244	242	240	239	238	236	235	233	231	229	228	228	228	227	226	226
196	197	197	197	196	197	197	199	201	201	201	201	200	198	196	197	198	200	201	203	203	202	200	201	204	208	209	210	211	213	215	218	221	225	229	233	236	240	243	246	247	248	247	246	245	244	244	246	250	254	257	259	261	261	262	262	262	261	260	258	257	256	257	257	259	260	262	264	265	264	262	261	259	257	255	253	251	249	246	244	242	239	237	236	234	232	230	229	227	226	224	220	214	211	208	207	206	206	203	200	198	195	193	195	198	199	197	194	195	200	204	205	203	204	206	209	211	214	217	219	219	218	215	213	213	213	212	212	214	218	222	225	228	230	231	231	231	231	231	232	233	233	232	229	226	226	224	225	226	225	224	223	225	227	226	224	225	227	230	235	237	235	236	238	241	244	244	241	242	246	249	252	255	258	260	262	265	267	268	269	271	272	274	276	277	278	278	279	279	281	283	285	284	283	280	278	280	282	284	285	287	288	288	288	289	290	290	290	289	288	288	288	288	287	287	285	284	283	280	278	276	274	273	273	273	271	269	267	266	265	264	262	261	260	259	258	257	258	257	256	256	256	254	253	252	251	249	248	248	249	250	253	255	257	259	262	265	267	269	272	274	277	280	283	287	289	290	292	296	299	302	306	310	315	320	324	327	329	332	335	339	343	349	354	360	367	374	381	386	390	393	396	399	401	404	405	406	407	407	406	405	403	400	397	393	390	387	385	383	380	375	368	364	361	359	356	353	351	348	345	342	339	337	335	333	330	327	325	322	319	316	314	312	309	306	304	302	301	299	296	293	291	288	285	281	277	274	271	268	265	261	258	256	254	252	249	246	243	241	239	237	234	232	230	227	225	224	224	223	222	220	219	219	219	219	217	215	214	213	212	210	209	211	213	214	213	212	210	207	205	203	199	194	192	191	189	186	185	188	191	192	193	193	191	188	186	183	178	174	171	169	167	167	169	172	174	177	178	181	183	186	189	191	193	195	196	197	198	198	200	202	205	207	208	209	209	209	210	210	209	209	208	208	206	203	200	199	198	199	199	200	201	202	203	204	205	206	208	210	212	212	213	214	215	215	215	215	216	217	218	220	222	225	226	227	228	230	233	236	237	238	239	240	241	242	242	243	245	247	249	251	252	254	254	256	257	258	260	261	262	263	266	267	268	268	270	272	275	278	279	281	281	282	284	286	288	289	289	291	293	295	297	298	300	302	305	308	311	312	313	314	315	317	319	321	324	328	331	333	335	337	338	340	342	347	351	353	354	357	359	361	363	365	366	366	366	364	363	362	361	360	358	355	351	347	345	343	341	339	337	335	332	330	327	325	324	322	320	318	317	315	314	313	312	310	310	309	309	309	308	307	306	305	305	304	304	304	304	305	304	303	302	302	301	301	301	301	300	299	298	299	299	300	300	300	300	300	300	300	301	301	302	301	301	301	302	303	304	306	309	311	313	316	318	320	322	324	325	325	325	324	323	322	322	322	320	319	317	317	317	318	320	321	321	322	323	324	325	326	326	328	332	332	331	329	328	326	323	321	320	320	320	323	325	327	327	328	328	327	327	327	329	328	324	320	318	318	317	316	314	314	313	314	314	315	316	316	315	315	315	316	319	321	322	323	323	324	325	326	326	326	326	326	326	324	323	320	318	316	314	312	310	307	305	303	300	298	295	292	290	288	285	282	280	279	279	278	277	276	276	275	275	274	272	271	269	268	268	269	268	267	266	265	264	264	264	263	262	261	259	258	256	255	255	254	253	252	251	249	247	246	245	244	242	240	239	238	236	234	232	230	229	228	228	227	227	226	226
199	200	200	201	200	200	200	201	202	203	203	203	202	201	200	199	200	202	203	205	206	205	203	202	206	210	212	213	214	216	218	220	223	226	230	234	238	242	245	248	250	251	251	250	249	247	247	249	253	257	260	262	263	264	265	264	264	263	262	260	259	258	259	260	261	262	264	266	267	266	265	263	261	259	257	255	253	250	248	246	243	241	239	236	234	233	231	230	228	227	226	222	216	213	211	210	211	210	206	203	201	197	195	196	200	200	199	199	200	201	204	204	203	204	206	208	210	212	216	218	219	218	217	217	217	217	218	218	219	220	222	225	228	230	230	230	230	230	231	232	233	233	233	231	230	232	233	234	234	233	230	229	230	231	229	229	227	227	231	235	236	236	238	241	242	244	244	241	243	246	249	252	254	256	258	260	262	264	265	266	268	270	271	273	274	275	275	276	277	279	281	282	282	281	279	276	278	280	282	283	285	286	286	287	287	287	289	288	287	285	285	285	285	285	284	282	281	280	279	277	275	273	272	271	269	268	266	264	263	261	259	257	256	255	254	253	253	253	254	255	255	254	253	251	250	249	247	246	246	248	250	253	254	256	257	260	264	266	269	272	275	277	279	282	286	288	289	291	294	298	301	306	311	314	317	321	323	326	329	333	336	341	349	355	362	368	376	381	385	388	391	394	396	399	401	403	404	404	404	403	401	399	396	393	390	387	384	383	380	376	370	364	361	358	355	352	349	347	344	342	339	337	335	333	330	328	325	322	320	317	314	312	310	306	303	301	299	298	295	293	291	288	286	282	279	275	272	269	266	263	259	256	254	251	249	247	244	241	240	238	235	232	230	227	225	224	223	222	221	220	218	217	217	217	217	215	213	212	211	210	209	208	208	210	212	211	210	208	206	203	201	198	193	191	190	188	184	183	185	188	190	190	190	187	185	183	179	175	173	171	168	166	166	169	172	174	176	178	180	183	186	188	190	193	195	196	196	197	198	199	202	204	206	208	209	210	210	211	211	211	210	209	208	208	206	205	203	201	199	198	199	202	203	204	205	206	207	208	210	212	212	213	215	217	217	216	216	216	217	219	221	223	224	225	226	227	230	234	236	238	239	239	240	241	242	243	245	246	248	250	251	252	253	254	256	258	259	261	263	264	265	266	267	269	269	270	272	275	278	280	281	282	283	284	287	289	290	291	292	294	296	298	300	302	303	305	308	312	314	315	315	317	318	320	322	325	328	330	333	335	338	339	340	343	347	350	352	354	357	359	361	363	364	365	365	365	364	363	362	361	360	359	357	352	348	345	343	341	339	337	335	333	331	329	327	325	323	321	319	317	316	315	314	313	312	311	310	310	310	310	309	308	307	306	305	304	304	305	305	305	304	304	303	303	304	304	303	302	301	300	300	300	301	302	302	301	301	302	302	302	302	302	303	303	303	304	305	305	308	310	311	313	315	318	321	323	325	326	328	328	327	325	325	325	324	322	320	319	319	319	320	323	324	324	324	325	326	328	328	329	330	333	333	332	330	329	327	324	322	321	321	322	324	326	328	329	329	329	329	328	329	330	329	324	320	319	319	318	317	316	316	316	316	316	317	318	318	318	317	317	318	320	323	323	324	325	325	326	326	326	326	326	325	324	323	321	319	317	316	314	312	309	307	304	302	299	296	294	291	289	287	284	281	280	280	280	280	279	278	277	276	275	274	273	271	270	268	269	269	269	267	266	266	265	264	264	264	263	261	259	257	256	256	256	255	254	253	251	250	247	245	244	243	242	241	239	238	236	233	231	230	230	228	227	227	226	226	225
202	203	204	204	204	203	203	203	204	205	205	206	206	205	204	203	203	205	206	207	208	207	206	205	206	209	212	214	216	218	220	222	225	228	232	235	239	243	246	248	251	254	255	254	252	250	251	252	256	260	262	264	266	267	267	267	266	266	264	262	261	261	261	262	263	264	266	268	269	269	267	266	264	261	259	256	254	252	249	247	245	243	240	238	236	234	232	231	229	227	226	223	220	217	215	214	214	211	207	204	203	201	197	199	203	204	203	202	202	202	202	204	205	205	207	208	209	211	215	217	218	218	218	219	221	222	223	222	222	223	224	226	228	229	230	231	231	231	233	234	235	235	234	232	232	234	234	235	235	234	233	232	233	232	230	229	225	224	229	234	235	237	239	242	243	244	243	241	243	246	248	251	253	255	256	258	259	261	262	263	265	267	268	269	270	271	272	273	275	278	280	281	280	280	277	275	276	278	280	282	283	284	285	285	284	285	286	286	285	283	283	284	284	283	281	279	279	279	277	276	275	273	271	269	265	263	263	262	260	259	257	255	253	251	250	250	249	249	251	254	252	250	249	248	248	247	245	244	245	247	250	253	254	255	256	259	262	265	268	271	274	277	279	282	285	286	288	291	294	297	299	304	309	311	314	317	320	323	327	331	335	340	347	354	362	369	375	380	382	386	389	391	394	396	398	400	401	401	400	399	397	395	393	390	386	384	382	379	375	370	365	361	358	355	351	348	346	343	340	338	337	334	332	330	328	325	323	321	318	316	313	311	308	304	301	299	297	295	292	290	288	286	283	280	277	274	271	267	264	261	257	254	251	248	246	244	241	239	237	236	233	230	227	225	223	222	221	219	218	217	216	216	215	215	214	212	212	211	210	209	208	205	204	205	207	208	208	206	204	201	199	196	193	190	189	187	183	180	180	183	186	187	185	182	181	179	176	173	172	171	168	166	165	168	171	172	175	177	179	182	185	187	190	192	194	195	195	195	196	197	201	203	205	207	209	210	211	212	212	212	211	210	210	210	209	209	207	204	201	197	198	202	204	204	205	206	207	208	210	212	212	213	216	218	219	218	217	217	218	219	221	224	225	226	228	229	231	234	236	237	238	239	241	242	244	245	246	247	249	250	251	253	254	256	258	260	260	262	264	265	266	267	268	269	270	270	272	275	277	279	281	282	284	286	288	291	292	293	294	295	296	299	301	303	304	305	308	312	314	315	316	317	319	321	323	325	328	330	332	335	338	339	340	342	345	349	351	353	356	359	361	362	363	364	364	364	364	364	363	362	360	359	357	352	348	345	344	342	339	337	335	333	331	329	327	325	323	322	320	318	317	316	315	314	313	312	312	312	311	311	311	309	309	308	307	306	306	306	307	306	306	305	305	305	306	306	305	304	303	302	302	302	302	304	304	303	303	303	303	303	303	304	304	304	305	306	307	307	309	311	312	313	316	318	321	323	326	328	330	330	329	328	328	327	326	324	323	321	321	321	323	326	327	327	326	327	328	330	331	331	332	333	333	332	331	330	328	326	324	323	323	323	325	327	329	330	331	331	330	330	331	332	330	325	321	320	320	319	318	318	318	318	318	319	319	320	320	320	319	318	318	321	324	324	325	326	325	325	326	327	327	326	324	322	321	320	319	317	316	314	312	309	306	303	301	298	295	293	292	289	286	284	283	282	281	282	281	280	279	277	276	275	274	273	271	270	269	269	269	268	267	266	266	265	265	264	263	262	261	259	258	257	256	257	257	256	254	252	250	248	246	244	243	243	241	240	238	236	234	232	232	231	229	227	227	226	225	226
204	205	206	207	207	206	206	205	206	207	208	208	208	208	208	207	206	207	208	209	210	210	210	209	209	210	214	217	219	220	222	225	227	231	234	237	240	243	246	249	252	256	257	256	255	254	254	256	259	262	265	266	268	268	269	269	268	268	266	265	264	264	264	264	265	266	268	270	271	271	270	268	266	263	260	258	255	253	250	248	247	244	242	240	237	235	233	232	229	227	226	223	220	218	217	215	213	210	208	206	205	204	202	203	207	208	205	203	203	203	204	206	207	207	208	208	209	211	214	216	217	218	220	222	223	224	224	224	224	226	227	228	228	228	230	232	232	232	234	235	236	236	235	233	233	234	233	233	233	233	234	234	234	234	232	227	223	223	228	232	234	236	239	241	242	244	244	242	244	246	248	250	252	253	254	255	257	258	259	260	262	264	265	266	266	267	269	270	273	276	279	280	280	279	277	277	278	278	278	280	281	282	282	282	282	282	283	283	283	283	283	283	282	280	279	278	277	277	276	275	274	271	268	264	261	260	260	259	258	256	256	254	251	249	248	248	247	245	246	248	248	247	247	247	246	245	243	243	244	247	251	253	253	253	254	257	260	263	266	269	272	274	278	282	284	286	288	291	295	296	298	301	305	308	311	314	318	321	325	329	333	339	345	352	359	366	371	376	378	382	385	388	390	392	394	396	397	397	396	395	393	391	389	386	383	380	376	372	368	364	360	358	355	351	347	345	343	340	337	335	333	331	329	327	324	322	320	318	316	314	311	308	306	303	300	297	295	292	290	288	286	283	280	278	275	272	269	266	262	259	256	252	249	246	243	241	239	236	235	233	231	228	225	223	222	220	218	216	215	215	214	214	214	213	211	210	210	210	209	208	206	203	201	202	203	204	205	203	201	199	197	195	192	190	189	185	181	177	176	179	183	185	183	179	177	175	172	171	171	170	167	164	165	167	170	172	174	176	178	181	183	185	188	190	191	191	192	193	194	195	199	202	204	207	209	210	210	212	212	212	212	212	212	212	212	211	209	207	203	198	198	201	204	205	206	207	208	209	211	213	213	214	217	219	221	220	220	220	220	221	223	226	228	229	231	231	231	233	235	236	238	240	241	244	246	247	247	248	249	251	252	254	256	258	260	261	261	262	264	266	267	267	267	269	270	271	273	275	277	279	281	282	285	287	289	291	293	294	296	296	296	299	301	303	304	306	309	312	314	315	316	318	320	322	324	326	328	331	332	334	336	339	341	343	345	348	351	354	356	359	360	362	363	364	364	364	365	365	363	361	359	357	356	352	348	346	345	343	341	338	336	334	332	330	328	326	324	322	321	319	318	316	315	315	314	313	313	313	313	312	312	311	311	310	309	308	308	309	308	308	307	307	307	307	308	308	307	305	304	304	304	303	304	305	306	305	305	305	305	305	305	305	306	306	307	308	308	309	310	312	313	315	317	319	321	324	326	329	331	332	332	331	330	330	328	327	325	324	323	324	325	327	329	329	329	329	330	332	333	333	334	334	334	333	332	331	329	328	326	326	326	326	327	329	331	332	332	332	332	332	333	332	328	324	322	321	320	320	319	320	321	321	321	321	322	322	322	322	321	320	320	322	325	326	326	325	325	324	325	327	326	324	322	320	320	319	319	317	316	313	311	308	305	302	300	297	295	293	292	290	287	286	284	283	282	282	282	281	279	278	276	275	274	273	272	272	272	271	269	268	268	268	267	266	265	264	263	261	260	259	258	257	257	258	257	256	254	252	251	249	247	246	245	244	242	241	238	236	235	234	234	233	231	229	227	226	226	228
205	206	208	209	209	209	208	208	208	209	210	210	210	210	210	209	209	209	210	211	212	213	213	213	213	214	216	220	221	222	225	228	230	233	236	239	241	243	246	250	253	256	258	258	257	257	258	260	263	265	267	268	270	270	271	271	270	269	268	267	267	267	266	266	267	268	269	271	273	273	272	270	268	265	262	259	256	253	251	249	248	246	244	242	239	236	234	233	230	228	227	223	220	217	216	214	213	211	210	210	210	209	206	205	207	208	207	205	205	205	206	207	208	209	209	208	209	211	214	216	217	219	221	223	224	224	224	225	226	227	228	229	229	230	232	234	233	233	235	236	236	235	234	234	234	234	234	233	233	234	235	236	236	235	232	225	223	226	229	231	231	234	237	240	241	243	243	244	245	247	249	251	252	252	252	253	255	256	256	258	259	261	262	263	263	264	266	268	271	275	278	280	280	279	278	279	280	279	278	278	279	280	280	280	280	279	280	281	281	281	281	281	279	278	276	276	276	275	274	273	270	267	263	260	258	258	257	256	255	254	253	251	247	245	244	244	242	240	242	245	246	247	246	246	245	243	241	241	242	246	250	253	253	252	252	255	258	261	265	268	269	272	276	280	283	285	287	290	293	295	297	300	303	307	310	313	316	319	322	327	332	338	343	348	354	359	365	370	374	377	381	384	387	388	389	392	393	392	392	391	389	388	386	382	379	374	370	366	363	359	356	354	351	347	344	341	339	336	334	331	329	327	325	323	322	320	318	316	314	312	309	306	304	302	298	295	292	289	287	285	283	280	278	276	273	270	267	264	261	258	254	251	248	244	241	238	236	234	232	230	228	226	224	222	220	218	216	214	213	213	212	212	212	211	210	209	209	209	208	207	205	202	200	199	200	201	202	201	200	198	195	193	190	189	187	182	178	175	174	176	182	184	180	176	173	170	167	167	168	166	164	163	165	167	170	172	174	176	178	180	182	184	185	187	188	189	190	192	194	195	197	200	203	206	208	208	209	211	212	212	213	213	214	214	214	213	211	208	205	200	201	203	206	208	208	208	209	211	213	214	215	216	218	220	221	221	222	223	223	224	227	230	231	232	233	232	232	232	234	235	238	240	242	245	248	248	247	248	250	252	254	255	257	258	260	261	262	263	264	266	267	268	268	269	271	273	275	276	276	278	281	283	285	288	289	290	292	294	296	296	297	299	301	303	304	306	309	311	313	314	315	318	321	323	325	327	329	331	333	334	336	339	342	344	346	348	351	354	356	358	360	361	363	364	364	364	365	365	363	359	357	355	354	352	350	348	346	344	342	340	337	335	333	331	329	327	326	324	322	320	318	317	316	316	315	315	315	315	315	314	314	314	313	311	310	310	310	310	310	309	309	308	308	308	309	308	307	307	306	306	305	305	306	307	307	307	306	306	306	307	307	307	308	308	309	309	310	311	312	313	315	317	319	320	322	325	327	329	331	333	334	334	333	332	331	329	327	326	326	326	327	328	329	330	331	332	333	335	335	335	335	335	336	336	335	332	330	329	328	327	328	328	329	331	333	334	334	334	334	334	333	330	327	325	324	323	322	321	322	323	323	323	324	324	324	324	324	324	323	322	322	323	326	327	326	325	324	324	324	326	325	323	321	320	320	319	318	317	315	313	310	307	305	302	299	297	295	294	292	290	289	287	285	283	282	282	282	281	280	279	277	275	274	273	274	275	276	272	270	269	269	269	268	267	266	264	263	261	260	259	259	259	259	259	258	256	255	254	252	251	249	248	246	244	243	241	239	237	236	236	235	234	233	233	231	228	228	230
206	208	209	210	211	211	210	210	210	211	211	211	212	212	212	211	210	211	212	213	215	216	216	216	217	217	218	220	221	223	228	231	233	236	239	242	243	245	248	251	253	256	259	261	260	260	261	263	266	268	269	270	272	273	273	273	273	272	270	269	269	269	268	268	268	269	271	273	275	275	274	272	269	266	263	260	257	255	252	250	249	247	246	244	241	238	236	234	232	230	229	225	220	216	215	215	214	213	213	214	213	211	208	206	206	206	207	207	207	207	208	208	208	209	209	208	209	211	213	216	218	220	222	223	224	224	225	226	227	227	228	229	231	231	233	234	235	236	237	238	237	235	235	235	236	237	236	236	236	237	238	238	238	237	233	228	227	231	232	232	232	232	236	238	240	242	243	244	246	248	250	252	254	253	252	253	253	254	254	256	257	258	260	260	261	263	265	268	271	274	277	279	280	279	278	278	280	280	277	276	277	278	278	278	277	277	277	277	278	279	279	278	276	274	273	273	273	272	271	269	267	264	261	258	257	256	255	253	251	250	249	246	243	242	240	239	239	238	240	243	244	245	245	244	243	240	239	240	241	244	249	251	251	251	251	254	257	260	264	266	267	270	274	277	280	284	287	289	290	293	297	301	303	305	308	310	313	317	321	325	330	337	342	345	350	354	359	365	370	372	376	379	382	384	385	387	388	388	388	388	386	384	381	377	374	368	365	362	359	355	351	348	345	342	340	338	335	333	330	328	326	324	322	320	319	318	315	313	311	309	307	304	301	299	295	291	289	287	285	282	280	277	275	273	270	268	265	262	259	256	253	249	246	243	239	236	233	232	230	228	226	224	222	220	218	216	214	212	211	211	210	209	209	209	208	208	208	207	206	205	203	201	199	197	198	198	199	199	197	196	193	190	188	187	185	180	176	173	171	172	176	179	175	173	170	167	164	164	165	164	163	164	166	169	172	173	175	177	179	180	182	183	185	186	188	189	191	193	194	195	197	200	202	205	206	207	208	211	212	212	213	215	215	215	215	214	212	210	207	205	205	208	211	212	212	212	212	212	214	216	216	217	218	220	221	223	224	226	226	228	230	233	234	235	235	235	234	234	235	236	238	240	242	245	248	249	248	249	250	252	254	256	257	258	260	261	262	263	264	266	268	270	271	272	273	274	276	277	277	279	281	283	285	287	288	290	292	294	296	297	299	300	302	303	305	307	309	311	313	315	316	318	321	323	324	327	330	332	333	335	337	340	343	345	347	349	352	354	356	358	359	361	362	363	364	364	364	365	363	359	357	356	355	354	354	352	349	346	344	341	338	336	335	333	331	329	327	325	323	321	319	318	318	317	317	316	317	317	316	316	316	317	315	313	312	312	313	312	312	311	310	309	309	309	309	309	308	308	308	308	307	306	307	309	309	309	308	308	308	308	309	310	311	311	311	311	311	312	313	314	316	319	320	322	324	326	328	330	332	334	335	336	336	335	333	331	330	329	329	328	328	330	331	332	333	335	335	336	337	337	337	338	340	341	339	335	332	330	329	329	329	330	331	333	335	335	335	335	336	337	336	331	327	326	326	325	324	324	325	326	326	326	326	326	326	326	326	325	324	324	323	325	327	328	327	326	325	324	324	324	324	322	321	321	320	319	318	316	314	312	310	307	305	302	300	298	296	294	293	291	290	288	285	284	283	283	282	282	281	279	277	276	275	274	274	275	275	272	271	271	271	270	269	268	267	265	263	262	261	261	261	261	261	260	259	258	256	255	254	253	251	249	247	245	244	242	241	238	237	237	236	235	235	236	235	231	230	232
208	210	211	212	212	212	212	212	212	213	213	213	213	214	214	213	212	212	213	215	217	219	219	220	220	220	220	221	223	226	230	233	235	238	241	244	245	247	250	252	254	256	259	262	263	263	264	266	268	271	272	273	274	275	276	276	276	274	273	272	272	272	271	270	270	271	273	275	277	277	276	273	270	267	264	261	259	256	254	252	250	249	247	245	243	240	237	235	233	231	230	226	222	218	217	218	217	215	215	215	214	212	210	209	207	206	207	208	208	208	210	210	210	210	210	209	209	211	213	215	218	221	222	223	225	225	225	225	226	226	227	230	232	233	234	235	236	237	239	239	237	236	236	237	238	239	239	239	239	240	240	239	239	239	237	233	232	233	234	234	234	233	235	237	239	241	242	243	245	246	250	253	255	255	254	253	253	253	253	254	255	257	258	259	261	263	265	268	271	274	277	279	280	279	277	277	278	278	277	275	275	276	276	276	275	275	275	274	275	276	276	275	272	270	270	272	271	269	268	266	264	262	260	258	256	255	253	251	248	247	245	244	243	241	239	240	241	241	240	240	240	241	243	242	239	237	238	240	241	243	247	249	250	250	251	254	257	260	262	265	267	269	273	275	278	282	286	288	290	293	297	301	302	304	306	308	312	317	321	323	328	335	340	342	346	352	356	361	365	367	369	372	375	378	380	381	380	381	383	383	380	378	374	372	368	362	360	358	355	351	347	343	340	338	337	334	331	328	326	325	324	322	320	318	317	315	313	311	309	307	304	301	298	295	292	289	287	285	283	280	277	275	272	269	266	264	262	260	258	255	251	247	243	241	237	233	231	230	229	226	224	223	221	218	216	214	212	210	209	209	208	207	206	207	207	206	205	204	204	203	202	200	198	195	195	194	195	195	194	193	191	187	185	185	183	179	176	173	171	169	170	172	171	169	167	165	163	163	163	163	163	164	168	172	174	175	176	178	180	181	183	185	186	187	189	191	193	194	195	196	197	200	202	204	205	207	209	211	212	213	215	216	216	217	217	216	214	212	210	208	209	212	215	216	216	216	216	216	217	218	218	218	218	220	223	225	226	228	229	230	232	234	235	237	237	237	238	238	238	239	239	241	243	246	248	249	249	250	251	252	254	257	258	259	260	261	262	264	265	267	269	271	273	274	274	275	277	278	279	280	282	283	284	286	289	291	293	295	296	298	299	301	301	304	306	308	310	313	315	317	318	321	322	323	325	328	331	333	334	336	339	341	344	347	349	351	353	356	357	358	359	361	362	363	364	364	364	364	364	362	360	359	358	357	357	357	352	348	345	342	339	337	336	335	333	331	329	327	325	323	321	321	321	320	318	318	318	318	318	318	319	319	316	314	313	315	315	314	313	312	312	311	311	311	311	310	310	310	310	310	309	308	309	310	311	311	310	309	309	309	310	312	313	313	313	312	312	313	314	315	318	321	323	324	326	328	330	331	333	335	336	337	337	336	335	333	332	332	331	331	331	332	333	334	335	336	336	337	338	339	339	340	343	344	340	337	334	332	331	331	331	331	332	334	336	336	337	337	337	339	338	333	329	328	328	327	326	327	328	328	328	328	328	328	328	328	327	327	326	325	325	326	328	329	329	328	326	325	325	324	323	323	322	321	320	319	317	316	314	312	310	308	306	303	301	299	298	296	293	291	290	288	286	286	285	284	283	282	281	279	278	276	275	275	275	275	274	273	273	273	272	271	270	269	268	266	264	263	263	263	264	264	263	262	261	259	258	256	255	254	252	250	248	246	244	243	242	241	239	238	237	236	236	238	237	233	232	234
209	211	213	214	214	214	213	214	215	215	215	215	216	216	216	214	213	214	215	217	219	221	222	222	222	222	222	223	225	228	231	234	236	239	242	245	247	250	252	253	255	258	260	263	266	267	268	270	272	273	274	275	276	278	278	279	278	277	276	275	275	275	274	273	273	274	275	277	279	279	277	274	271	268	266	263	261	258	256	253	252	251	250	248	245	242	238	235	233	231	229	227	224	221	220	221	220	217	215	215	214	213	211	211	208	207	208	208	208	209	211	212	213	212	211	209	210	212	214	216	219	222	224	225	225	226	226	227	226	226	228	231	233	234	235	235	236	238	239	239	238	238	238	239	240	240	240	239	240	242	242	241	240	240	240	238	236	235	235	236	236	235	234	236	239	241	241	242	243	244	249	253	255	255	255	254	254	253	253	254	255	256	258	260	262	264	266	269	272	274	277	280	280	279	277	276	276	277	276	274	273	273	274	273	273	272	272	272	273	274	274	273	271	269	269	270	268	265	264	263	262	260	259	257	255	254	252	248	246	245	243	242	242	238	236	240	241	240	238	236	237	238	240	240	237	235	236	239	241	243	246	248	250	251	251	253	256	258	260	262	265	268	272	274	276	280	284	287	290	293	296	299	302	303	305	307	311	318	322	323	325	331	337	339	343	349	353	357	360	361	361	363	366	369	373	374	375	374	373	372	373	371	366	363	359	356	355	353	350	348	343	338	336	335	332	330	327	324	323	322	321	319	317	316	314	313	310	309	307	304	302	298	295	292	290	287	285	283	280	278	275	272	269	266	263	261	260	258	256	253	249	244	241	238	235	231	229	228	226	224	222	221	219	216	214	212	210	209	208	207	206	205	205	205	205	204	203	202	201	201	200	198	196	193	190	188	190	192	192	191	189	185	184	184	183	179	176	173	170	169	169	169	168	167	166	165	163	162	161	161	163	166	170	173	175	176	177	179	181	182	184	186	187	189	190	192	194	194	195	197	198	200	202	203	205	207	210	212	213	215	216	217	217	218	218	217	215	213	212	211	212	214	217	218	219	220	220	221	221	220	219	219	219	221	224	227	229	230	231	232	233	234	235	237	238	239	240	241	242	242	242	243	245	247	248	249	250	251	252	252	254	257	258	259	260	261	263	264	266	268	270	272	273	274	275	276	278	279	281	282	283	284	285	288	290	291	293	296	297	298	300	301	301	304	307	310	311	314	317	319	321	323	324	325	328	330	332	334	335	337	340	343	345	348	350	352	355	357	358	359	359	360	361	363	364	364	364	363	364	366	366	365	363	360	359	358	354	350	346	343	340	339	338	336	335	333	331	328	326	325	324	325	324	322	320	320	320	320	320	320	320	319	316	315	315	316	317	316	315	315	314	313	313	313	313	312	313	313	312	312	311	310	311	312	313	313	312	311	310	311	312	313	315	315	315	314	314	314	315	317	319	322	324	326	328	330	332	333	334	336	337	338	338	338	336	335	335	334	334	333	333	334	335	336	336	337	338	340	342	342	341	342	343	343	341	340	337	335	333	333	333	333	333	335	337	338	339	339	339	339	339	335	331	330	329	329	329	330	331	331	331	331	331	330	330	329	329	328	327	327	327	327	329	330	331	330	328	326	325	325	324	323	322	321	320	319	318	316	315	313	311	309	306	304	302	301	299	297	294	292	290	288	287	288	288	285	284	282	281	280	278	277	276	275	276	276	276	275	275	274	273	272	271	270	269	268	267	266	265	266	266	266	265	263	262	261	259	258	256	255	253	251	249	248	246	245	244	243	242	240	239	238	238	238	237	234	234	235
211	212	214	215	216	216	216	216	217	217	218	218	218	219	218	216	215	215	216	218	221	224	224	224	225	225	225	225	227	229	232	235	237	239	243	246	249	251	253	255	258	260	262	264	268	270	272	273	275	276	277	278	279	280	281	281	281	280	279	278	279	279	277	276	275	276	278	280	281	281	279	275	272	270	268	266	264	261	258	255	254	253	252	250	247	244	240	237	234	231	229	226	224	222	220	221	220	217	214	214	216	217	216	214	210	207	208	209	209	210	212	213	214	212	211	210	211	214	217	219	222	224	226	226	226	226	228	229	228	228	230	232	233	234	235	235	236	238	240	239	239	239	240	240	240	241	241	240	241	243	244	243	242	241	241	240	238	237	237	237	237	236	237	240	243	243	242	243	245	246	249	253	254	255	255	255	255	254	253	254	255	257	259	261	263	265	268	270	273	275	279	281	281	280	277	275	275	275	274	273	272	272	272	271	271	270	271	272	273	273	273	273	271	269	267	266	264	261	261	261	260	259	256	255	254	252	250	247	246	245	242	239	237	234	232	234	235	234	233	233	235	236	237	236	235	234	235	238	241	244	246	246	247	249	249	251	255	256	257	260	263	266	270	273	276	279	282	284	288	291	294	298	301	303	305	308	311	317	320	322	324	329	333	336	339	344	348	351	354	356	357	361	362	366	368	369	372	368	362	361	362	361	357	354	353	351	350	348	347	344	340	335	333	331	329	326	324	322	320	319	317	315	314	313	312	310	307	306	304	302	299	295	292	290	287	284	282	280	278	275	272	269	266	262	259	258	258	256	253	250	246	242	239	236	233	229	228	226	223	221	220	219	217	215	213	210	208	207	206	206	205	204	203	203	202	201	201	200	199	199	198	197	195	191	188	187	187	190	191	190	187	185	184	183	182	179	175	172	169	167	167	167	167	166	166	165	162	160	160	161	164	168	171	174	175	176	178	180	183	185	186	187	189	190	191	192	194	195	196	198	199	201	203	204	206	209	211	213	215	216	217	217	218	219	219	218	216	215	214	214	215	216	219	220	221	222	223	223	224	222	220	220	221	223	226	228	230	232	233	234	236	236	237	238	239	241	242	244	245	245	246	247	248	248	248	249	251	252	253	253	254	256	257	258	259	261	263	264	266	268	271	272	273	274	276	277	279	280	281	283	284	285	287	290	292	293	295	297	299	300	301	301	302	305	309	311	313	315	318	321	323	325	326	328	331	333	334	335	336	338	341	344	346	348	350	353	355	357	358	359	359	361	362	363	365	365	365	365	365	366	366	366	365	363	360	359	355	351	347	344	342	341	340	338	337	335	332	330	328	327	326	326	325	323	322	322	322	322	322	321	320	319	317	316	317	318	318	318	317	317	316	316	316	316	315	315	315	315	314	313	313	313	313	314	315	315	314	313	312	313	313	315	316	317	318	317	317	317	318	319	320	322	325	328	330	332	334	336	337	338	338	339	339	338	338	337	337	336	336	336	336	337	338	338	339	341	344	346	346	345	343	343	343	343	342	342	340	337	336	336	336	335	335	337	338	340	342	343	342	341	340	337	334	331	331	332	332	333	333	334	333	333	332	332	331	331	330	330	329	329	329	329	330	331	332	330	328	326	326	326	325	324	323	322	320	319	318	316	315	313	311	309	307	305	303	301	299	297	295	293	291	289	288	290	289	285	283	282	281	279	278	278	277	277	277	277	277	277	277	276	275	274	273	272	271	270	270	268	268	268	268	268	266	265	264	262	261	259	257	256	254	252	251	250	248	247	246	245	244	243	241	240	239	238	237	236	236	236
213	214	215	217	217	218	218	219	219	220	220	220	220	221	220	219	218	218	219	221	223	226	227	226	227	228	228	228	229	232	234	237	239	241	244	247	251	253	255	257	260	263	264	266	269	272	274	276	277	278	279	280	281	282	284	284	283	282	282	282	283	283	282	279	278	279	280	283	284	283	280	277	274	272	270	268	266	264	261	258	257	255	254	252	249	245	242	239	235	232	229	227	224	223	221	221	221	220	217	216	219	221	220	219	213	209	210	211	211	211	213	214	213	211	210	211	214	217	220	223	224	226	227	227	227	228	231	233	233	232	233	234	233	234	235	236	237	239	240	240	239	240	242	242	241	241	242	242	243	244	244	244	244	243	242	241	240	238	237	238	238	238	240	243	244	244	244	245	248	249	250	253	254	255	255	255	254	253	253	255	256	258	260	263	265	267	269	271	274	277	280	282	282	280	277	275	274	274	274	273	272	271	270	269	269	269	269	271	272	271	271	271	270	268	265	263	260	259	259	258	257	256	254	252	251	250	248	246	245	244	240	236	234	232	231	230	230	231	231	232	233	234	233	232	232	232	234	238	242	243	244	244	243	244	247	251	254	255	256	258	261	264	268	272	276	279	281	283	285	288	291	296	299	301	304	308	311	314	317	320	323	327	331	333	336	340	343	346	349	352	355	359	359	363	365	365	365	360	356	355	354	353	352	351	349	348	346	345	343	340	336	332	330	327	324	322	320	318	317	315	313	312	311	310	309	307	305	303	301	299	296	293	290	287	284	282	279	277	274	272	269	266	262	259	256	255	254	252	249	247	244	240	237	235	231	229	226	223	220	218	217	216	215	214	212	209	206	205	204	203	203	203	201	200	199	199	199	199	198	196	196	196	194	191	188	186	186	187	188	187	186	185	184	183	181	178	174	170	168	167	166	165	165	165	166	165	161	159	160	163	167	170	173	174	176	178	181	183	186	187	188	189	190	192	193	194	195	197	198	199	200	202	204	206	208	210	212	214	216	218	218	219	219	220	220	219	218	217	217	216	217	219	221	222	223	224	225	225	225	225	223	222	223	225	227	228	230	233	234	236	239	240	240	241	242	245	246	247	248	249	250	250	250	250	250	250	251	252	253	254	254	255	256	258	260	262	263	264	266	269	271	272	273	274	276	278	280	281	282	283	285	286	288	291	293	294	297	299	301	302	303	304	305	308	311	314	316	317	319	322	324	326	328	330	334	336	336	337	338	339	341	344	346	348	351	353	355	357	359	360	360	362	363	365	366	366	366	366	368	369	368	366	365	365	363	360	357	353	348	345	344	343	342	341	339	336	334	332	330	328	327	326	325	324	324	324	324	324	324	322	320	319	318	319	319	320	320	320	319	318	318	318	318	318	318	318	317	317	316	315	315	315	315	316	316	317	316	315	314	315	315	317	318	319	320	320	319	320	321	322	323	324	326	329	332	333	335	338	340	340	339	339	340	339	339	338	338	338	338	338	338	339	339	339	341	346	348	348	347	346	345	345	345	345	344	343	342	340	338	338	339	338	338	338	340	343	345	346	345	343	340	337	334	333	333	334	335	336	336	336	335	334	334	333	332	332	331	331	330	330	330	330	331	331	331	329	328	327	327	326	325	324	323	322	320	319	318	316	315	313	311	310	307	305	303	301	299	297	295	293	292	290	288	288	286	284	283	282	281	280	279	278	278	278	279	279	279	279	278	277	276	275	274	273	273	272	272	271	270	270	270	269	268	266	265	263	262	260	258	256	255	253	252	251	250	249	248	248	246	245	243	242	240	239	238	238	238	237
214	215	217	218	218	219	220	221	221	222	222	223	223	222	222	221	221	221	221	223	225	227	228	228	229	231	231	231	233	234	237	240	242	244	246	249	252	255	257	259	262	265	267	268	270	272	275	277	279	280	281	281	283	285	287	287	286	285	285	285	286	287	286	284	282	282	284	286	286	284	282	279	277	275	273	271	269	266	264	261	259	258	255	253	250	247	244	240	237	233	230	228	226	225	225	223	223	222	221	221	223	223	222	220	216	212	212	212	213	213	214	214	212	209	210	214	216	220	223	225	226	227	228	228	229	230	232	235	236	236	237	237	235	235	236	237	238	240	241	241	240	241	243	243	241	241	243	244	245	244	244	244	244	243	242	241	240	238	237	239	240	241	243	243	244	245	246	247	249	250	251	252	253	253	254	255	253	253	254	256	258	259	261	264	266	269	271	272	275	278	282	283	282	280	278	275	274	273	273	273	273	272	269	267	267	267	267	269	269	269	269	268	267	265	263	260	258	258	257	256	255	253	251	249	248	247	245	243	242	241	238	234	232	232	232	231	230	229	229	230	231	231	230	229	230	230	232	238	241	242	242	242	241	242	246	250	253	254	256	258	260	263	267	271	276	279	281	283	284	286	289	293	297	300	303	307	310	313	315	318	322	326	329	332	334	337	339	341	344	347	350	353	354	356	357	360	358	354	353	351	349	348	347	347	346	344	343	341	338	335	332	329	327	324	320	316	314	313	311	311	310	310	309	307	306	304	302	300	298	296	293	290	287	285	282	279	276	273	271	269	266	263	260	256	253	251	250	247	245	244	242	239	236	233	230	227	224	221	218	216	216	215	214	212	210	207	205	204	203	201	201	200	199	197	197	197	197	197	196	195	195	194	193	190	187	186	185	185	185	184	184	184	183	182	180	176	173	170	168	167	165	164	163	162	163	163	162	161	162	165	169	172	174	175	177	181	184	186	187	188	190	191	193	194	195	197	198	198	199	200	203	204	206	208	209	211	213	215	217	219	219	220	221	221	221	221	220	219	218	217	218	221	223	225	226	227	227	227	228	227	225	224	226	227	228	229	230	233	235	237	240	243	244	245	247	249	249	250	251	252	252	252	252	252	251	251	251	252	253	254	255	256	257	259	262	263	264	265	267	269	271	273	274	275	277	278	281	281	282	284	286	288	290	293	294	296	299	301	303	305	306	307	309	311	314	316	318	319	320	323	325	328	331	334	337	338	339	340	341	341	341	343	346	349	352	354	356	358	361	362	362	363	364	366	367	368	368	369	372	374	373	370	367	366	365	362	358	354	350	348	346	346	345	343	340	338	336	334	332	330	328	327	326	326	326	326	326	326	325	324	322	321	321	321	322	322	321	321	321	321	321	321	321	321	321	321	320	319	318	317	316	317	318	318	318	318	317	317	316	316	317	318	320	321	322	322	322	322	323	324	326	327	328	331	333	334	336	338	339	340	340	340	341	340	340	339	339	339	340	340	340	340	341	341	343	345	346	347	347	346	346	347	347	347	346	345	344	343	342	341	341	340	340	340	342	346	347	347	346	343	339	336	335	334	335	336	337	337	337	337	336	335	334	334	333	332	332	332	332	332	331	331	331	331	330	329	328	328	328	327	326	324	323	322	320	319	317	316	314	313	311	309	307	305	303	301	299	297	295	294	292	291	288	286	285	285	285	284	282	280	279	279	279	280	280	281	281	281	280	279	277	276	275	275	275	274	274	273	272	272	271	270	269	268	266	264	263	261	259	257	256	254	253	253	252	251	250	250	249	247	245	244	242	241	240	240	239	239
216	217	218	219	220	221	222	223	223	224	225	225	225	225	224	223	223	223	224	225	226	228	229	231	232	233	234	235	236	237	239	242	245	247	248	250	253	256	259	262	265	268	269	270	271	273	276	278	280	282	283	283	285	287	289	290	289	289	288	289	290	291	290	288	287	287	288	289	288	286	284	282	280	278	277	275	272	269	266	263	261	260	257	253	250	247	245	242	238	234	232	230	229	229	229	228	225	222	223	224	225	224	223	220	216	214	213	213	214	214	215	215	214	212	213	216	218	223	226	228	228	229	229	230	231	232	233	235	237	237	237	238	238	237	238	238	239	240	241	241	241	242	243	242	241	241	243	245	245	245	244	245	246	245	243	242	242	240	238	239	241	243	245	245	245	246	246	248	249	250	251	253	252	251	253	254	252	253	255	257	258	260	262	264	267	270	273	275	277	280	283	284	283	281	278	276	273	271	272	272	272	270	267	265	265	265	266	267	267	267	266	264	262	260	259	256	255	256	256	254	253	251	249	248	247	244	241	238	237	236	234	232	232	233	233	231	229	227	227	229	229	228	227	227	228	229	231	236	239	239	238	239	240	242	246	249	251	253	256	257	259	261	265	269	274	278	280	282	283	284	287	292	295	298	302	306	309	311	313	317	321	325	328	330	332	334	336	338	340	342	345	346	349	349	345	348	350	350	350	348	346	344	343	342	341	340	338	336	334	332	329	327	324	321	317	313	310	309	307	307	307	307	306	304	302	301	299	298	296	294	291	288	285	283	280	277	274	271	268	266	263	260	257	254	251	248	245	243	242	241	239	237	234	231	229	225	222	218	215	214	213	213	212	210	208	205	204	203	201	199	198	198	196	195	195	194	194	194	194	193	193	192	190	188	185	184	183	183	182	182	183	183	182	180	178	174	171	170	168	165	162	161	160	160	160	161	162	163	164	166	170	172	175	177	179	182	186	187	187	189	192	194	195	197	198	200	200	201	201	202	204	206	208	210	211	212	214	216	219	220	221	222	223	224	223	223	222	221	219	218	220	222	225	227	228	228	229	230	230	229	228	228	228	229	229	229	231	234	236	238	241	244	247	249	251	252	252	253	253	254	254	255	256	255	253	252	251	253	254	255	256	258	260	261	263	264	265	267	268	270	272	274	276	276	277	279	282	282	283	285	288	290	292	294	296	298	302	303	306	307	309	310	311	313	316	318	320	321	323	325	328	332	335	337	339	341	342	343	344	344	343	345	348	351	354	356	357	359	362	363	363	364	366	367	369	370	370	372	376	377	376	374	369	366	367	363	358	355	353	351	350	348	346	344	341	339	337	335	333	332	330	330	329	329	329	328	328	328	327	325	324	323	323	324	324	324	323	323	323	323	323	324	323	323	323	323	323	322	321	319	318	318	319	320	320	320	319	318	318	318	319	320	322	324	324	324	324	324	324	326	328	330	331	332	334	335	337	339	340	341	341	342	342	341	341	340	340	341	341	341	341	342	343	344	344	345	346	347	348	348	349	350	350	349	348	347	346	345	344	344	343	342	342	343	344	347	348	348	347	342	338	337	336	336	336	337	338	339	338	337	336	335	335	334	334	333	333	333	333	333	333	333	332	331	331	330	330	329	328	327	326	324	323	321	319	318	317	316	314	312	311	309	307	304	302	301	299	297	296	294	293	290	288	286	285	286	286	285	282	281	281	280	281	281	282	283	283	282	282	280	278	277	277	277	277	276	276	276	275	274	273	272	271	269	267	265	264	262	260	258	257	256	255	254	253	252	252	251	250	249	247	246	244	243	242	242	240	240
218	218	219	220	222	223	224	225	226	227	228	228	229	228	226	225	225	225	226	227	228	229	231	233	234	236	238	238	238	239	241	244	246	248	249	251	254	258	261	265	268	270	271	272	273	274	277	279	281	283	285	286	288	290	292	292	293	293	293	293	294	294	294	292	291	292	292	292	290	288	286	284	283	281	280	278	275	271	267	264	262	260	257	254	251	249	246	243	240	237	234	233	231	231	231	230	226	223	225	226	226	226	223	220	217	215	214	214	214	215	215	217	217	215	215	217	220	226	229	230	231	230	230	231	234	234	234	235	236	237	237	238	239	240	240	240	240	240	241	242	242	242	242	242	242	242	244	245	246	246	247	248	249	248	247	245	244	242	237	238	242	245	249	250	250	248	248	249	249	249	250	253	254	253	254	255	254	254	256	258	259	261	263	265	268	272	275	277	280	282	284	283	282	280	278	275	272	270	270	270	270	268	265	264	263	264	264	264	265	265	264	262	260	258	256	254	252	252	252	252	250	248	246	245	243	240	237	234	233	231	230	230	230	232	233	230	227	226	227	228	227	226	225	226	228	228	230	235	236	235	234	236	239	242	245	247	247	249	255	256	258	260	264	267	271	274	276	278	280	282	285	289	293	296	301	305	307	310	312	315	319	322	325	327	329	331	333	334	336	337	338	337	339	341	339	342	345	346	346	344	342	340	338	337	336	336	335	333	331	329	327	325	323	320	317	312	308	306	304	303	303	303	302	300	299	298	297	295	294	292	289	286	284	281	279	276	272	269	266	263	260	257	255	252	248	244	241	239	238	238	236	234	231	229	227	224	220	216	213	211	210	209	208	207	205	203	202	201	199	197	196	195	194	193	192	192	192	192	192	192	191	190	188	186	183	182	181	181	180	180	181	181	180	178	176	173	170	168	165	162	159	158	158	159	159	160	162	164	166	168	171	173	176	179	181	184	186	187	189	192	195	197	198	199	201	203	203	204	204	205	206	207	209	211	213	215	217	219	221	223	224	224	225	226	226	225	223	222	221	220	222	225	227	229	230	230	231	232	232	231	230	231	231	230	230	231	232	234	235	238	242	246	249	252	253	254	254	255	256	256	257	258	259	258	256	253	252	253	254	255	257	260	262	263	264	265	267	268	269	270	273	275	277	277	279	282	284	284	285	288	290	291	293	295	297	300	303	305	308	310	311	313	314	315	317	320	322	324	326	329	331	335	338	340	342	344	345	347	348	348	348	349	351	353	354	356	358	360	362	364	364	365	367	368	370	371	372	375	378	377	375	373	369	366	367	364	359	357	356	356	355	351	347	344	342	339	338	336	335	334	333	332	332	332	331	331	330	329	328	327	326	325	326	326	326	326	325	325	325	325	326	326	326	326	326	326	325	324	323	321	319	320	321	322	322	322	321	320	320	321	321	323	325	326	327	326	326	325	326	328	330	333	334	335	336	337	339	340	342	343	343	343	343	342	342	342	342	342	343	342	343	343	344	345	346	346	348	349	351	352	353	354	354	352	351	350	349	347	347	347	346	345	344	345	346	348	349	349	348	343	339	338	337	337	337	338	339	339	338	337	336	335	335	334	335	335	335	335	334	334	334	334	334	333	332	332	331	330	329	328	326	324	322	320	318	317	316	315	314	312	311	309	307	304	302	301	300	298	296	294	292	290	287	286	286	286	285	284	283	283	282	282	283	284	284	285	285	284	283	281	280	279	279	279	279	279	278	278	277	275	274	273	272	270	268	266	264	262	261	260	259	257	257	256	256	255	254	253	252	250	249	248	246	245	244	243	241	240
220	220	220	222	224	225	227	229	230	231	231	231	231	230	229	227	227	227	228	229	230	232	233	234	236	238	241	242	242	242	244	246	248	250	251	253	256	259	263	266	269	271	272	274	275	277	278	280	283	285	287	289	291	293	295	296	296	296	296	297	298	298	298	296	296	296	296	295	293	290	288	286	285	283	281	279	276	273	269	265	263	261	258	255	253	251	248	245	243	240	237	235	234	233	232	231	228	227	227	227	227	226	224	221	219	218	217	216	215	215	216	218	219	217	216	217	222	228	230	231	232	232	232	233	234	235	235	236	238	238	238	239	240	241	241	241	240	240	241	242	241	241	242	243	243	244	245	246	248	249	250	251	251	251	250	248	246	243	240	239	244	248	251	254	254	252	252	251	251	250	252	255	255	255	257	258	256	256	258	259	261	263	265	267	270	274	278	280	281	282	282	281	280	279	277	275	272	269	268	268	268	266	264	262	262	263	263	263	263	264	264	262	259	257	255	252	249	249	249	249	247	245	243	242	239	235	232	230	229	229	228	228	229	230	230	228	226	224	224	226	226	225	224	225	226	227	229	232	233	232	232	235	237	240	244	246	246	248	253	255	258	261	264	267	269	271	272	274	277	280	284	287	290	294	299	303	306	308	311	313	316	319	321	323	326	327	328	330	331	331	331	331	333	335	335	338	340	341	341	340	337	335	333	332	332	331	331	330	328	326	325	323	321	319	315	310	306	302	300	299	298	298	298	296	296	295	294	293	291	289	287	284	282	280	277	274	271	267	263	259	256	253	252	249	245	242	238	235	235	234	233	231	229	227	225	222	218	215	212	209	207	206	205	204	203	201	200	198	197	195	194	193	192	191	190	190	191	191	191	190	190	189	187	184	181	180	179	178	177	177	178	178	177	175	174	172	168	164	161	159	158	157	157	158	159	161	164	166	168	171	173	175	178	181	184	186	188	190	192	195	197	199	200	201	203	206	207	208	209	209	209	209	210	212	214	217	219	221	223	225	225	226	227	229	229	227	225	223	223	223	226	228	230	231	232	232	233	234	234	232	233	234	234	233	233	234	235	234	234	237	242	246	250	253	255	256	257	258	258	258	259	261	262	262	259	255	253	253	255	257	258	260	263	264	265	267	269	270	271	272	274	276	278	280	282	284	286	286	288	291	293	293	294	296	297	300	303	306	309	311	313	315	316	318	320	322	324	325	328	331	334	336	339	342	344	347	349	350	351	351	350	351	353	354	355	356	358	360	362	363	364	366	368	370	371	373	374	376	379	379	377	374	371	368	368	366	363	361	360	360	357	351	347	345	343	341	339	338	337	336	335	334	334	334	334	333	332	331	330	329	328	328	328	329	329	328	327	327	326	327	328	329	329	329	329	328	327	326	325	322	321	321	323	324	324	323	322	321	322	323	324	325	328	329	329	328	328	328	329	330	332	334	337	338	339	340	341	342	343	344	345	344	344	345	344	343	343	344	344	344	344	345	345	346	347	348	349	351	353	354	355	355	355	353	353	353	351	350	349	349	349	348	347	348	348	349	349	349	348	344	341	339	338	338	338	339	339	338	337	337	336	335	335	335	336	336	336	336	336	336	336	335	335	334	333	333	332	331	329	328	325	323	321	319	318	317	316	315	314	312	311	309	307	305	303	302	300	298	296	293	291	289	288	287	287	286	285	285	285	285	284	284	285	285	286	286	286	285	284	282	281	281	281	280	281	281	280	279	278	277	275	274	273	271	269	267	266	264	262	261	261	260	259	259	258	257	256	255	253	252	250	248	247	246	245	244	242	241
222	222	222	224	226	228	231	233	234	234	233	233	233	232	231	229	229	229	229	231	233	235	236	236	238	240	243	244	245	245	247	249	250	251	253	254	257	260	263	267	270	272	274	276	277	279	281	282	284	287	289	292	294	296	298	300	300	300	300	301	302	302	302	301	300	300	299	298	295	292	290	288	286	284	282	279	277	273	270	267	264	262	259	257	255	253	250	247	245	242	240	238	237	235	234	232	231	230	229	229	228	227	225	223	222	221	220	219	217	215	217	219	220	219	218	219	224	228	231	232	233	233	233	234	235	235	236	238	240	240	240	241	241	241	242	242	241	241	242	242	242	241	242	244	245	246	246	247	248	250	252	252	253	252	251	250	247	245	246	247	249	250	253	255	255	255	254	253	253	254	255	257	256	256	258	258	256	257	259	261	263	265	267	269	273	276	280	280	279	279	278	278	277	276	275	273	270	269	267	266	265	265	262	260	260	261	261	261	262	263	263	261	259	257	254	250	247	247	247	246	245	244	241	239	236	232	229	228	228	229	228	228	227	226	224	223	222	221	221	222	224	224	223	223	225	227	229	229	229	230	232	234	236	238	242	245	247	250	253	255	258	260	263	266	268	270	272	272	274	278	282	285	288	292	297	301	304	306	309	311	314	316	318	320	322	323	324	325	326	326	326	328	330	331	332	334	336	337	336	335	333	331	329	329	328	327	327	326	325	324	323	321	319	316	311	307	303	300	297	295	294	295	295	294	293	292	291	290	288	286	284	282	280	278	276	273	269	264	260	257	253	250	248	246	243	239	235	232	231	231	230	228	226	225	222	219	216	214	211	208	206	204	203	203	202	200	199	197	195	194	192	191	189	188	188	188	189	189	189	189	188	188	186	182	179	179	178	176	175	175	175	175	174	173	172	169	164	159	158	158	158	158	159	159	160	164	167	169	171	173	175	177	180	183	186	189	190	192	195	198	199	200	202	203	206	209	211	212	213	213	213	212	212	214	217	219	222	224	226	226	227	227	229	231	231	229	226	225	225	226	229	231	232	233	234	235	236	236	235	235	236	237	237	236	236	237	237	236	234	236	242	247	251	254	256	257	259	260	260	260	262	264	265	265	263	259	256	255	257	259	260	262	264	266	267	268	271	272	273	274	276	278	280	282	284	285	287	288	291	293	294	295	296	297	299	301	303	306	310	312	314	316	319	321	323	324	325	326	329	332	335	338	341	343	346	349	351	352	353	352	351	352	353	354	356	357	359	360	362	363	365	367	369	371	372	374	375	376	379	381	380	376	372	370	368	367	366	366	363	361	356	351	348	346	344	343	341	340	339	338	337	337	336	336	336	335	335	334	332	331	330	330	330	331	331	330	329	328	328	329	330	331	331	331	331	330	329	328	326	324	323	323	325	326	326	325	324	323	323	324	326	328	330	331	331	331	331	331	332	332	334	336	339	341	342	342	343	344	345	345	345	345	345	346	345	345	345	345	346	346	346	347	347	347	349	349	350	352	354	354	355	355	355	354	355	355	354	352	350	350	350	350	350	350	351	350	350	348	347	344	341	340	339	339	339	339	339	339	338	337	336	336	336	337	337	337	338	338	337	337	337	337	336	335	334	334	333	331	330	328	326	323	321	319	318	317	316	315	313	312	311	310	308	306	304	302	300	298	295	293	291	289	289	289	289	288	287	287	286	286	286	285	285	286	286	287	286	286	285	284	283	283	283	282	282	282	282	281	279	278	277	275	273	272	270	268	267	266	264	263	262	261	261	260	259	258	257	256	255	253	251	249	248	246	245	244	242	241
224	224	225	226	228	231	234	237	237	237	236	235	235	235	233	231	230	230	231	232	234	236	237	238	239	242	244	246	247	248	249	251	252	253	255	256	258	261	264	267	271	274	276	278	280	282	283	285	286	289	291	293	296	299	301	303	303	304	303	304	305	305	306	305	304	303	302	299	296	294	291	289	287	284	282	279	277	274	271	268	266	264	262	259	257	255	252	249	247	245	243	241	239	237	235	235	234	233	231	230	229	228	226	224	223	223	223	223	220	216	216	219	220	220	220	222	225	229	232	233	235	235	236	236	235	235	236	238	240	241	242	242	242	242	242	242	242	243	244	244	243	243	244	245	246	247	247	247	249	251	253	253	253	252	251	250	248	248	251	252	253	253	254	256	255	255	255	254	254	256	257	259	259	257	257	255	255	259	262	264	266	268	270	273	276	278	278	277	276	275	275	274	274	273	272	271	269	268	266	264	263	263	261	259	258	258	259	260	261	261	262	260	257	255	253	250	247	245	244	243	242	241	239	237	234	231	228	226	227	227	226	225	223	222	220	219	217	217	218	219	221	222	222	222	224	226	229	229	228	230	232	235	236	237	240	242	247	253	254	254	256	259	261	264	268	271	272	272	273	276	280	284	288	291	295	299	301	304	306	309	311	313	314	316	318	318	318	319	320	321	322	324	326	328	329	331	331	332	332	331	330	328	327	326	326	324	323	323	322	322	320	318	316	312	308	304	300	297	294	292	292	293	292	291	290	289	288	287	285	284	282	279	277	276	274	270	266	261	258	255	252	249	245	242	240	237	233	229	228	227	226	224	223	221	220	217	214	212	210	207	204	202	201	201	200	199	197	195	194	192	190	188	187	186	186	187	187	187	187	186	186	186	185	180	178	177	175	173	173	173	174	173	173	171	169	166	161	158	157	156	157	159	160	161	163	166	169	172	174	175	177	180	183	185	188	190	192	195	198	201	202	203	205	206	209	212	214	216	217	217	217	216	215	217	219	222	224	226	227	227	228	229	229	231	231	229	227	226	227	228	231	232	234	235	236	237	238	238	238	239	240	240	239	238	238	238	238	236	235	236	242	247	252	256	258	259	261	262	262	263	265	266	267	267	265	262	260	259	260	261	262	263	265	267	269	270	272	273	274	276	279	280	282	284	285	286	288	290	292	294	295	297	298	299	301	302	304	307	310	313	315	318	321	323	325	326	327	327	329	332	336	340	342	345	348	351	353	353	353	353	353	353	354	355	357	358	359	361	363	364	366	368	370	372	374	376	377	377	379	380	381	379	376	372	368	367	367	366	364	359	355	352	350	348	346	345	343	342	341	340	339	339	339	339	338	337	336	335	334	333	332	332	333	333	333	333	332	331	330	331	332	333	334	334	333	332	331	330	328	326	325	325	327	327	327	327	325	324	325	326	328	330	332	333	334	334	334	334	335	335	336	338	341	343	344	345	346	346	346	346	346	346	346	345	345	346	346	347	347	347	348	349	348	349	350	351	351	353	354	355	356	356	356	356	357	357	355	353	352	352	353	353	353	353	353	352	351	349	347	344	342	341	340	341	341	340	340	339	338	337	337	337	338	338	339	339	339	339	339	339	339	338	337	336	335	335	333	332	330	328	326	324	322	320	319	317	316	315	313	312	311	310	308	306	304	302	300	298	296	293	292	291	290	290	290	290	289	288	288	287	287	286	286	286	286	286	286	285	285	284	284	284	284	284	284	283	283	282	280	279	278	276	274	272	271	270	268	267	266	265	264	263	262	261	261	260	259	257	256	254	252	250	248	247	245	244	242	240
226	227	228	229	231	234	237	239	240	239	239	238	238	237	235	234	233	233	234	235	237	238	239	240	242	243	246	248	249	249	251	253	254	255	257	258	260	263	265	269	272	275	278	281	283	284	286	287	289	291	293	295	298	301	303	305	306	307	307	307	308	309	309	309	307	305	303	301	298	295	293	291	288	285	282	279	277	274	272	270	267	266	264	261	258	256	254	252	249	247	245	243	240	238	237	236	236	234	233	231	230	229	228	226	224	225	226	226	224	221	219	220	221	221	222	224	226	230	234	236	237	238	238	237	235	235	236	238	239	240	242	243	244	244	244	245	246	246	246	246	245	245	246	247	247	248	248	249	251	253	254	254	254	253	252	250	250	251	253	254	254	254	255	255	255	255	255	254	254	256	258	260	262	260	258	258	260	265	267	268	270	272	274	275	276	277	275	274	273	272	271	271	271	270	270	269	268	266	264	262	261	261	261	258	256	254	256	259	260	261	261	259	256	253	252	250	247	243	241	240	239	238	237	235	232	229	226	224	224	224	223	221	220	219	220	218	215	215	217	218	219	219	220	221	223	224	226	228	228	231	234	236	236	237	238	241	246	250	251	252	254	257	260	263	268	271	272	273	273	275	279	283	287	290	293	296	298	300	303	305	308	310	311	312	313	314	313	313	314	315	316	318	321	323	325	326	326	326	327	327	326	324	323	322	322	320	320	320	320	319	317	315	312	309	305	302	298	294	291	290	290	290	289	288	287	286	285	284	282	281	279	277	275	273	270	266	262	259	256	254	251	247	243	239	236	233	229	227	225	223	222	221	220	219	217	215	212	210	208	205	203	201	199	198	196	196	195	193	192	190	188	186	185	185	184	184	184	184	184	184	184	183	182	179	176	174	172	171	171	172	172	172	171	169	166	163	160	157	156	155	156	159	161	164	167	169	171	174	176	178	180	182	185	187	190	192	194	197	200	202	204	206	208	210	212	215	218	219	220	221	220	219	219	220	222	223	225	227	227	228	229	230	230	230	229	228	226	227	228	230	232	234	236	237	238	239	240	240	241	243	244	243	241	240	240	240	239	237	237	240	244	246	251	257	259	260	262	263	264	265	266	267	268	267	266	264	263	263	263	264	265	265	266	268	270	272	274	275	276	278	281	283	284	285	286	287	289	291	294	295	297	298	300	302	303	304	305	308	311	313	316	320	323	325	326	328	329	329	330	332	335	339	343	346	349	352	354	354	354	355	355	355	356	357	358	359	360	361	363	365	367	369	371	373	375	377	378	379	379	379	380	380	378	375	369	367	366	365	362	358	355	353	351	349	348	347	346	345	344	342	341	341	341	341	340	339	338	337	336	335	335	335	335	335	335	335	334	333	333	333	335	336	337	336	336	335	333	332	331	329	327	328	328	329	329	328	327	326	326	328	330	332	334	335	336	336	336	337	337	338	339	341	344	345	347	347	348	349	348	348	348	348	348	347	347	347	348	348	349	349	350	351	351	351	352	352	353	354	356	357	357	358	358	358	358	358	356	355	354	356	357	357	357	356	354	353	352	349	347	345	343	342	342	342	342	341	341	340	339	338	339	339	340	340	340	340	341	341	341	341	341	340	339	338	336	335	334	332	330	329	327	325	323	320	319	317	316	315	313	312	310	309	308	306	304	302	300	298	296	295	294	293	292	292	291	291	291	290	289	289	288	287	286	286	286	286	286	285	285	284	284	284	284	284	284	284	283	282	281	280	278	277	275	273	272	270	269	268	267	266	265	264	263	262	262	261	259	258	256	254	252	250	249	247	245	243	241	240
228	230	231	232	235	238	240	241	242	241	241	241	240	238	237	236	236	237	237	238	239	241	242	243	244	246	247	249	251	252	253	255	257	258	260	261	263	265	268	270	274	277	280	283	285	287	289	290	291	293	295	297	300	303	306	307	309	310	310	311	311	312	312	311	309	307	304	301	298	296	294	292	288	285	283	280	278	275	274	272	269	267	265	262	260	258	256	253	251	249	247	244	242	240	239	238	237	236	234	232	231	231	231	228	226	228	228	227	225	224	223	222	222	222	224	226	228	232	235	238	239	239	238	237	236	236	237	237	238	240	242	244	245	246	247	248	249	249	249	248	248	248	248	249	249	250	250	251	253	254	255	255	256	256	254	252	252	253	254	255	255	255	255	256	255	255	255	254	254	257	260	262	264	264	262	263	264	268	270	271	273	274	275	275	275	274	272	271	271	270	269	268	267	267	267	267	265	264	262	261	261	260	260	258	256	254	256	259	260	260	259	258	255	252	250	248	245	241	238	237	237	236	235	233	230	227	224	222	221	221	220	219	218	217	218	217	215	215	216	217	218	219	220	222	222	221	222	225	227	229	232	234	235	236	238	240	244	247	247	248	251	255	258	262	266	268	270	272	273	275	278	282	285	288	290	292	294	297	299	301	304	306	307	308	309	310	309	308	309	310	310	312	315	317	318	319	321	321	322	321	320	319	318	317	316	315	316	316	316	315	313	310	308	305	302	299	296	293	290	287	287	287	286	286	285	283	282	281	280	278	277	275	273	270	266	263	260	257	254	252	249	245	241	236	231	227	224	222	221	219	218	218	218	216	215	213	210	208	206	204	202	200	198	195	192	192	192	191	189	188	186	185	184	183	183	182	182	182	182	182	182	180	178	176	173	171	170	169	169	170	170	170	169	167	164	161	158	155	156	157	158	160	163	167	170	172	174	176	179	181	182	184	187	190	192	194	197	199	201	203	206	208	210	212	215	218	220	223	224	224	223	222	221	221	223	225	227	229	229	230	230	231	232	230	228	227	226	228	231	233	234	236	238	240	240	241	242	242	243	246	247	246	244	243	243	243	241	241	243	246	247	247	250	255	259	262	263	264	265	265	267	268	268	268	267	266	266	265	266	267	268	268	268	270	271	273	275	277	278	281	283	284	285	286	288	289	291	293	295	297	298	300	302	304	305	307	308	309	312	314	317	321	324	326	328	329	331	332	333	333	335	340	345	348	351	353	355	356	357	357	358	358	358	359	360	360	360	362	364	366	368	370	372	375	377	378	379	380	380	379	379	379	378	375	369	367	366	364	361	358	356	355	353	351	350	349	348	347	346	344	344	343	343	343	343	341	340	339	338	337	337	338	337	337	337	337	337	336	336	336	338	339	339	339	338	337	335	334	333	331	330	330	330	330	330	330	329	328	328	329	331	333	335	337	338	338	339	339	340	340	341	343	345	347	348	349	351	351	350	350	350	350	350	350	350	350	349	350	350	350	352	353	353	354	355	355	354	355	356	357	358	359	359	359	359	358	357	356	358	360	359	359	358	357	356	354	352	350	347	346	344	343	344	344	344	343	342	341	340	340	340	341	341	342	342	342	343	343	344	343	343	341	340	339	337	336	334	332	330	329	327	325	322	320	318	316	315	313	312	311	309	308	307	305	304	302	300	299	298	297	296	295	294	293	292	292	292	291	290	290	289	288	287	287	286	286	286	285	285	284	284	284	284	284	284	284	283	282	281	280	279	277	275	274	272	271	269	269	269	268	266	265	264	263	262	261	260	258	256	254	252	250	248	246	243	242	240	239
231	233	234	236	238	241	243	244	244	243	243	242	241	240	239	238	239	240	241	241	242	244	245	246	247	248	250	252	253	255	257	259	260	261	262	264	266	267	269	272	276	279	282	284	286	289	291	292	294	296	297	299	302	305	308	310	311	312	313	314	314	314	314	313	311	308	305	302	299	297	296	292	289	287	284	282	280	277	276	274	271	268	266	264	262	260	257	255	253	251	249	246	244	243	241	240	239	238	236	234	233	233	233	231	230	231	231	229	227	226	223	222	222	222	224	228	231	234	237	238	239	238	237	238	238	238	239	239	239	241	243	246	247	248	249	250	251	252	251	250	251	251	251	252	252	252	252	253	254	255	256	257	258	259	257	254	254	255	256	257	256	255	256	257	256	256	255	255	255	258	261	264	266	267	266	265	265	269	271	272	274	274	274	274	273	272	270	269	269	269	268	266	264	263	264	264	263	262	261	261	260	260	259	258	257	254	256	259	258	258	257	257	255	252	249	246	243	240	237	235	235	234	232	230	228	225	223	221	220	219	219	218	216	215	215	215	214	213	214	215	217	219	220	222	221	220	220	223	225	226	228	232	235	236	238	239	242	244	246	247	250	254	257	259	263	266	268	270	272	274	277	281	283	285	287	289	291	294	295	297	299	301	302	303	304	305	304	304	304	304	304	305	308	311	312	314	316	317	317	316	315	314	313	312	311	311	312	312	312	311	309	307	304	302	299	297	294	291	288	286	285	284	283	282	281	280	279	278	277	276	275	273	269	266	262	260	257	255	252	250	247	242	238	233	227	222	219	219	218	216	215	215	214	213	212	211	209	207	204	202	200	199	197	193	192	191	190	189	187	185	184	183	183	182	181	181	181	181	181	181	180	178	176	174	172	170	167	166	167	168	169	167	166	164	162	158	155	155	156	158	159	162	165	168	171	173	176	178	181	184	185	187	190	193	195	197	199	201	203	205	208	210	212	214	217	220	223	226	227	227	226	225	223	222	223	226	229	231	232	231	231	233	233	231	229	227	227	229	232	235	237	238	241	242	243	244	244	245	246	248	249	249	247	246	246	247	246	246	248	249	248	249	252	256	260	262	263	264	265	266	268	269	269	269	268	268	268	268	269	269	270	270	270	271	273	275	277	278	280	283	284	285	286	288	289	291	293	295	297	299	300	302	304	306	308	309	310	311	313	316	319	322	324	326	328	330	333	335	336	337	339	344	347	349	352	354	356	359	360	360	361	361	361	361	361	360	361	363	365	367	369	371	374	378	380	380	381	381	380	379	378	377	375	373	369	367	366	364	362	360	358	356	355	353	351	350	350	349	348	347	346	346	346	346	345	343	342	341	340	339	339	340	339	339	339	340	339	339	339	340	341	342	341	341	340	339	338	336	334	333	332	332	332	332	332	332	331	330	330	331	332	335	337	339	340	340	341	341	342	342	342	344	346	348	349	351	352	352	352	352	351	351	351	352	352	352	351	351	351	352	353	354	354	356	357	357	357	356	357	358	359	360	360	360	359	358	357	358	360	360	359	358	359	358	358	356	353	350	348	347	346	345	345	346	345	344	343	342	341	341	342	343	343	344	344	344	345	346	346	345	344	343	341	339	338	336	334	332	330	328	326	324	321	319	317	315	313	311	310	309	308	307	305	304	303	302	301	300	299	298	298	297	295	294	293	293	292	292	291	290	289	288	287	287	286	286	286	285	285	284	284	284	284	284	284	284	283	282	281	280	279	278	276	274	272	271	270	269	269	268	267	266	265	264	262	261	259	258	256	254	252	250	247	245	242	240	239	238
233	235	237	239	242	244	246	246	246	245	245	244	243	242	241	241	242	243	244	245	245	247	247	248	249	251	253	255	257	259	261	262	262	264	265	266	268	269	271	273	277	281	283	285	288	290	292	294	296	298	300	302	305	308	310	313	314	315	316	316	316	316	315	313	311	309	306	302	300	298	296	293	290	288	286	284	282	281	279	276	273	270	267	265	264	262	260	257	255	254	251	248	246	245	243	241	241	240	239	237	235	234	234	232	233	234	233	232	231	229	226	224	223	223	225	229	233	236	238	239	239	238	239	240	241	242	242	243	244	244	246	248	249	250	250	251	253	253	253	253	253	254	255	254	254	254	254	255	256	257	257	259	260	260	259	257	256	257	257	258	258	257	257	258	258	257	257	256	256	257	259	263	266	268	269	267	267	270	272	273	273	273	273	272	271	270	268	266	267	267	266	263	261	261	261	260	260	259	260	260	259	259	258	257	256	254	254	256	257	257	256	255	254	251	247	244	242	240	238	235	233	232	230	229	228	226	224	223	221	220	218	217	214	213	214	213	212	212	212	213	214	216	218	219	220	219	220	222	224	225	227	231	234	235	237	238	240	243	245	246	250	253	256	257	261	263	266	269	271	273	276	278	280	283	284	286	289	290	291	293	295	296	296	296	297	299	299	299	299	299	300	300	303	306	308	309	311	312	313	312	311	309	308	306	307	308	309	309	308	307	306	303	301	299	296	294	292	289	286	283	281	279	277	277	277	277	276	276	275	274	272	269	265	262	259	257	255	252	250	247	243	239	235	230	223	218	216	216	216	214	212	211	211	210	210	209	207	205	203	200	199	197	194	192	192	191	188	187	185	183	182	181	180	179	179	180	180	179	179	178	177	176	175	174	171	168	165	164	165	166	166	164	162	161	159	155	153	154	155	157	161	164	167	169	172	175	178	181	184	187	188	190	193	195	197	198	200	202	205	208	210	212	213	216	220	223	226	228	229	229	229	228	226	224	225	227	230	232	233	232	232	234	234	232	229	227	228	230	234	236	239	241	244	246	247	247	247	247	248	250	251	250	249	248	248	249	250	251	252	252	252	252	254	257	260	262	263	264	265	267	269	269	270	270	270	269	270	271	271	271	271	271	271	273	274	276	278	280	282	284	285	286	287	289	291	292	295	298	300	301	302	304	307	309	310	312	313	313	315	318	321	323	324	326	329	331	334	336	338	340	342	345	348	350	352	355	358	361	362	362	362	362	362	362	362	362	363	364	366	368	371	373	376	381	383	383	383	383	381	381	379	377	374	372	370	368	367	365	363	361	360	359	357	355	353	352	352	351	350	349	349	348	348	348	347	346	344	342	342	341	341	340	341	341	342	342	342	342	342	343	344	344	343	343	342	341	340	338	336	335	334	334	334	334	334	334	334	333	332	332	334	336	339	341	342	342	342	343	343	343	343	345	346	348	350	352	353	354	354	354	354	352	351	352	353	354	354	353	353	354	356	356	355	357	358	358	358	358	358	358	359	360	360	360	360	359	358	359	360	360	360	360	360	360	359	357	354	351	350	349	348	347	347	347	347	345	344	344	344	343	344	345	346	346	345	346	347	347	347	346	345	344	342	340	338	335	333	331	329	327	325	323	320	318	316	314	311	309	308	308	307	306	305	304	303	303	302	302	301	300	299	298	297	296	295	294	293	292	291	290	290	289	288	287	286	286	285	285	284	283	283	284	284	283	283	283	283	282	281	279	278	277	275	274	273	271	270	269	269	268	266	265	264	263	262	260	259	257	255	253	251	249	246	244	241	239	238	236
235	237	240	242	244	246	248	248	248	248	248	247	245	243	243	245	245	246	246	247	248	249	249	250	252	254	256	258	260	262	264	264	265	266	267	268	270	271	273	276	279	282	284	286	289	291	294	296	299	301	303	305	307	310	312	315	317	317	318	318	318	317	316	314	311	309	306	303	301	299	297	295	292	290	289	287	285	283	281	278	274	272	269	267	266	265	263	260	258	256	253	250	249	247	245	243	243	242	241	239	237	236	234	234	235	236	235	234	233	232	231	228	226	226	227	230	234	237	238	239	240	241	241	242	243	244	245	246	246	246	247	249	251	251	251	252	254	255	255	255	255	256	257	256	255	255	257	258	258	258	259	260	261	261	260	258	258	258	259	259	260	259	258	259	259	259	258	257	257	257	258	261	265	268	270	269	269	271	272	272	272	272	271	271	269	267	266	265	265	264	262	261	260	260	259	258	258	258	258	258	257	257	256	255	254	254	253	253	254	255	254	253	252	250	246	243	241	241	239	236	233	231	230	230	230	229	227	226	225	223	221	217	213	212	212	211	210	211	211	210	211	213	215	216	218	219	219	220	221	223	226	230	233	235	236	237	239	241	244	246	249	252	254	255	258	261	264	268	270	271	274	276	277	279	281	282	284	286	287	289	291	291	291	291	292	293	294	294	294	295	295	297	298	301	301	302	305	306	307	307	305	304	302	302	302	304	305	306	305	304	302	299	297	295	294	292	290	286	283	281	278	274	272	272	273	274	274	273	271	270	268	265	262	259	256	254	252	249	247	244	240	236	231	226	221	217	215	214	214	212	209	207	207	208	208	207	205	203	201	198	197	195	192	191	190	188	185	184	183	182	181	179	178	177	177	177	176	175	175	176	175	174	174	172	170	166	163	162	162	163	162	161	159	158	156	154	153	153	154	158	162	166	169	171	173	176	179	182	185	188	190	192	194	196	198	200	203	205	208	210	212	214	216	219	222	225	228	230	231	232	232	230	229	227	227	229	231	233	234	234	234	235	235	233	230	228	229	232	235	238	241	244	247	248	249	250	250	250	251	253	253	252	250	249	249	250	251	253	254	255	255	255	255	256	257	260	264	265	266	267	268	269	270	270	270	270	271	273	272	271	271	272	273	274	275	277	280	281	283	285	286	287	289	291	292	294	297	299	300	301	303	306	308	310	312	314	315	316	318	320	322	324	325	326	329	333	335	338	340	342	344	346	348	350	353	355	358	361	362	363	363	363	363	364	363	364	364	365	367	369	372	374	377	381	384	384	385	385	384	382	381	378	375	372	371	369	368	367	365	363	362	360	359	357	356	355	354	353	352	351	351	351	351	350	349	348	346	345	344	343	343	342	342	343	344	344	344	345	345	346	346	345	345	344	344	343	342	340	339	338	337	336	336	336	336	336	336	335	335	334	335	338	340	343	344	344	344	344	344	344	344	344	345	348	350	352	354	355	357	358	358	356	353	353	355	356	356	355	354	355	358	359	357	357	358	358	358	358	358	359	360	360	361	360	360	359	360	360	360	361	361	362	361	360	359	357	354	352	351	350	350	349	349	349	348	347	346	347	347	346	346	347	348	347	347	348	349	349	348	347	346	344	342	339	337	334	332	330	328	326	325	323	320	317	315	313	311	309	308	308	308	307	305	304	304	304	304	303	303	302	301	300	298	297	296	294	293	292	291	291	290	289	288	287	286	285	284	283	283	282	282	282	283	283	283	283	282	282	280	279	278	277	275	274	273	271	270	268	267	266	265	263	262	261	261	260	258	256	254	252	250	247	245	243	240	238	237	235
237	240	242	245	246	248	249	250	251	251	251	249	247	246	246	247	248	248	249	250	251	251	252	253	255	257	259	261	263	265	266	266	267	268	269	271	272	274	276	279	281	283	285	288	290	293	295	298	301	303	305	307	309	312	315	317	319	320	320	320	320	318	317	315	312	310	307	304	302	301	299	297	295	293	291	289	287	285	282	279	276	274	272	270	268	267	264	261	259	257	255	253	251	250	248	246	245	244	243	241	240	238	236	236	237	238	236	235	235	234	233	230	228	228	230	232	235	237	238	240	242	243	243	244	245	246	247	248	248	248	248	250	252	252	253	254	255	256	256	256	256	257	258	258	256	256	258	259	259	260	262	262	262	261	261	260	260	260	260	261	262	261	259	260	260	260	260	259	259	260	263	266	267	268	270	270	270	270	270	270	270	270	270	269	267	265	264	264	264	261	259	260	260	260	258	258	258	258	257	255	255	255	254	254	252	251	250	248	249	250	250	251	250	249	246	243	242	241	239	237	235	233	231	231	232	231	230	229	228	226	223	219	214	211	211	209	209	210	209	208	210	213	213	214	215	217	218	218	219	221	224	229	233	235	236	237	238	241	244	247	249	250	252	254	256	259	263	266	268	269	271	273	274	274	276	278	280	281	283	285	286	286	287	287	288	289	289	290	290	290	290	292	294	293	292	294	299	301	300	299	299	298	298	299	300	301	302	302	302	300	298	295	294	292	291	289	286	283	281	279	276	273	270	269	270	271	270	268	266	265	263	260	258	255	253	250	248	246	243	240	237	233	228	224	221	218	215	212	212	210	207	204	204	205	205	205	203	201	199	197	195	193	191	189	186	183	182	182	182	182	180	177	176	175	175	175	173	172	173	174	174	173	172	170	167	163	160	159	160	160	160	158	156	155	155	155	154	154	156	160	164	168	171	172	174	177	180	183	186	189	191	192	195	197	200	202	205	208	211	213	215	218	220	222	225	227	229	231	233	233	234	233	232	230	230	231	233	235	236	236	236	236	236	233	231	230	232	236	238	241	244	247	250	251	252	252	252	252	254	255	255	254	253	252	251	252	253	254	255	256	257	257	257	256	257	261	265	267	267	267	268	269	269	270	270	270	271	273	274	273	273	273	274	275	276	279	281	282	284	286	287	288	290	292	294	296	297	298	299	301	303	306	308	310	313	315	317	319	320	322	324	325	326	328	330	334	337	340	342	344	346	347	349	351	353	355	357	360	363	364	364	364	365	365	365	365	366	367	369	371	373	375	377	379	381	383	385	385	384	383	381	378	375	373	372	371	369	368	367	366	364	362	361	359	358	357	357	356	355	354	354	354	353	352	351	350	348	347	346	346	345	344	345	345	346	347	347	347	348	348	348	347	347	346	346	345	344	343	341	341	340	339	339	339	338	338	338	338	337	336	337	339	341	344	345	345	345	346	346	345	345	345	346	348	350	352	354	356	358	360	360	358	356	356	357	358	359	357	356	356	358	359	358	358	358	358	358	359	359	360	361	361	361	361	361	361	362	362	362	363	363	363	363	361	360	357	356	354	353	352	352	352	352	351	350	350	350	350	349	349	349	349	349	349	350	350	350	350	349	347	345	343	340	338	336	334	332	330	328	326	325	323	320	317	315	313	312	311	309	308	308	308	307	306	306	306	305	305	304	303	302	300	299	297	296	295	294	292	291	291	290	289	288	286	285	284	283	282	281	281	281	281	281	282	282	282	281	281	280	279	278	276	275	274	272	271	270	268	266	264	263	261	260	259	259	258	257	254	252	251	249	246	244	241	239	238	238	235
240	242	244	247	248	250	251	252	253	253	253	252	250	249	249	250	250	251	251	253	254	254	255	256	258	260	262	263	265	266	268	269	270	271	272	274	276	277	279	281	283	285	287	290	292	294	297	299	302	305	307	309	311	314	317	320	321	322	322	322	321	320	318	316	313	311	308	306	304	302	301	300	297	295	293	291	288	285	282	279	277	276	274	272	270	268	266	263	261	259	257	255	254	253	251	248	246	246	245	244	241	239	238	238	239	239	238	237	238	237	235	233	231	231	232	233	235	236	238	240	242	243	244	245	245	247	248	250	250	250	250	251	253	254	255	256	258	258	257	257	258	258	260	260	259	258	258	259	260	262	264	264	263	263	262	262	262	262	262	262	264	262	261	261	262	263	263	262	261	265	270	271	269	269	270	270	269	269	269	268	268	267	267	267	265	263	262	263	262	259	257	259	260	259	258	257	257	257	255	253	252	252	253	252	251	250	249	248	248	247	247	248	248	248	246	244	242	241	239	237	236	235	233	233	232	232	231	229	228	226	222	218	214	212	211	209	208	209	209	207	209	213	213	213	214	216	217	217	219	220	222	228	233	235	236	236	237	240	243	247	248	250	252	254	255	258	261	263	265	266	268	269	271	271	272	274	276	277	279	281	282	282	283	283	284	285	285	285	285	286	285	286	288	289	287	288	292	293	293	294	294	295	296	297	298	298	299	299	298	297	295	293	291	289	288	286	283	281	279	277	274	270	267	265	266	267	265	263	262	261	259	256	253	250	248	246	245	242	240	237	234	230	226	223	221	218	214	211	210	208	204	202	201	202	202	201	200	199	197	195	193	191	189	187	183	181	180	179	180	180	178	175	174	174	174	173	172	171	172	173	172	171	170	167	164	161	158	157	157	157	157	156	154	153	153	154	154	154	157	161	165	169	172	174	177	180	182	184	187	190	192	194	196	199	201	204	208	211	214	216	218	221	222	225	227	228	231	233	235	235	235	235	234	233	232	232	234	236	237	237	237	238	237	235	234	234	236	239	241	243	246	249	252	254	254	254	254	254	256	257	257	256	255	255	254	254	255	256	256	257	259	260	261	260	260	264	267	268	268	269	270	270	270	271	271	271	271	274	276	276	275	274	275	277	278	280	282	283	284	286	287	288	290	292	295	297	298	299	300	302	305	307	309	311	313	315	317	320	322	324	326	328	329	331	332	335	338	341	344	345	347	349	350	352	353	355	357	360	363	364	365	366	366	366	367	368	368	369	370	372	374	376	378	379	380	382	384	385	385	383	382	379	376	374	373	372	371	370	369	368	366	364	363	362	361	360	359	358	357	357	356	356	355	354	353	352	351	350	349	348	347	346	347	347	348	349	350	350	350	350	350	349	349	349	348	347	346	345	344	344	343	342	341	341	341	341	340	339	339	338	339	340	342	345	346	346	347	347	347	346	346	347	348	349	351	353	355	356	358	360	360	358	358	359	360	361	362	359	358	358	358	359	359	359	359	360	360	360	360	361	362	362	362	362	363	364	364	364	364	365	365	365	364	362	360	359	357	356	355	355	354	355	354	354	353	352	353	352	352	352	351	351	351	352	352	352	351	351	349	347	345	342	339	337	336	334	332	331	329	327	325	323	321	319	316	314	313	312	310	309	309	309	309	308	308	308	307	306	305	304	303	301	299	298	297	295	294	293	292	291	289	288	287	286	284	283	281	280	280	279	279	280	280	280	280	281	280	280	279	279	278	276	275	274	272	271	269	267	265	263	261	260	259	258	257	256	255	253	251	250	248	246	244	241	238	237	237	235
242	244	246	248	250	252	253	254	255	255	256	255	253	251	251	251	252	253	254	255	256	257	258	259	261	263	264	265	267	268	270	271	272	273	275	277	279	280	281	283	285	287	289	292	294	297	299	301	303	306	309	311	314	316	319	322	323	324	324	324	323	321	320	317	315	312	310	308	306	305	303	301	298	297	295	292	289	286	283	281	279	278	276	275	272	270	268	265	263	261	259	257	256	255	253	250	247	247	247	246	242	239	239	239	240	240	239	240	240	240	238	237	235	233	233	234	235	236	236	238	241	243	244	245	246	248	250	251	252	252	252	253	254	256	258	259	260	260	259	259	259	259	261	262	261	259	259	260	261	262	264	265	266	265	265	264	264	265	265	265	265	264	263	263	264	264	265	263	263	268	271	272	271	270	271	270	269	268	267	266	266	265	265	264	262	261	260	259	258	256	256	258	259	258	256	254	254	254	252	250	249	249	249	249	248	248	249	250	250	247	245	245	247	247	246	244	241	240	239	238	238	237	236	235	233	232	230	229	227	225	220	216	213	212	211	209	208	208	210	210	211	212	212	212	214	219	222	220	220	221	221	226	232	234	236	237	237	239	242	245	247	250	253	254	255	257	259	260	262	263	264	266	267	268	269	270	271	273	276	277	278	279	279	279	281	282	282	281	281	282	283	283	284	285	284	285	286	287	288	289	290	291	292	294	295	296	296	296	295	295	293	291	289	287	285	283	281	279	277	274	270	267	264	262	262	262	260	259	258	256	254	251	248	245	244	242	241	239	237	234	231	227	224	222	220	216	213	210	207	204	201	200	200	198	197	197	197	196	194	192	190	189	187	184	181	179	178	177	177	177	174	172	172	171	171	171	171	171	171	171	170	169	168	166	163	159	156	154	154	154	154	153	152	152	152	154	154	155	159	162	166	171	174	176	179	182	185	187	189	191	193	195	198	201	203	206	210	213	216	218	221	223	225	227	229	230	232	235	237	238	238	237	236	235	234	234	235	237	239	239	239	239	238	236	236	236	238	241	243	245	247	251	254	255	255	255	256	257	258	259	259	257	256	256	256	256	256	257	258	259	260	262	263	263	264	267	268	269	269	270	271	272	272	272	273	273	273	275	277	277	276	276	276	278	279	281	283	284	285	287	288	289	290	293	295	297	299	300	302	305	307	310	312	313	315	316	318	320	324	327	329	331	332	333	334	336	339	343	345	347	349	351	352	353	354	356	358	360	362	364	366	367	367	367	368	369	370	371	373	374	375	378	380	381	381	383	385	386	385	384	382	381	379	377	376	375	373	372	370	369	368	366	365	364	363	363	362	361	360	359	359	358	358	357	356	354	353	352	351	350	348	348	348	349	350	352	352	352	353	352	352	352	351	351	350	349	348	348	347	347	346	345	344	343	343	342	342	341	340	340	341	341	343	345	347	348	348	348	347	347	348	349	350	352	353	354	356	358	359	360	359	359	360	361	361	364	364	361	359	359	360	360	360	361	361	361	361	361	361	362	362	362	362	364	365	366	365	365	365	366	366	366	364	363	362	361	359	358	358	357	357	357	357	356	355	355	355	354	354	355	355	354	353	353	353	352	352	351	349	347	344	341	339	337	336	334	333	332	330	327	325	323	322	320	317	315	314	313	312	310	310	310	310	310	309	309	308	307	306	305	303	301	300	298	297	296	294	293	292	290	289	288	286	285	283	281	280	279	278	277	277	278	279	279	279	279	279	279	279	278	277	276	275	273	272	270	269	267	265	263	261	260	258	257	256	255	254	252	251	249	248	246	245	242	238	237	235	234
244	246	248	250	252	254	255	256	257	257	258	256	255	253	252	253	254	255	256	257	258	259	260	262	264	266	267	267	268	270	272	274	275	276	278	280	281	282	283	285	288	290	292	294	297	299	301	303	305	307	310	312	315	319	322	324	326	326	326	325	324	322	321	319	317	314	312	310	309	307	304	302	300	298	295	292	289	286	284	283	282	280	279	278	275	272	270	268	266	263	261	259	258	257	255	252	248	246	247	247	243	240	240	241	242	242	242	242	242	241	241	239	237	235	235	235	235	235	236	238	240	243	244	245	247	249	251	252	253	254	253	254	255	258	260	261	262	262	261	260	260	260	261	262	261	260	259	261	262	263	264	266	268	269	269	268	268	269	270	268	266	266	265	266	266	265	265	263	264	271	273	273	273	272	271	271	270	268	266	265	265	263	262	261	260	259	258	256	255	254	254	256	256	254	253	252	251	250	249	247	246	246	246	245	245	246	247	248	249	247	244	244	245	246	245	243	241	240	239	239	238	238	238	236	234	233	231	229	226	223	218	214	212	211	210	209	208	209	211	213	213	213	212	213	215	220	223	222	222	222	221	225	229	232	236	238	238	239	240	243	245	248	252	255	255	256	257	258	259	260	261	263	264	265	266	267	268	270	272	273	274	274	275	275	277	278	278	277	278	279	281	282	282	282	282	283	283	282	283	284	285	286	287	290	292	293	293	293	292	292	291	289	286	284	282	280	279	277	274	271	268	265	263	261	260	258	256	255	253	251	249	246	243	241	240	239	237	235	233	231	228	225	223	221	218	215	211	208	205	201	199	198	198	196	194	193	193	192	191	189	188	186	184	182	179	178	176	176	175	174	171	170	170	169	169	168	168	168	169	169	168	167	167	164	161	157	153	152	151	151	151	151	151	152	153	154	156	158	161	163	168	173	176	178	182	185	187	189	190	192	194	196	199	202	205	209	212	215	218	220	222	225	227	229	230	232	234	236	238	240	240	239	238	237	236	235	236	238	240	240	241	240	239	238	237	238	240	243	245	247	250	253	255	256	256	257	258	259	260	261	261	260	258	257	257	257	258	259	259	261	262	264	265	266	267	268	269	270	270	271	272	273	273	274	275	275	275	276	277	277	277	278	278	278	280	282	284	285	286	287	288	290	292	295	297	298	300	303	305	308	311	313	315	317	318	319	320	322	325	330	332	333	334	335	336	339	342	344	347	349	351	352	354	355	355	357	359	360	362	364	366	367	368	368	369	371	372	374	375	376	377	380	382	382	382	384	387	386	386	384	382	380	380	379	377	377	376	374	372	371	370	369	368	367	367	366	364	363	362	362	361	361	360	359	358	356	355	354	353	352	350	349	349	350	352	354	355	355	354	354	354	354	353	352	351	350	350	350	350	349	348	347	346	345	344	344	344	342	341	341	341	342	343	346	348	349	350	350	349	349	350	352	353	354	355	356	358	359	360	360	360	360	361	362	363	365	365	362	360	360	361	362	362	362	362	362	362	362	362	363	363	363	363	364	366	366	365	366	367	368	367	366	365	364	363	363	361	360	360	359	359	359	359	358	358	357	357	357	357	359	359	357	355	355	354	353	352	351	349	347	344	342	339	337	336	335	334	333	330	328	326	324	322	320	318	317	315	314	313	312	312	312	311	311	310	309	308	307	306	305	304	302	300	299	297	295	294	293	291	290	288	287	285	283	281	280	278	277	276	275	276	277	277	278	278	278	278	278	278	277	276	275	274	273	272	270	269	267	265	264	262	260	258	256	255	254	253	251	250	249	247	245	244	242	239	237	235	233
246	248	250	252	255	256	258	258	259	259	259	258	256	254	253	254	255	257	259	260	260	261	262	264	266	268	269	270	271	272	274	276	278	279	281	282	284	285	286	288	290	293	294	297	299	301	303	305	307	309	311	314	317	321	325	327	327	328	327	326	324	323	322	320	319	317	315	313	311	309	306	303	301	299	296	293	290	288	287	286	285	283	282	280	277	274	272	270	268	265	262	261	259	258	257	255	252	248	248	247	244	243	242	243	244	245	245	244	244	243	242	241	238	236	236	237	237	237	237	239	241	243	245	246	248	250	252	253	254	255	255	256	257	259	260	262	263	264	263	262	261	261	261	261	261	260	261	263	265	266	267	269	270	271	272	272	272	273	274	272	270	269	268	268	268	267	266	265	266	273	275	275	273	272	272	272	270	267	266	265	264	263	260	258	257	257	256	255	253	252	253	253	252	251	250	249	249	248	247	245	244	244	244	243	242	243	244	245	246	246	244	243	244	244	243	242	241	240	239	238	238	237	237	236	234	233	231	227	225	222	217	212	210	209	208	207	207	209	212	214	214	213	213	215	217	220	220	219	220	222	223	225	227	230	234	236	239	240	240	241	242	244	249	253	253	253	255	257	258	258	258	260	261	263	263	264	265	266	267	268	269	270	271	271	273	274	274	275	276	277	278	279	279	279	279	280	280	279	278	280	282	283	284	286	288	289	289	289	289	288	287	286	283	281	279	278	277	275	272	269	266	263	261	259	256	253	252	251	249	247	244	240	239	238	237	235	234	232	230	227	226	224	222	220	217	214	210	207	204	201	197	196	195	193	191	191	189	187	187	186	185	184	182	180	178	176	175	174	173	171	169	169	169	168	167	166	166	166	167	166	166	166	165	162	158	154	151	149	149	149	149	149	151	152	154	155	158	161	164	167	172	177	179	181	184	186	189	191	192	194	196	197	200	204	208	211	214	217	220	222	224	227	229	231	233	235	236	237	240	242	242	241	240	239	237	236	237	239	241	242	242	242	241	240	240	241	244	246	247	248	251	255	257	257	258	260	261	262	263	264	264	263	261	259	259	259	260	260	261	263	264	265	267	268	269	270	270	270	270	271	273	274	275	276	276	276	276	276	276	276	278	279	279	280	281	283	285	285	287	288	290	292	294	297	299	301	303	306	309	312	314	316	318	320	321	322	323	324	327	331	334	334	335	337	339	342	344	346	348	350	352	354	355	356	356	357	359	360	363	365	367	368	369	369	371	373	375	376	377	378	380	383	384	383	382	385	388	388	387	386	383	381	380	380	379	379	378	376	375	373	372	371	371	370	370	369	367	366	365	364	364	363	362	361	360	358	357	356	355	353	352	351	351	352	354	356	357	357	356	355	355	355	355	354	353	352	352	353	353	351	350	349	348	346	346	347	347	345	343	343	343	343	344	347	350	351	352	352	352	351	352	353	355	356	357	359	360	361	361	361	361	362	363	364	365	366	365	363	361	362	363	364	364	364	364	364	364	364	364	364	364	364	364	365	366	366	366	367	368	369	368	367	366	366	365	364	363	362	362	362	362	363	362	361	361	360	360	360	360	360	360	359	357	356	355	354	353	351	350	347	345	343	341	339	338	336	335	333	331	329	327	325	323	321	319	318	316	315	314	314	314	313	312	311	311	310	309	308	307	305	304	302	300	299	297	295	294	292	291	289	287	285	283	281	280	279	277	276	274	274	275	275	276	277	277	277	277	277	277	276	275	274	274	273	272	270	268	267	265	264	263	261	259	257	255	254	252	251	250	249	247	245	243	241	239	237	234	231
248	249	251	254	257	259	259	260	260	261	261	260	258	256	255	255	256	258	260	261	262	263	265	266	268	270	271	272	273	274	276	278	280	281	283	284	286	287	289	291	293	295	297	299	301	304	306	309	310	312	313	316	320	324	327	328	329	330	329	327	326	325	323	322	320	319	317	316	314	311	308	305	302	300	297	295	293	291	289	288	287	285	283	281	278	276	274	271	268	266	264	262	261	260	259	258	256	254	252	250	248	246	245	246	247	248	247	246	246	246	245	243	241	238	238	238	239	239	239	240	242	244	246	248	249	251	252	254	256	258	258	259	260	261	262	264	265	266	266	265	264	264	263	262	262	261	262	265	268	269	270	271	272	273	275	275	275	275	276	276	276	275	272	271	271	271	270	270	270	275	276	276	275	274	272	271	269	267	266	265	264	263	260	257	255	254	254	253	252	251	251	251	250	249	248	247	247	247	246	243	241	242	243	241	239	240	242	244	245	244	244	243	244	243	242	241	240	240	239	238	237	236	235	234	233	232	230	226	223	220	216	212	210	208	207	206	206	209	212	212	211	211	213	215	217	219	218	217	218	221	224	225	227	229	232	233	236	239	239	239	240	241	244	248	250	250	252	255	256	255	255	256	257	259	260	260	262	263	264	265	266	267	267	268	270	271	271	272	273	274	274	275	275	276	276	276	277	277	276	277	278	279	280	282	284	285	285	285	285	285	284	282	280	279	277	276	274	272	270	267	264	261	258	254	251	249	247	246	243	241	238	236	236	235	234	232	231	229	227	225	224	223	221	219	216	212	208	205	203	200	197	193	191	189	189	188	186	184	183	183	183	182	181	178	176	175	173	172	171	169	167	167	167	166	164	163	163	164	164	164	164	164	162	158	155	151	148	148	148	149	149	149	151	153	155	158	161	164	167	170	175	181	183	184	186	188	191	193	195	197	199	200	203	206	209	213	216	219	222	225	227	230	232	234	237	238	238	240	242	243	244	243	241	240	239	238	239	241	242	242	243	243	243	243	244	246	248	249	249	249	251	255	257	259	261	263	264	265	266	267	267	266	264	262	261	260	261	262	263	264	265	266	267	268	270	270	271	270	269	271	272	274	276	277	277	277	277	277	277	278	279	280	280	281	283	284	285	286	287	289	291	293	296	298	301	304	307	310	312	315	318	320	322	324	325	326	327	328	330	332	334	335	337	340	342	344	345	347	348	351	353	356	357	357	358	358	359	361	364	366	367	369	371	373	375	377	379	379	379	380	382	385	387	385	385	388	390	390	390	389	387	384	383	383	383	382	380	379	377	376	374	373	373	373	373	371	370	368	368	367	367	366	365	363	362	361	359	358	357	355	353	353	353	355	357	358	358	358	357	357	357	357	357	356	355	354	354	354	354	353	352	351	349	348	349	350	350	348	345	345	344	344	345	349	352	353	354	354	353	353	353	355	357	359	360	361	362	362	362	363	363	364	364	366	367	366	364	363	362	363	364	365	366	366	365	366	365	365	365	365	365	365	365	365	366	367	367	369	370	370	369	368	367	367	367	366	365	364	364	364	365	366	365	364	364	363	363	363	362	362	361	360	359	357	356	355	353	352	350	348	346	345	343	341	340	338	336	334	332	330	328	326	325	322	320	319	317	316	315	315	315	314	314	313	312	311	310	309	307	306	304	302	300	299	297	295	293	292	290	288	286	284	282	280	278	277	276	274	273	273	274	274	275	275	276	276	276	276	275	275	274	273	273	272	271	270	268	267	266	264	263	261	259	258	256	254	253	251	250	248	247	245	243	242	239	236	233	229
250	251	252	255	258	260	261	262	263	263	263	262	261	259	257	256	257	259	260	262	264	266	268	269	270	271	272	274	275	276	278	280	281	283	285	287	288	289	291	293	295	297	299	301	304	306	309	311	313	315	316	319	322	325	328	330	331	332	331	329	328	327	326	324	323	321	319	317	315	312	309	306	304	302	300	298	295	293	292	290	289	287	285	283	280	277	275	272	270	268	266	264	263	262	261	260	259	258	256	254	252	249	247	248	251	251	249	249	248	248	247	245	243	241	239	239	240	240	241	242	243	245	247	248	250	251	253	256	259	261	261	261	261	263	264	265	266	268	268	268	267	266	266	265	265	264	265	268	270	271	272	272	273	275	276	277	277	277	278	279	280	279	277	275	275	275	275	275	275	277	278	278	276	275	273	270	269	267	266	265	264	263	260	256	254	253	252	251	250	250	250	249	248	246	245	245	244	244	244	241	239	239	240	238	236	237	239	241	242	242	242	242	243	242	240	240	240	239	237	236	236	235	234	233	232	230	227	224	221	218	213	210	209	207	206	205	205	207	210	211	210	211	212	215	217	219	217	216	217	220	224	226	226	228	230	231	233	236	237	238	239	241	242	243	246	247	249	252	253	250	249	250	252	255	256	257	259	261	262	262	262	263	263	264	266	268	268	268	269	270	270	271	272	273	273	272	273	274	274	274	275	276	276	278	280	281	282	282	282	281	280	279	277	276	274	273	271	269	267	265	261	258	255	251	248	245	241	239	237	236	234	233	234	233	231	229	228	226	224	223	222	220	218	216	213	210	206	204	202	199	195	191	188	187	186	185	183	182	181	180	181	181	180	177	175	174	172	171	170	168	166	166	165	163	161	159	160	161	162	162	162	161	158	154	151	148	147	147	148	148	149	151	153	155	157	160	163	166	169	172	176	182	185	187	188	190	193	196	198	200	202	204	206	207	210	214	217	220	224	227	230	233	235	237	239	240	240	242	244	245	246	245	244	242	241	240	240	242	243	243	243	245	246	246	248	250	252	253	252	252	253	255	258	261	263	265	267	268	269	269	268	267	265	264	262	262	261	262	264	265	266	266	267	268	269	269	269	269	269	270	272	273	275	276	277	277	278	278	278	279	280	281	282	283	284	285	286	286	287	289	292	294	297	300	303	306	309	312	315	318	320	323	325	327	329	330	330	331	333	334	335	336	338	341	344	346	347	348	349	351	354	357	358	359	359	358	360	363	367	368	369	371	374	377	380	381	383	384	383	382	383	386	388	389	390	392	392	392	391	391	390	388	388	389	387	385	382	381	380	380	380	378	376	375	375	374	372	371	370	370	369	369	367	366	364	363	361	360	359	357	355	355	355	357	359	360	360	359	359	359	359	359	358	358	357	356	356	356	355	354	353	352	351	350	350	352	352	350	348	347	346	346	347	350	354	356	356	355	355	355	355	357	359	361	362	364	364	364	363	364	366	366	366	368	368	366	364	363	363	364	365	367	367	367	367	367	367	367	366	366	366	366	366	367	368	369	369	370	370	370	370	370	370	369	369	368	367	366	366	367	368	368	367	366	366	365	365	365	365	364	363	362	360	358	357	355	354	352	350	349	348	346	344	343	341	339	337	335	333	331	329	327	326	324	322	320	318	317	317	316	316	316	315	314	313	312	311	309	308	306	304	302	300	299	297	295	293	291	289	287	285	283	280	278	277	276	275	273	272	272	273	273	274	274	275	275	275	275	275	274	273	272	272	271	270	269	268	266	265	264	263	261	259	258	256	255	253	252	250	248	247	245	243	242	239	235	232	229
