73	73	75	76	77	77	78	79	78	77	77	78	78	77	77	77	77	77	77	77	78	77	77	79	81	84	86	89	91	93	95	96	98	101	103	105	107	109	110	111	111	111	110	108	107	106	106	107	107	107	106	107	109	110	112	113	115	117	119	120	121	122	122	123	122	122	123	124	125	126	127	128	128	128	127	127	127	127	126	127	127	128	128	128	130	131	133	133	133	133	132	131	129	127	126	126	125	124	123	122	121	122	123	124	126	129	131	133	133	133	132	133	135	135	135	135	133	133	134	136	137	137	138	138	138	139	138	137	140	144	146	147	149	151	152	153	154	155	156	157	158	159	160	161	162	163	164	165	166	167	168	169	170	172	174	176	179	180	181	181	182	181	181	181	179	178	176	174	172	169	166	162	160	157	153	150	147	144	142	139	137	135	133	131	128	125	122	119	116	113	110	107	105	101	98	96	93	91	88	86	84	82	80	77	74	73	72	73	72	72	73	73	73	74	74	75	75	77	78	80	80	80	82	84	87	90	92	95	97	100	102	104	105	105	104	103	101	100	101	102	102	103	106	109	111	112	113	114	115	116	117	118	120	122	123	124	126	128	130	132	135	137	140	142	145	147	149	151	153	155	158	159	161	163	165	167	169	170	172	174	176	177	178	179	181	183	185	187	189	191	192	194	194	195	195	195	196	199	202	205	207	208	209	210	212	215	217	219	220	223	226	227	230	234	237	239	241	243	246	248	251	253	256	259	260	261	263	266	270	274	279	283	287	292	296	300	304	308	312	317	322	326	330	333	338	344	349	354	358	361	364	368	370	373	375	376	378	384	389	392	393	394	394	394	393	391	390	389	388	389	390	390	390	390	390	390	390	390	391	392	395	396	397	396	394	390	387	383	379	375	371	367	364	360	357	355	353	351	348	346	345	344	344	343	343	343	342	340	337	335	333	330	327	324	321	318	316	312	309	307	308	308	308	308	308	307	307	306	307	308	310	310	309	307	304	300	296	294	292	292	294	296	297	298	299	301	303	305	309	310	311	309	307	305	304	304	304	303	303	303	303	303	303	302	300	299	298	298	298	299	300	300	299	298	298	298	298	299	300	302	304	303	302	302	302	303	305	305	304	300	298	295	293	289	286	283	283	282	281	281	281	280	279	279	280	282	283	285	285	287	287	286	283	282	281	280	278	275	273	273	274	275	276	278	279	278	279	281	283	286	289	292	295	296	295	293	292	291	289	288	288	289	291	291	290	287	285	283	280	278	276	273	271	268	264	261	258	256	253	251	249	246	243	241	239	237	235	233	233	233	234	234	234	233	232	231	230	229	228	227	225	224	223	222	221	220	219	218	217	215	214	213	212	210	208	206	203	201	199	196	193	191	188	185	183	181	178	176	174	172	170	167	165	162	160	158	157	156	154	153	151	151	151	149	148	148	149	150	151	151	152	153	154	155	155	155	154	152	152	151	151	150	149	148	147	147	147	147	146	146	145	145	144	143	142	142	142	142	141	141	140	138	136	134	132	130	128	126	124	121	119	117	115	114	113	112	111	109	109	109	108	108	108	108	107	106	104	103	101	100	100	99	99	98	97	97	96	94	94	95	96	96	96	96	95	94	93	92	91	91	90	91	92	94	97	99	100	100	102	103	103	102	102	102	101	101	100	99	98	96	96	95	95	94	92	91	90	91	93	95	97	99	101	102	102	103	102	101	100	98	96	95	96	97	97	98	99	101	101	100	97	90	83	76	71	66	61	57	55	55	56	56	57	59	60	61	61	62	63	64	66	69	72	73	71	68	66	67	68	68	66	64	61	58	56	53	50	47	44	44	47	51	53	55	56	58	58	58	54	50	46	36	31	22	17	16	14	10	6	4	2	1	0	0	0	0	0	0	0	0	0	0	0	0	0	0	0	0	0	0	0	0	0	0	0	0	0	0	0	0	0	0	0	0	0	0	0	0	0	0	0	0	0	0	0	0	0	0	0	0	0	0	0	0	0	0	0	0	0	0	0	0	0	0	0	0	0	0	0	0	0	0	0	0	0	0	0	0	0	0	0	0	0	0	0	0	0	0	0	0	0	0	0	0	0	0	0	0	0	0	0	0	0	0	0	0	0	0	0	0	0	0	0	0	0	0	0	0	0	0	0	0	0	0	0	0	0	0	0	0	0	0	0	0	0	0	0	0	0	0	0	0	0	0	0	0	0	0	0	0	0	0	0	0	0	0	0	0	0	0	0	0	0	0	0	0	0	0	0	0	0	0	0	0	0	0	0	0	0	0
73	73	75	76	77	77	77	76	76	76	76	77	77	76	76	76	76	76	75	75	76	77	79	81	83	86	88	90	92	95	97	98	100	102	104	106	109	110	112	112	112	112	111	110	109	107	106	106	106	107	107	109	110	112	114	116	117	119	120	122	123	123	124	124	124	124	125	126	127	128	129	130	130	131	130	129	130	130	129	129	130	130	130	130	132	133	134	135	135	135	134	132	131	129	129	128	128	127	126	125	124	123	124	125	126	129	131	133	134	133	132	132	133	134	135	134	134	134	135	136	137	138	138	138	138	139	139	138	140	144	146	147	149	151	153	154	154	155	155	156	157	159	159	160	161	162	163	164	165	166	167	168	169	172	174	176	177	179	180	181	182	182	182	181	180	179	177	175	172	170	166	163	160	156	153	149	147	144	142	140	137	135	134	131	129	125	122	119	116	113	110	108	105	102	99	96	94	91	89	87	85	83	80	78	75	73	72	72	71	72	72	73	73	73	74	74	75	76	77	79	80	80	81	83	87	90	92	95	97	99	101	103	103	103	102	100	99	100	101	102	103	105	108	111	112	114	115	115	116	117	118	119	121	122	123	124	126	128	130	132	135	138	140	143	145	148	149	152	154	156	158	160	162	163	165	167	169	171	172	174	175	176	176	177	179	181	184	185	187	189	191	191	191	191	191	192	194	197	200	202	204	205	206	208	210	213	215	217	219	221	223	226	228	232	234	236	238	241	244	247	249	252	254	256	257	259	262	266	271	276	280	284	288	293	296	300	304	308	313	318	324	329	333	336	341	348	352	354	355	358	360	361	362	363	365	369	374	378	383	388	389	389	389	388	388	387	385	384	382	381	383	385	386	386	386	386	386	386	386	388	390	392	393	392	390	389	386	382	379	375	371	368	364	360	356	354	351	349	347	345	343	342	342	343	343	343	340	336	333	331	328	325	322	320	317	316	314	311	308	306	305	306	306	305	304	303	303	303	304	305	307	307	306	305	302	298	294	291	290	290	291	292	293	294	296	298	300	302	305	307	307	306	304	302	300	300	300	299	299	299	299	298	298	298	297	296	295	295	295	296	297	297	295	294	294	294	295	295	297	298	299	299	299	299	299	300	302	302	300	298	296	293	291	288	283	279	278	277	277	277	277	276	275	275	277	278	280	281	282	283	284	283	280	278	278	277	276	273	271	272	272	273	274	274	274	274	275	278	280	283	286	289	291	292	291	290	288	287	286	285	285	286	287	288	288	286	284	282	280	277	275	272	270	267	264	260	257	255	252	249	247	245	243	241	239	236	235	234	234	236	236	237	236	235	234	233	231	230	229	228	226	225	224	222	221	220	219	217	216	214	213	211	210	208	206	204	201	199	197	194	192	189	186	184	182	179	177	175	173	171	169	166	164	162	161	161	161	160	159	157	156	154	154	152	151	151	151	152	152	153	154	156	157	157	157	157	156	154	153	152	152	151	150	149	148	148	148	147	147	146	146	145	144	143	143	143	142	142	141	140	139	138	136	134	132	130	129	127	124	122	119	116	114	112	111	109	107	107	106	106	106	106	106	107	106	105	104	102	101	101	101	101	101	100	99	98	97	96	96	97	98	99	99	98	97	96	95	93	92	91	90	89	90	91	93	96	97	98	99	100	100	100	99	99	99	98	98	96	95	94	93	94	94	94	93	93	93	93	95	97	99	101	103	104	105	105	105	103	102	100	99	99	100	100	101	101	103	105	105	103	101	95	86	79	73	67	62	60	59	59	60	61	62	64	66	66	67	68	69	71	72	74	76	76	73	70	69	70	71	71	69	66	63	61	58	55	52	50	48	49	51	54	56	58	59	60	61	60	57	54	50	45	41	36	29	24	19	15	9	4	1	1	0	0	0	0	0	0	0	0	0	0	0	0	0	0	0	0	0	0	0	0	0	0	0	0	0	0	0	0	0	0	0	0	0	0	0	0	0	0	0	0	0	0	0	0	0	0	0	0	0	0	0	0	0	0	0	0	0	0	0	0	0	0	0	0	0	0	0	0	0	0	0	0	0	0	0	0	0	0	0	0	0	0	0	0	0	0	0	0	0	0	0	0	0	0	0	0	0	0	0	0	0	0	0	0	0	0	0	0	0	0	0	0	0	0	0	0	0	0	0	0	0	0	0	0	0	0	0	0	0	0	0	0	0	0	0	0	0	0	0	0	0	0	0	0	0	0	0	0	0	0	0	0	0	0	0	0	0	0	0	0	0	0	0	0	0	0	0	0	0	0	0	0	0	0	0	0	0	0
73	73	75	75	75	75	75	74	75	75	75	76	75	75	75	75	75	74	74	74	76	78	80	82	85	88	89	91	94	96	98	100	102	103	105	107	110	111	113	113	114	114	113	112	111	108	107	106	106	107	109	110	112	114	116	117	119	120	122	123	124	125	126	126	126	126	127	128	129	130	131	132	133	133	133	132	133	133	132	132	132	132	132	133	134	135	136	137	137	137	136	134	133	131	131	131	130	128	127	126	126	125	125	125	126	128	131	133	134	134	133	132	133	134	134	134	134	135	136	137	138	139	139	139	139	139	139	140	141	144	145	147	149	151	153	153	154	154	155	156	157	158	159	160	161	161	162	163	164	165	166	167	169	171	173	175	176	178	179	180	181	182	182	182	181	179	177	175	173	170	167	163	160	156	153	150	147	145	142	140	138	136	134	132	129	126	123	120	116	114	111	108	105	103	100	98	95	93	90	88	86	84	81	79	76	74	72	71	71	71	72	73	73	73	74	74	75	75	76	78	79	79	80	82	86	89	92	95	97	98	100	101	101	101	99	98	97	99	100	101	103	106	109	111	112	114	115	116	116	117	118	118	120	121	122	124	125	127	130	132	135	138	140	143	145	148	149	151	153	156	158	160	162	163	165	167	169	171	172	174	174	175	174	174	177	180	182	184	185	187	189	189	188	188	188	190	192	194	196	199	200	202	203	205	208	210	213	215	217	219	222	224	227	229	232	234	237	239	242	245	248	250	252	252	254	258	262	268	273	277	281	285	288	292	296	299	302	307	313	318	324	330	334	339	346	350	350	349	350	352	354	355	357	358	359	366	371	375	378	381	383	383	382	382	382	382	381	379	377	375	376	379	381	382	381	381	381	381	382	383	386	388	389	389	388	386	384	381	378	375	371	368	364	360	356	352	349	347	344	342	340	341	342	343	344	344	342	336	330	327	324	321	318	315	313	312	310	308	305	304	302	302	303	302	300	299	299	299	300	302	304	304	304	302	300	296	292	289	287	287	288	289	290	291	293	295	297	298	300	302	303	302	301	298	296	295	296	296	296	296	295	294	294	294	293	292	291	291	292	293	294	293	291	289	289	290	291	291	292	293	295	295	296	296	297	297	298	298	297	295	293	291	289	286	281	277	275	274	274	274	274	273	272	272	274	276	276	277	279	280	281	280	278	275	273	273	272	270	269	270	271	270	269	269	269	270	272	275	277	280	282	284	286	286	286	285	284	283	282	281	281	282	284	285	285	285	283	281	278	276	273	270	268	265	262	259	257	254	251	248	246	244	243	241	240	237	236	236	237	238	238	238	238	237	235	234	232	231	230	228	226	225	223	221	220	219	218	216	215	213	212	210	208	206	204	201	199	196	194	192	190	187	185	182	180	178	176	174	172	170	168	167	165	164	164	165	165	164	162	160	159	158	157	156	154	154	154	154	154	155	157	158	159	160	160	159	158	157	155	154	153	152	151	150	149	149	148	148	147	147	146	145	144	143	143	142	142	141	140	139	139	138	136	134	132	130	129	127	125	122	120	117	114	112	110	108	107	107	107	107	106	105	105	105	105	105	104	103	102	102	102	102	102	101	101	101	100	99	99	99	101	101	101	100	100	98	97	95	94	92	91	89	89	89	90	92	94	96	97	97	97	97	97	96	96	95	94	93	92	91	91	91	92	93	93	94	94	95	97	98	100	102	104	105	106	107	107	106	104	103	102	102	103	104	105	105	106	108	109	107	105	101	91	83	75	70	66	63	62	63	64	65	67	69	72	72	73	74	76	77	80	80	80	78	74	72	73	74	74	73	71	69	67	64	60	57	54	52	50	51	54	57	59	61	63	63	63	62	60	57	54	49	46	41	36	30	24	18	13	5	2	1	0	0	1	1	0	0	0	0	0	0	0	0	0	0	0	0	0	0	0	0	0	0	0	0	0	0	0	0	0	0	0	0	0	0	0	0	0	0	0	0	0	0	0	0	0	0	0	0	0	0	0	0	0	0	0	0	0	0	0	0	0	0	0	0	0	0	0	0	0	0	0	0	0	0	0	0	0	0	0	0	0	0	0	0	0	0	0	0	0	0	0	0	0	0	0	0	0	0	0	0	0	0	0	0	0	0	0	0	0	0	0	0	0	0	0	0	0	0	0	0	0	0	0	0	0	0	0	0	0	0	0	0	0	0	0	0	0	0	0	0	0	0	0	0	0	0	0	0	0	0	0	0	0	0	0	0	0	0	0	0	0	0	0	0	0	0	0	0	0	0	0	0	0	0	0	0	0	0
71	72	73	72	72	72	72	72	73	73	74	74	73	74	74	74	74	74	74	75	77	80	82	85	87	90	91	93	95	98	100	102	103	105	106	108	110	112	114	115	115	115	115	114	112	110	108	108	108	109	111	113	114	115	117	119	120	122	123	124	126	127	127	128	128	128	129	130	131	132	134	135	135	136	136	135	135	136	135	135	135	135	135	135	136	137	138	139	139	139	138	137	135	134	134	133	132	130	129	128	127	126	126	126	126	128	131	133	134	135	134	134	134	134	135	135	136	137	138	138	139	139	140	140	140	140	140	141	142	144	145	148	150	151	152	153	154	154	155	156	157	158	159	159	160	161	162	163	164	165	166	167	168	170	172	173	175	176	178	180	181	182	182	182	181	179	178	175	172	170	167	163	160	157	154	151	148	146	143	141	139	137	134	132	129	126	123	120	117	114	112	109	106	104	101	98	96	94	91	89	87	84	82	79	77	74	72	71	70	71	72	72	72	73	74	74	75	75	76	77	78	78	79	82	85	88	91	93	96	97	98	99	100	99	97	96	96	97	99	100	103	106	109	111	112	113	114	115	116	116	117	118	118	120	121	123	125	127	129	132	135	137	139	142	144	147	149	151	153	155	157	159	161	163	165	167	169	170	172	172	173	172	171	172	174	177	180	182	184	186	187	187	186	185	186	188	190	191	193	195	197	199	200	203	206	208	210	212	215	217	220	222	225	228	230	233	235	238	241	243	245	248	249	250	254	258	263	268	273	277	280	283	286	290	294	297	301	306	312	318	325	330	335	341	346	347	347	346	346	346	346	347	352	356	359	365	369	372	374	375	376	376	376	376	376	376	376	375	373	372	371	372	374	376	375	374	374	375	376	379	381	383	384	384	384	382	380	378	376	373	370	367	364	359	355	351	348	345	342	339	337	338	341	343	345	345	344	338	330	322	319	317	314	311	309	307	305	303	302	301	299	299	299	299	297	296	295	296	297	299	300	301	300	300	297	294	290	286	284	283	284	286	287	288	290	293	295	295	297	298	299	298	297	295	292	291	293	293	293	293	292	291	290	290	289	288	288	288	289	290	291	290	287	285	285	286	287	287	287	288	290	291	292	292	294	295	295	295	294	292	290	288	285	283	280	276	273	271	271	271	271	270	269	270	271	272	273	274	275	277	277	277	276	272	269	268	268	267	267	268	268	266	265	265	265	267	269	272	275	277	278	279	281	282	282	281	280	279	278	278	278	279	281	283	283	283	282	280	277	275	272	269	267	264	261	258	256	253	250	248	246	245	244	242	241	239	237	237	239	239	240	239	239	237	235	234	232	231	229	228	226	224	222	220	219	218	216	214	213	212	210	208	206	204	202	199	197	195	193	190	188	185	183	180	178	176	175	174	172	170	169	168	166	166	167	168	168	168	166	164	162	161	160	159	157	157	157	156	156	158	159	160	161	162	162	161	160	159	157	156	154	153	152	151	151	150	149	148	147	146	146	145	144	143	142	141	140	140	139	138	137	137	135	133	132	130	129	127	125	123	120	117	115	113	111	109	109	109	109	109	108	107	106	105	105	105	105	104	104	104	103	102	102	102	102	102	102	101	101	102	102	102	103	103	102	100	99	97	96	95	93	91	89	89	89	90	92	94	95	95	95	95	94	93	92	92	91	91	90	89	88	88	89	90	92	93	94	96	97	99	101	103	104	106	107	108	108	108	107	106	106	106	107	109	109	110	111	112	112	111	109	106	97	87	78	73	70	67	66	67	68	70	72	75	77	79	81	82	83	84	85	84	81	78	76	76	76	77	77	75	73	71	69	66	62	58	56	54	54	55	57	60	63	65	66	67	66	64	62	59	57	53	49	44	39	34	28	21	15	8	3	0	-1	1	2	2	1	0	0	0	0	0	0	0	0	0	0	0	0	0	0	0	0	0	0	0	0	0	0	0	0	0	0	0	0	0	0	0	0	0	0	0	0	0	0	0	0	0	0	0	0	0	0	0	0	0	0	0	0	0	0	0	0	0	0	0	0	0	0	0	0	0	0	0	0	0	0	0	0	0	0	0	0	0	0	0	0	0	0	0	0	0	0	0	0	0	0	0	0	0	0	0	0	0	0	0	0	0	0	0	0	0	0	0	0	0	0	0	0	0	0	0	0	0	0	0	0	0	0	0	0	0	0	0	0	0	0	0	0	0	0	0	0	0	0	0	0	0	0	0	0	0	0	0	0	0	0	0	0	0	0	0	0	0	0	0	0	0	0	0	0	0	0	0	0	0	0	0	0	0
70	70	70	70	71	71	71	71	72	73	73	73	73	73	74	74	74	74	75	77	79	82	84	86	89	91	93	95	96	98	101	103	105	106	108	110	111	113	115	116	116	117	116	115	113	111	110	110	110	110	112	114	116	117	119	120	122	123	125	126	127	128	129	129	130	131	131	132	133	134	136	137	138	138	138	138	138	138	137	137	137	138	138	138	138	139	140	141	141	141	140	139	137	136	136	135	134	132	130	129	128	128	127	127	127	128	131	133	135	135	135	135	134	133	135	137	138	139	139	139	139	139	140	140	140	140	141	142	143	144	146	148	150	151	152	153	154	155	155	156	157	158	158	159	159	160	161	163	164	165	165	167	168	170	171	173	174	176	178	179	181	182	182	182	181	180	178	175	172	170	167	164	160	158	154	151	149	146	144	141	139	137	135	132	129	126	123	121	118	115	113	110	107	104	102	99	97	94	92	90	88	85	82	79	77	74	72	70	70	70	71	72	72	72	73	74	75	75	76	76	77	78	78	80	83	86	89	92	94	95	96	97	98	96	95	95	95	96	98	100	103	106	108	110	111	112	113	114	114	115	116	117	118	119	121	123	124	126	129	131	133	136	138	140	142	145	147	149	152	154	156	158	160	161	164	167	169	169	170	171	171	170	169	169	172	175	177	180	182	184	184	184	183	183	184	185	187	188	190	192	194	196	198	201	204	207	208	211	213	215	218	220	223	226	229	232	234	237	240	241	243	244	245	249	254	259	263	267	272	276	278	280	283	287	292	296	300	305	310	317	324	330	336	341	344	343	343	343	342	341	340	342	347	352	356	362	365	368	370	371	371	370	370	370	371	372	372	371	370	368	366	364	366	368	368	369	369	370	372	374	375	376	377	377	377	376	375	374	372	369	367	365	362	359	355	351	347	343	340	337	336	337	340	343	345	346	345	339	330	321	316	313	310	308	305	302	301	299	298	298	296	295	295	295	294	292	292	293	294	295	296	297	297	296	295	292	288	284	281	280	281	282	283	286	289	291	293	293	294	294	295	295	293	291	288	288	290	291	291	291	290	288	288	287	286	286	285	286	286	287	287	286	284	281	281	282	283	283	283	284	285	287	288	289	290	292	293	292	291	289	287	284	282	279	277	275	271	269	268	268	268	267	266	266	268	269	269	271	272	273	274	274	273	270	266	265	264	264	264	265	265	263	262	261	262	264	267	270	273	275	275	276	278	279	278	277	276	276	275	275	276	277	279	281	282	282	282	280	278	275	273	270	267	263	260	258	255	253	251	249	248	247	246	244	242	240	239	239	240	240	240	239	238	237	235	233	231	230	228	226	224	222	221	219	218	216	214	212	211	210	208	206	204	202	200	198	195	193	191	189	186	183	181	179	177	176	176	175	173	171	170	169	169	169	170	171	171	170	169	167	166	164	163	162	160	159	159	158	159	160	162	163	163	164	164	163	162	160	159	157	156	155	154	153	152	151	149	149	148	146	145	144	143	142	141	140	139	138	138	137	136	135	134	133	131	130	129	127	124	122	120	117	115	114	112	111	111	111	111	111	111	110	108	108	107	107	106	106	105	105	105	104	103	103	103	103	103	103	103	103	104	104	105	104	103	102	101	99	98	97	97	94	90	89	88	88	89	91	92	92	92	92	92	90	89	89	89	89	89	87	85	85	86	88	90	91	93	95	97	100	102	104	106	107	108	109	110	110	110	110	109	109	111	113	114	114	115	115	115	114	113	111	103	92	84	77	74	72	71	72	73	75	77	80	82	85	88	89	88	88	87	85	81	79	78	79	79	80	79	77	76	73	70	67	63	61	58	57	57	58	60	63	66	68	69	69	69	67	64	62	59	56	52	46	40	34	30	24	15	9	4	0	0	2	4	3	2	0	0	0	0	0	0	0	0	0	0	0	0	0	0	0	0	0	0	0	0	0	0	0	0	0	0	0	0	0	0	0	0	0	0	0	0	0	0	0	0	0	0	0	0	0	0	0	0	0	0	0	0	0	0	0	0	0	0	0	0	0	0	0	0	0	0	0	0	0	0	0	0	0	0	0	0	0	0	0	0	0	0	0	0	0	0	0	0	0	0	0	0	0	0	0	0	0	0	0	0	0	0	0	0	0	0	0	0	0	0	0	0	0	0	0	0	0	0	0	0	0	0	0	0	0	0	0	0	0	0	0	0	0	0	0	0	0	0	0	0	0	0	0	0	0	0	0	0	0	0	0	0	0	0	0	0	0	0	0	0	0	0	0	0	0	0	0	0	0	0	0	0	0
69	70	70	70	70	70	71	71	72	72	72	72	72	73	73	73	74	76	78	80	82	83	85	87	90	92	94	96	97	99	101	103	105	107	109	111	113	114	116	117	118	118	117	116	114	112	112	112	112	112	113	115	117	119	120	121	123	124	126	127	128	129	130	131	132	133	133	134	135	136	137	139	140	140	141	140	140	139	139	139	140	140	140	140	140	141	142	143	144	143	142	141	140	139	138	136	135	133	131	130	130	129	129	128	128	129	131	134	136	136	136	135	134	133	135	138	140	140	139	139	140	140	140	140	140	141	142	143	144	145	146	148	150	151	152	153	154	155	156	156	157	157	158	158	158	159	160	162	164	165	165	167	169	170	171	173	174	176	178	180	181	182	183	182	181	180	178	176	173	170	167	164	161	158	155	152	149	147	144	141	139	137	135	133	130	127	124	121	119	116	114	111	108	105	102	100	97	95	92	90	88	85	82	79	76	74	72	70	69	68	68	70	71	72	73	74	75	75	76	76	77	78	78	79	81	83	86	89	91	92	94	95	95	94	93	93	94	95	97	100	102	105	107	108	110	111	112	112	113	114	115	116	117	118	120	122	123	125	127	129	131	134	136	137	139	142	145	147	150	153	155	157	158	160	162	165	167	168	168	169	168	167	166	167	169	173	175	178	181	182	182	181	180	181	182	183	184	186	188	191	193	195	197	199	202	204	207	209	212	214	217	219	222	225	228	231	233	235	238	240	241	242	244	249	254	258	262	265	269	273	275	278	282	287	291	295	299	304	309	316	323	330	337	341	342	340	339	339	339	338	337	338	342	347	352	357	360	362	364	366	367	366	365	366	368	368	368	368	367	365	363	361	360	362	363	364	365	366	367	369	369	370	371	371	370	370	371	371	368	366	364	362	360	357	354	351	347	342	339	336	335	336	339	343	345	346	345	338	329	321	315	312	308	305	302	300	298	296	295	293	292	291	291	290	289	287	287	289	290	292	292	293	293	293	291	288	285	281	278	277	278	279	280	283	287	289	290	290	291	291	291	291	289	287	285	285	287	288	289	288	288	286	285	285	284	283	283	283	284	285	285	284	280	277	277	278	279	279	279	280	281	282	283	286	288	290	290	289	288	286	284	281	278	275	274	272	270	267	266	266	266	265	264	263	264	265	266	268	269	269	270	271	271	268	265	262	260	260	260	262	262	260	258	257	258	261	264	267	270	271	272	273	274	275	275	274	273	273	273	273	274	276	279	280	281	282	282	281	279	277	275	271	267	263	260	258	257	256	254	252	251	249	247	245	244	242	241	241	241	241	240	239	237	235	233	231	229	227	225	223	222	221	220	218	216	214	212	211	209	208	206	204	202	200	198	196	193	191	189	187	185	183	181	179	177	176	176	175	173	172	172	171	171	172	174	174	173	172	171	170	169	168	167	164	162	161	161	161	161	163	164	165	166	166	166	165	164	162	160	159	157	156	154	153	152	151	150	149	147	146	145	143	142	141	140	139	138	137	136	135	134	133	133	132	131	130	128	126	124	121	119	117	115	115	114	113	113	113	113	113	113	112	111	110	109	108	107	106	106	106	106	105	105	104	105	105	105	105	104	105	105	106	106	105	104	103	102	100	99	99	99	97	92	89	87	86	86	88	89	89	89	89	89	87	85	85	85	86	87	85	82	82	83	85	87	89	91	94	96	100	102	104	106	108	109	111	111	112	112	112	112	113	114	115	117	118	119	118	118	117	116	114	107	97	91	85	79	76	76	78	79	80	82	84	87	90	92	91	90	89	87	85	81	79	79	81	82	82	81	80	78	75	72	69	66	63	61	60	60	61	63	65	68	71	72	72	71	69	67	64	61	58	54	49	41	35	31	25	14	7	3	1	3	5	6	5	3	1	0	0	0	0	0	0	0	0	0	0	0	0	0	0	0	0	0	0	0	0	0	0	0	0	0	0	0	0	0	0	0	0	0	0	0	0	0	0	0	0	0	0	0	0	0	0	0	0	0	0	0	0	0	0	0	0	0	0	0	0	0	0	0	0	0	0	0	0	0	0	0	0	0	0	0	0	0	0	0	0	0	0	0	0	0	0	0	0	0	0	0	0	0	0	0	0	0	0	0	0	0	0	0	0	0	0	0	0	0	0	0	0	0	0	0	0	0	0	0	0	0	0	0	0	0	0	0	0	0	0	0	0	0	0	0	0	0	0	0	0	0	0	0	0	0	0	0	0	0	0	0	0	0	0	0	0	0	0	0	0	0	0	0	0	0	0	0	0	0	0	0	0
68	69	69	69	70	70	71	73	74	73	72	72	73	72	73	74	77	79	81	83	85	86	87	88	90	92	95	97	99	101	102	104	106	108	110	112	114	116	117	118	119	119	119	117	115	114	113	113	114	114	115	116	119	121	122	123	124	125	127	129	130	131	132	132	134	135	136	136	137	138	139	140	141	142	142	142	142	141	141	141	141	142	143	143	143	144	145	145	146	145	144	143	142	141	140	138	136	135	133	132	131	131	130	129	129	130	131	134	136	137	137	137	135	134	135	137	139	140	139	140	141	142	141	141	141	142	143	144	145	146	148	149	150	151	153	154	155	155	156	156	157	157	158	158	159	159	160	162	164	164	166	168	170	171	172	174	175	177	179	180	182	183	183	182	181	180	178	176	173	170	167	164	161	158	155	152	149	147	144	142	140	138	136	133	130	128	125	122	119	117	114	111	108	106	103	101	98	96	93	90	87	84	81	79	76	74	72	71	69	67	67	68	70	71	72	74	74	75	76	76	77	77	78	78	79	81	83	85	87	89	90	91	91	91	91	92	93	95	97	100	102	104	105	107	108	109	110	111	112	113	114	115	116	117	118	120	121	123	125	127	129	131	133	135	137	139	142	145	148	151	153	156	157	159	160	163	165	165	165	166	166	164	163	164	167	170	174	176	179	179	179	178	178	178	179	180	182	184	187	189	191	194	196	198	201	203	206	208	211	213	216	219	221	224	228	230	232	234	235	238	240	242	245	249	254	257	260	263	267	270	274	278	283	288	292	297	301	305	310	316	323	330	337	340	339	338	336	335	335	334	333	332	335	341	347	352	355	357	358	360	361	361	360	362	363	363	363	363	363	362	360	359	358	358	359	360	361	363	363	364	364	364	365	366	365	365	366	365	363	361	360	359	357	355	353	349	345	341	337	335	334	336	339	343	345	346	344	338	330	323	316	312	307	303	299	297	295	292	290	289	288	286	286	285	284	283	283	283	285	288	289	290	290	289	288	285	282	278	275	274	275	276	278	281	284	287	287	287	287	288	287	286	285	284	283	282	284	285	285	285	285	283	283	282	281	279	279	280	281	283	283	281	277	273	272	274	275	275	275	276	277	278	279	283	285	287	288	286	285	283	280	278	276	273	271	270	268	265	264	264	264	262	261	260	261	263	264	266	267	265	265	267	267	266	264	260	257	256	257	258	258	257	255	254	255	257	261	264	266	267	267	268	270	271	271	270	269	269	269	270	273	275	277	279	280	282	282	282	280	278	275	272	268	264	261	260	259	258	256	254	252	250	249	247	246	244	243	242	241	240	239	237	235	234	232	229	226	224	222	220	219	219	218	216	214	213	212	210	209	207	205	203	201	199	197	195	192	190	188	186	185	184	182	180	179	178	177	176	175	174	173	173	174	175	177	177	176	175	174	173	172	171	170	167	165	163	163	163	164	165	167	168	168	169	168	167	165	164	162	160	158	157	155	154	153	152	150	149	147	146	144	143	141	140	139	138	137	137	136	135	133	133	132	131	130	129	127	125	123	121	120	118	117	116	115	115	115	115	115	115	114	114	113	111	110	109	108	107	107	107	107	106	106	106	106	106	106	106	105	106	106	106	107	106	105	104	103	101	100	100	100	98	94	90	88	86	86	86	86	86	86	86	85	84	82	82	82	84	84	82	79	79	80	83	85	88	90	93	96	99	102	104	107	108	110	112	113	113	114	114	115	115	116	117	119	120	121	121	121	120	119	118	112	103	97	92	86	82	82	83	85	86	87	88	90	92	93	92	90	89	87	85	82	80	82	83	84	84	83	81	79	77	74	72	69	67	64	63	63	63	65	68	71	74	75	75	74	72	69	66	63	60	56	50	42	36	29	19	9	4	2	3	5	7	6	5	3	1	0	0	0	0	0	0	0	0	0	0	0	0	0	0	0	0	0	0	0	0	0	0	0	0	0	0	0	0	0	0	0	0	0	0	0	0	0	0	0	0	0	0	0	0	0	0	0	0	0	0	0	0	0	0	0	0	0	0	0	0	0	0	0	0	0	0	0	0	0	0	0	0	0	0	0	0	0	0	0	0	0	0	0	0	0	0	0	0	0	0	0	0	0	0	0	0	0	0	0	0	0	0	0	0	0	0	0	0	0	0	0	0	0	0	0	0	0	0	0	0	0	0	0	0	0	0	0	0	0	0	0	0	0	0	0	0	0	0	0	0	0	0	0	0	0	0	0	0	0	0	0	0	0	0	0	0	0	0	0	0	0	0	0	0	0	0	0	0	0	0	0	0
67	68	69	70	70	70	70	73	74	73	72	73	73	74	75	77	80	82	83	85	88	89	90	91	91	93	96	98	101	103	104	106	108	109	111	113	115	117	118	119	120	120	119	118	117	115	114	115	115	116	117	119	121	123	124	125	126	127	128	130	131	132	133	134	135	137	138	138	139	140	140	141	143	144	144	144	144	143	142	142	143	144	145	145	145	146	147	147	147	147	146	145	145	144	142	140	138	136	135	134	133	133	132	131	131	131	132	134	135	137	138	137	136	135	135	136	138	140	140	141	143	144	143	142	142	143	144	145	145	147	148	150	151	151	153	154	155	155	156	156	157	157	158	159	160	160	161	162	163	164	166	168	170	172	173	175	176	178	180	181	183	183	183	183	181	180	177	175	173	170	167	164	161	158	155	152	149	147	144	142	140	138	136	133	131	128	125	122	120	117	115	112	109	107	104	102	99	96	93	89	86	83	81	78	76	74	73	71	70	68	66	67	69	70	72	73	74	75	75	76	76	77	78	79	79	80	81	82	84	85	86	86	86	87	90	92	94	96	98	100	102	103	104	105	106	107	108	109	111	112	113	114	115	116	117	118	120	122	124	126	127	130	131	134	136	138	141	144	146	149	152	155	156	157	159	161	162	163	162	162	163	162	161	162	165	169	172	175	176	176	176	175	175	176	177	179	181	183	185	188	191	193	195	198	200	202	205	207	210	212	215	218	221	223	226	228	230	232	234	237	240	243	246	249	253	256	258	262	265	269	273	278	283	288	293	298	302	307	311	318	324	330	335	338	337	335	333	331	330	330	330	329	331	336	342	346	349	352	354	354	355	355	355	356	357	358	359	359	359	358	357	356	356	356	357	357	357	359	360	360	360	359	359	360	360	360	360	358	357	357	357	356	354	352	349	346	342	338	334	332	333	335	339	343	345	346	344	338	332	325	319	313	308	303	297	294	291	289	287	285	284	283	282	281	281	280	279	279	281	283	285	285	286	286	285	283	279	275	273	272	273	274	277	279	282	284	284	284	284	284	283	282	281	280	280	279	280	281	282	282	282	280	279	279	277	276	276	277	279	280	281	279	275	271	269	269	270	271	271	271	272	273	276	279	282	283	284	283	282	279	277	275	273	271	269	267	266	264	262	262	261	259	258	258	259	261	263	265	264	262	261	263	265	264	262	258	254	253	254	255	255	254	252	251	252	255	258	261	262	263	263	264	266	266	266	265	265	266	267	269	272	274	275	277	279	281	282	282	280	278	275	272	269	266	264	262	262	260	258	255	253	252	250	249	248	246	244	243	241	239	237	235	234	232	229	227	224	222	220	218	217	216	215	214	213	212	211	210	208	207	205	202	200	198	196	194	192	190	188	187	186	185	184	182	181	180	179	178	176	175	175	175	177	178	179	180	179	178	177	176	175	174	172	170	168	166	166	166	167	168	169	170	171	171	170	169	167	165	164	162	160	158	156	155	154	153	151	149	147	146	144	142	141	141	140	139	137	137	136	134	133	133	132	131	130	128	127	125	124	122	120	119	118	118	117	116	116	117	117	117	116	115	114	112	111	109	109	108	108	108	108	107	107	107	108	108	108	107	106	106	107	107	107	107	106	105	104	102	101	101	101	100	96	93	90	88	87	85	84	83	82	81	80	79	78	78	79	81	80	76	75	76	79	82	85	87	90	93	96	99	101	104	106	108	110	111	112	113	114	115	116	117	118	119	120	121	121	121	121	121	121	120	118	111	104	97	92	88	87	87	89	92	94	93	93	93	93	92	90	88	86	84	83	83	84	85	86	86	85	83	80	78	77	74	72	69	67	66	65	66	68	70	74	76	77	77	76	74	71	68	65	62	56	49	42	32	21	12	5	2	3	5	7	8	6	5	3	2	0	0	0	0	0	0	0	0	0	0	0	0	0	0	0	0	0	0	0	0	0	0	0	0	0	0	0	0	0	0	0	0	0	0	0	0	0	0	0	0	0	0	0	0	0	0	0	0	0	0	0	0	0	0	0	0	0	0	0	0	0	0	0	0	0	0	0	0	0	0	0	0	0	0	0	0	0	0	0	0	0	0	0	0	0	0	0	0	0	0	0	0	0	0	0	0	0	0	0	0	0	0	0	0	0	0	0	0	0	0	0	0	0	0	0	0	0	0	0	0	0	0	0	0	0	0	0	0	0	0	0	0	0	0	0	0	0	0	0	0	0	0	0	0	0	0	0	0	0	0	0	0	0	0	0	0	0	0	0	0	0	0	0	0	0	0	0	0	0	0	0	0
67	68	69	70	71	69	69	71	72	72	72	74	75	76	77	79	82	85	86	88	90	92	93	94	94	95	97	99	102	104	105	107	109	110	112	114	117	119	120	121	121	121	120	119	117	116	116	116	117	118	119	121	123	125	126	127	128	128	129	131	131	132	134	135	137	138	139	140	141	141	142	144	144	145	146	146	145	145	144	143	144	145	146	147	148	148	149	149	149	149	148	148	147	146	144	142	140	138	137	136	136	135	133	133	132	132	133	134	136	137	138	138	138	137	137	137	139	141	142	143	145	145	143	142	143	144	144	145	146	148	149	150	151	152	153	154	155	155	156	156	157	158	158	159	160	161	161	162	162	164	166	168	171	173	174	176	178	179	181	182	183	184	184	183	182	179	177	175	173	170	167	164	161	158	155	152	150	147	145	143	141	139	136	134	131	129	126	123	120	118	115	113	111	108	106	103	100	96	93	89	86	83	81	78	76	75	73	72	69	67	66	67	68	69	70	72	73	74	75	76	76	77	78	79	79	80	81	82	82	83	84	84	84	87	90	92	94	96	98	99	101	102	104	104	105	106	107	108	110	111	111	112	113	115	116	117	120	122	124	126	128	130	132	134	137	139	141	144	146	149	152	155	156	157	157	159	160	160	159	159	160	159	159	161	164	167	171	172	173	173	173	172	173	174	176	178	180	182	185	187	190	192	194	197	199	202	205	207	209	212	215	217	219	221	223	226	229	231	235	238	241	244	247	250	253	255	258	262	265	269	273	278	283	288	293	299	304	308	313	320	325	330	335	336	335	332	329	326	325	325	326	328	329	333	337	341	344	347	349	349	350	349	348	349	351	353	354	354	354	353	352	352	352	353	353	353	353	355	356	357	356	356	356	356	356	356	356	354	353	354	354	353	350	348	345	342	338	334	330	330	331	335	340	343	345	346	344	339	335	328	321	315	310	303	296	292	289	286	283	282	280	279	279	279	279	278	276	275	277	279	280	281	282	283	282	280	276	272	270	270	271	272	276	278	279	281	280	280	279	278	278	278	278	278	276	275	275	277	278	279	279	278	277	276	274	273	272	274	276	277	277	276	274	270	267	265	265	266	267	267	268	270	273	276	278	280	281	281	279	276	274	271	269	267	266	264	263	262	260	260	258	256	255	255	256	259	262	263	261	258	257	259	261	261	259	256	252	251	252	252	253	252	250	248	249	251	254	256	258	258	259	260	261	262	261	261	262	263	265	268	271	272	272	274	277	280	280	280	279	277	276	273	270	268	267	265	264	261	259	256	255	253	252	251	250	248	245	242	239	236	235	233	231	229	228	226	224	222	220	218	216	215	214	212	211	211	210	209	208	207	205	202	200	198	195	194	192	191	189	188	188	187	186	185	184	183	181	179	177	176	176	178	180	181	182	182	182	180	179	178	178	176	175	173	170	169	168	169	170	171	173	173	174	173	172	171	169	167	165	163	161	159	158	157	155	154	152	150	148	146	144	143	143	142	141	140	138	137	136	135	134	133	132	131	130	129	127	126	124	123	122	121	120	119	118	118	118	118	119	118	117	116	115	113	111	110	109	109	108	108	108	108	108	109	109	109	109	108	108	108	108	108	108	108	107	106	104	103	103	102	102	101	98	96	93	91	90	87	84	82	80	78	76	75	75	74	75	75	73	71	72	75	78	81	84	87	90	93	95	98	100	103	105	107	109	110	111	112	114	115	116	117	118	119	120	120	120	120	121	121	122	122	121	117	110	102	95	92	91	92	94	98	99	98	97	96	94	92	90	88	86	85	85	86	87	88	88	88	88	86	84	81	79	76	73	71	69	68	68	69	70	73	76	78	80	80	79	77	74	70	66	62	54	48	38	25	14	8	3	3	5	6	7	7	6	5	3	2	1	0	0	0	0	0	0	0	0	0	0	0	0	0	0	0	0	0	0	0	0	0	0	0	0	0	0	0	0	0	0	0	0	0	0	0	0	0	0	0	0	0	0	0	0	0	0	0	0	0	0	0	0	0	0	0	0	0	0	0	0	0	0	0	0	0	0	0	0	0	0	0	0	0	0	0	0	0	0	0	0	0	0	0	0	0	0	0	0	0	0	0	0	0	0	0	0	0	0	0	0	0	0	0	0	0	0	0	0	0	0	0	0	0	0	0	0	0	0	0	0	0	0	0	0	0	0	0	0	0	0	0	0	0	0	0	0	0	0	0	0	0	0	0	0	0	0	0	0	0	0	0	0	0	0	0	0	0	0	0	0	0	0	0	0	0	0	0	0	0	0	0
67	67	68	69	70	69	68	69	70	71	74	76	78	79	80	82	84	87	89	90	92	94	96	97	97	97	98	100	103	105	107	109	111	112	113	115	118	120	122	122	123	122	121	119	118	117	117	118	119	119	121	123	125	127	128	129	130	130	131	131	132	133	135	137	138	140	141	141	142	143	145	146	146	147	147	147	147	147	146	145	145	146	148	149	150	151	151	151	151	151	150	150	149	148	146	144	142	140	139	138	138	136	135	134	134	134	134	136	137	138	139	139	139	139	139	139	140	142	144	145	145	144	143	142	143	144	145	146	147	148	149	150	151	152	153	153	154	155	156	157	157	158	159	160	161	161	162	162	163	163	165	168	170	173	175	177	179	181	182	183	184	184	184	183	181	179	177	174	172	170	167	164	161	158	155	153	150	148	145	143	141	140	137	135	133	130	127	125	122	119	117	115	112	110	107	104	100	96	93	90	86	83	81	79	76	74	72	71	68	66	65	66	67	68	70	71	71	73	74	76	76	76	77	78	79	80	81	82	82	83	84	84	85	88	90	93	95	96	97	99	100	101	103	104	104	105	106	107	108	109	110	111	112	113	115	117	121	123	125	127	129	131	133	136	138	140	143	145	148	151	153	155	156	156	156	156	157	156	155	156	156	156	157	159	162	165	168	169	169	169	169	170	172	174	176	177	179	182	184	187	189	191	194	196	199	201	203	206	208	211	213	214	215	217	220	224	228	231	234	238	241	244	247	250	253	256	258	262	266	269	273	278	283	288	293	299	305	310	315	321	326	330	333	333	332	329	325	323	322	321	323	324	326	329	333	337	341	343	345	345	346	345	344	344	345	347	348	348	348	348	348	347	348	349	349	348	348	349	351	352	352	353	353	352	352	352	351	350	349	350	350	350	346	343	339	336	333	328	326	327	330	334	339	343	345	345	344	340	336	330	323	317	311	302	295	291	287	284	281	279	277	276	275	275	275	274	272	271	272	274	276	277	279	282	281	277	273	270	268	268	269	271	274	277	277	277	276	274	272	272	273	274	275	275	273	271	271	272	274	275	275	275	274	273	272	270	269	270	272	273	273	273	271	269	265	261	260	261	263	263	265	267	270	273	275	277	278	278	276	273	271	267	265	263	263	261	260	259	258	257	256	254	252	253	254	257	260	261	259	255	254	255	257	258	256	254	250	248	249	250	250	249	247	245	245	247	250	253	254	255	255	255	256	257	257	258	260	262	265	268	269	270	270	272	275	277	277	277	277	276	275	274	272	270	269	267	265	263	260	259	257	256	255	253	252	248	245	241	238	235	233	232	230	228	227	226	224	223	221	219	217	215	214	212	211	210	209	208	207	207	205	202	199	197	195	194	193	192	191	189	189	189	189	187	186	184	182	180	178	178	178	180	182	184	185	185	184	183	182	181	181	179	177	175	173	172	171	171	172	174	176	177	176	175	174	173	170	168	166	164	162	161	159	158	156	155	153	151	149	147	145	145	144	143	142	141	139	137	136	135	135	134	133	132	130	129	128	126	125	124	123	123	122	121	120	119	119	120	120	119	118	117	116	114	112	110	109	109	108	108	109	109	110	110	110	110	110	109	109	109	109	109	109	108	107	106	105	104	104	103	103	102	100	98	96	94	92	90	85	81	79	76	74	73	72	71	70	70	69	69	71	73	76	79	83	87	90	92	95	97	100	102	104	106	107	107	109	110	113	114	115	117	118	118	119	118	118	118	119	120	121	122	122	120	117	109	100	96	96	96	99	102	103	101	99	97	95	93	91	89	88	87	88	88	89	90	90	91	90	89	87	84	81	78	75	73	71	70	70	72	73	76	78	80	82	82	82	80	77	73	68	63	56	46	31	17	9	4	2	4	5	5	4	4	4	3	2	1	0	0	0	0	0	0	0	0	0	0	0	0	0	0	0	0	0	0	0	0	0	0	0	0	0	0	0	0	0	0	0	0	0	0	0	0	0	0	0	0	0	0	0	0	0	0	0	0	0	0	0	0	0	0	0	0	0	0	0	0	0	0	0	0	0	0	0	0	0	0	0	0	0	0	0	0	0	0	0	0	0	0	0	0	0	0	0	0	0	0	0	0	0	0	0	0	0	0	0	0	0	0	0	0	0	0	0	0	0	0	0	0	0	0	0	0	0	0	0	0	0	0	0	0	0	0	0	0	0	0	0	0	0	0	0	0	0	0	0	0	0	0	0	0	0	0	0	0	0	0	0	0	0	0	0	0	0	0	0	0	0	0	0	0	0	0	0	0	0	0	0	0
67	67	67	68	69	69	69	70	71	73	76	78	81	82	83	84	86	89	91	92	94	96	98	99	100	100	100	101	103	106	108	111	113	115	116	117	120	121	123	124	124	123	121	120	119	119	120	120	121	121	122	124	126	128	130	131	132	132	132	133	133	135	136	138	139	140	141	142	144	145	146	147	148	148	149	149	149	148	148	147	147	147	149	150	151	152	153	153	153	153	153	152	151	150	148	146	144	143	141	140	139	138	137	136	136	136	136	137	138	139	140	140	140	140	140	139	140	142	144	145	144	143	142	142	143	144	145	146	147	148	150	150	151	152	153	154	154	155	156	156	157	158	159	160	161	162	163	163	164	164	165	168	170	173	176	178	180	182	183	184	185	185	184	183	181	179	177	174	171	169	167	164	161	158	155	153	150	148	146	144	142	141	139	137	134	132	129	126	124	121	118	116	114	111	108	104	101	97	94	90	86	83	81	79	76	74	71	69	66	65	64	65	66	68	69	70	71	72	74	75	75	76	77	78	79	80	81	82	83	83	84	85	87	89	91	93	94	95	96	98	99	100	101	103	104	105	106	107	107	108	109	110	111	113	115	118	122	124	126	129	131	133	135	137	139	142	144	147	150	152	154	155	155	154	153	153	154	153	153	152	152	153	154	157	159	162	164	165	166	166	167	169	171	174	176	177	179	182	184	186	188	190	193	195	197	199	201	202	205	208	210	212	213	215	219	224	228	230	234	237	241	244	247	251	254	256	259	262	266	269	273	277	282	288	293	299	306	312	317	322	326	329	330	330	328	326	323	320	319	319	320	321	323	325	329	334	338	341	342	342	342	341	341	340	340	340	342	342	343	344	344	343	344	345	345	344	343	343	344	346	347	348	349	349	348	347	345	344	344	344	344	343	340	337	332	327	324	321	321	324	329	333	338	341	344	345	344	341	337	331	325	318	310	302	296	291	286	283	279	276	274	272	271	271	271	269	267	266	268	271	274	275	277	279	278	274	270	267	265	265	267	269	272	274	274	273	271	269	268	268	268	270	271	271	269	268	268	269	270	271	271	271	270	270	269	267	265	265	266	268	269	269	267	265	262	257	254	256	258	259	260	263	267	270	271	273	274	274	272	270	267	264	262	260	260	258	257	256	256	255	254	252	250	250	253	256	258	259	256	253	250	251	253	254	253	251	248	246	246	247	247	246	243	242	242	245	248	249	250	251	251	251	252	253	255	257	259	262	265	267	267	267	268	270	272	273	274	274	274	274	275	274	273	272	270	268	267	264	262	261	259	257	256	255	252	248	244	240	237	234	233	233	232	230	229	228	226	225	223	220	218	216	215	213	212	210	209	208	207	206	204	202	199	198	196	195	194	194	192	192	191	191	190	189	188	186	183	181	180	180	181	182	184	186	187	187	187	186	185	184	183	182	180	178	176	174	174	174	175	177	179	179	179	177	176	174	172	169	167	165	164	163	162	160	158	156	154	152	150	148	147	146	146	145	143	142	140	139	137	137	136	135	133	132	130	129	128	128	127	126	125	125	124	123	122	121	121	121	121	120	119	118	117	114	112	110	109	109	108	108	110	111	111	111	111	111	111	111	110	110	110	110	109	109	108	106	105	105	105	104	104	102	101	99	98	96	94	91	86	82	79	76	74	72	71	69	68	68	68	68	69	72	75	78	82	86	88	91	93	96	98	100	102	104	104	105	107	109	111	112	113	115	116	116	116	115	114	115	116	118	119	120	121	121	120	116	109	101	100	100	102	104	104	103	101	98	96	94	93	91	90	90	90	90	91	91	92	92	92	90	88	86	83	81	78	75	74	73	73	74	76	78	81	83	84	85	85	83	79	75	69	64	58	40	21	10	5	2	2	3	3	2	1	1	1	1	0	0	0	0	0	0	0	0	0	0	0	0	0	0	0	0	0	0	0	0	0	0	0	0	0	0	0	0	0	0	0	0	0	0	0	0	0	0	0	0	0	0	0	0	0	0	0	0	0	0	0	0	0	0	0	0	0	0	0	0	0	0	0	0	0	0	0	0	0	0	0	0	0	0	0	0	0	0	0	0	0	0	0	0	0	0	0	0	0	0	0	0	0	0	0	0	0	0	0	0	0	0	0	0	0	0	0	0	0	0	0	0	0	0	0	0	0	0	0	0	0	0	0	0	0	0	0	0	0	0	0	0	0	0	0	0	0	0	0	0	0	0	0	0	0	0	0	0	0	0	0	0	0	0	0	0	0	0	0	0	0	0	0	0	0	0	0	0	0	0	0	0	0	0
68	68	67	68	70	71	71	72	74	76	78	81	83	84	86	87	89	90	93	95	96	98	100	102	103	103	103	103	104	107	109	112	115	116	118	120	122	123	124	125	125	124	122	121	120	121	122	122	122	122	123	125	127	129	131	133	134	134	134	134	135	136	137	139	140	142	142	143	145	147	148	148	149	150	150	150	150	150	149	149	149	149	150	151	152	153	154	155	155	154	154	154	153	152	150	149	147	145	144	143	141	140	138	138	137	137	137	138	139	140	141	141	142	141	141	141	142	143	145	145	144	143	143	143	144	144	145	146	147	148	150	151	151	152	153	154	155	155	156	156	157	158	159	160	161	163	164	165	165	165	166	168	171	173	176	178	180	182	184	185	185	185	184	182	181	179	176	174	171	169	167	164	161	159	156	154	151	149	147	146	144	142	141	138	136	133	130	127	125	122	119	116	114	112	109	105	102	99	95	91	87	83	81	78	76	73	70	67	65	64	63	64	65	67	68	69	70	71	73	74	74	75	76	78	79	80	82	83	83	83	84	85	87	88	90	91	93	94	96	97	98	99	100	102	103	104	105	106	106	107	108	110	112	113	115	119	122	125	127	130	132	135	137	138	141	143	145	148	151	152	154	154	154	153	151	150	151	151	150	149	149	150	152	155	157	159	161	162	163	165	166	168	171	173	175	177	178	181	182	184	187	189	191	193	195	196	197	198	201	204	207	211	212	215	219	223	227	230	233	237	240	244	247	251	254	257	260	263	266	270	275	279	283	288	293	300	309	314	319	325	327	327	326	326	324	322	319	316	315	316	318	320	321	322	326	331	335	337	338	338	338	337	336	336	335	336	337	338	339	340	341	340	340	341	341	340	339	338	339	340	342	343	345	345	344	343	341	339	337	336	336	335	334	331	325	320	318	317	317	320	327	332	336	339	341	343	342	341	337	331	325	319	310	302	296	290	285	282	278	274	271	269	268	269	269	266	264	264	265	268	271	273	275	275	274	271	267	264	261	262	265	267	269	271	271	269	266	265	264	264	263	264	265	265	265	265	265	266	266	267	268	267	266	267	266	264	262	261	262	263	264	264	263	261	257	254	252	253	255	256	256	259	263	266	268	269	270	270	269	266	263	261	259	257	256	255	254	253	254	253	252	250	248	248	251	254	256	257	254	251	247	247	249	251	250	247	245	243	244	244	245	243	240	238	238	241	244	245	245	246	247	248	249	251	253	256	259	262	264	266	265	265	266	267	268	269	270	270	271	272	273	274	274	273	272	270	268	266	264	262	261	259	258	255	252	248	243	240	237	235	235	234	233	232	231	230	229	227	225	222	220	218	216	214	212	211	209	208	207	206	204	202	200	198	197	197	196	196	195	194	193	192	192	190	188	186	184	183	182	183	183	184	186	188	190	190	190	189	188	187	186	184	182	180	178	177	177	178	179	180	182	182	181	179	177	175	173	171	169	167	166	165	164	162	159	157	155	153	151	149	148	148	147	146	144	143	141	140	139	137	136	135	133	132	131	130	129	129	129	128	127	126	125	124	124	123	123	123	123	122	121	119	117	115	112	111	110	109	108	109	111	112	112	112	112	112	112	112	112	112	111	110	110	109	108	107	106	105	105	105	104	104	102	101	99	97	95	92	88	84	81	78	76	73	71	69	68	68	68	68	68	70	73	77	81	84	87	89	91	94	96	98	100	101	102	103	104	107	108	110	111	112	114	114	114	112	111	111	112	113	114	117	119	119	120	119	116	109	105	104	105	106	106	104	102	100	98	96	95	93	93	93	92	92	92	92	93	93	93	92	90	88	86	84	81	78	76	76	76	77	79	82	84	86	87	88	87	85	82	77	70	65	56	31	12	6	4	2	1	1	1	1	0	0	0	0	0	0	0	0	0	0	0	0	0	0	0	0	0	0	0	0	0	0	0	0	0	0	0	0	0	0	0	0	0	0	0	0	0	0	0	0	0	0	0	0	0	0	0	0	0	0	0	0	0	0	0	0	0	0	0	0	0	0	0	0	0	0	0	0	0	0	0	0	0	0	0	0	0	0	0	0	0	0	0	0	0	0	0	0	0	0	0	0	0	0	0	0	0	0	0	0	0	0	0	0	0	0	0	0	0	0	0	0	0	0	0	0	0	0	0	0	0	0	0	0	0	0	0	0	0	0	0	0	0	0	0	0	0	0	0	0	0	0	0	0	0	0	0	0	0	0	0	0	0	0	0	0	0	0	0	0	0	0	0	0	0	0	0	0	0	0	0	0	0	0	0	0	0	0
70	70	69	70	72	73	74	74	76	78	80	82	84	86	88	89	91	92	95	97	99	101	103	104	105	106	106	106	106	108	110	112	115	118	119	121	123	124	125	126	126	124	122	121	121	122	123	124	124	124	125	126	128	130	133	134	135	136	136	136	136	137	139	140	142	143	144	145	146	148	149	150	151	151	152	152	152	151	151	151	151	151	151	152	153	154	155	156	156	156	156	156	155	154	153	151	149	147	146	145	143	142	140	139	139	139	139	138	139	141	142	143	143	142	142	143	144	145	146	146	144	143	144	144	144	145	146	147	147	148	149	150	151	152	153	154	155	155	156	156	157	158	159	160	162	163	165	166	166	166	167	168	171	174	176	178	180	183	184	185	186	185	184	183	181	179	176	174	172	169	167	164	162	159	157	154	152	150	148	147	145	143	141	139	136	134	131	128	125	122	119	116	114	112	109	106	103	100	97	93	88	84	81	79	76	73	70	67	64	63	63	64	65	66	66	68	69	70	72	72	73	74	76	77	78	80	81	82	83	83	83	84	86	87	89	90	92	93	95	96	97	99	100	101	103	103	104	104	105	106	108	110	112	114	116	119	123	125	128	131	133	135	138	140	142	144	146	148	150	152	153	153	152	150	148	147	147	147	147	147	147	148	150	153	155	157	158	160	162	164	166	167	170	173	174	175	176	179	181	183	185	187	189	190	191	193	195	197	200	204	207	211	213	216	219	223	226	229	233	236	240	243	246	250	253	257	261	265	268	271	276	280	284	289	295	302	311	317	322	326	328	326	323	321	319	317	315	313	312	313	315	317	319	320	323	327	331	333	334	334	334	332	331	330	330	331	332	333	335	336	337	336	337	338	337	336	335	335	335	336	336	338	340	341	340	339	337	334	330	328	327	328	326	322	318	316	315	314	314	315	321	328	333	337	339	339	339	338	335	331	325	319	310	303	296	290	285	281	276	272	269	267	266	266	265	262	261	261	262	265	268	270	272	271	269	267	264	261	259	260	263	265	265	266	266	264	262	261	260	260	259	258	259	259	260	261	261	261	262	262	263	262	262	263	263	261	259	257	258	259	260	259	258	256	253	251	251	251	251	252	254	256	259	262	264	266	266	266	265	263	261	258	255	253	252	251	250	250	251	251	250	248	247	246	248	252	254	255	252	248	244	244	244	246	246	244	242	241	241	242	241	240	238	236	235	237	239	240	241	242	243	245	247	249	253	256	259	262	264	263	262	261	263	264	264	265	266	267	267	269	271	272	274	274	273	271	269	267	265	264	262	260	258	255	251	247	243	240	238	236	236	236	235	234	233	232	230	228	226	223	221	219	217	215	213	211	210	208	207	206	205	203	201	200	199	199	199	198	197	196	195	194	193	191	188	186	185	185	184	184	186	187	188	191	193	193	192	192	191	190	189	187	185	183	181	180	180	180	181	183	184	184	183	181	179	177	174	173	171	169	168	168	166	163	160	158	156	154	152	151	150	150	149	147	146	144	143	142	140	138	136	135	134	133	132	131	131	131	131	130	129	128	127	126	126	125	125	125	124	123	122	120	118	115	113	112	110	109	109	110	112	113	113	113	113	113	113	113	113	113	112	111	111	110	109	108	107	106	106	105	105	105	104	102	100	98	97	94	91	86	83	80	78	75	73	71	69	68	67	66	67	68	71	75	79	82	85	87	89	91	94	96	97	98	98	100	102	104	105	106	107	110	112	112	111	109	108	108	109	109	110	113	116	116	117	118	118	116	112	109	108	108	107	105	103	101	99	98	96	95	94	95	95	94	94	93	94	94	95	94	93	91	90	87	84	81	79	79	80	81	82	85	88	89	90	90	89	87	84	77	70	64	48	21	8	6	4	2	2	3	3	2	1	0	0	0	0	0	0	0	0	0	0	0	0	0	0	0	0	0	0	0	0	0	0	0	0	0	0	0	0	0	0	0	0	0	0	0	0	0	0	0	0	0	0	0	0	0	0	0	0	0	0	0	0	0	0	0	0	0	0	0	0	0	0	0	0	0	0	0	0	0	0	0	0	0	0	0	0	0	0	0	0	0	0	0	0	0	0	0	0	0	0	0	0	0	0	0	0	0	0	0	0	0	0	0	0	0	0	0	0	0	0	0	0	0	0	0	0	0	0	0	0	0	0	0	0	0	0	0	0	0	0	0	0	0	0	0	0	0	0	0	0	0	0	0	0	0	0	0	0	0	0	0	0	0	0	0	0	0	0	0	0	0	0	0	0	0	0	0	0	0	0	0	0	0	0	0	0	0
72	72	72	72	73	74	74	75	76	78	80	82	84	86	88	91	93	94	97	99	101	103	104	106	107	108	109	109	109	110	111	113	116	118	120	123	124	125	127	127	127	125	122	121	122	124	125	126	126	127	127	128	130	132	134	136	137	138	138	138	138	139	140	142	144	145	146	147	148	149	150	151	152	153	153	153	153	153	153	153	152	152	153	153	153	154	155	156	157	157	158	158	157	156	155	153	152	150	149	147	146	144	143	142	141	141	140	140	139	141	143	145	145	144	144	145	146	147	147	147	146	145	144	144	145	146	146	147	147	148	149	150	151	152	153	154	155	156	156	156	157	159	159	160	162	164	166	167	168	168	168	169	171	174	176	178	180	182	184	185	186	185	184	183	181	179	177	174	172	170	167	165	162	160	157	155	153	151	149	147	145	144	141	139	136	134	131	128	125	122	119	116	114	111	109	106	103	101	98	94	90	86	83	80	77	74	70	66	63	62	62	63	64	65	66	67	68	69	71	71	72	74	75	76	77	79	80	81	81	81	82	84	85	87	88	90	91	93	94	96	97	98	99	101	102	102	102	103	104	106	109	111	113	115	117	120	123	126	129	131	133	136	138	140	142	144	146	148	150	151	151	151	149	147	145	144	143	144	144	145	146	148	149	152	154	155	157	159	160	163	165	166	169	171	172	173	174	176	178	180	183	185	187	188	189	192	195	199	202	206	209	212	215	218	221	223	226	230	233	236	239	243	246	249	253	257	262	265	268	272	277	281	285	291	296	304	313	320	326	328	327	324	321	318	315	314	312	311	309	310	311	312	315	317	320	323	327	329	330	330	330	328	327	326	325	326	328	329	330	332	332	332	333	334	334	332	330	329	329	329	330	332	334	335	335	334	332	329	325	324	323	320	315	312	312	312	311	310	310	312	314	320	326	330	332	333	335	335	333	330	325	318	311	304	298	292	286	281	276	272	268	266	265	261	257	256	256	258	258	260	262	264	266	265	264	263	261	258	256	257	260	262	262	262	261	259	257	257	256	255	254	252	252	251	251	252	253	253	255	255	255	256	259	260	260	258	255	253	253	254	255	255	253	251	249	247	247	246	245	247	249	251	254	257	260	261	262	262	262	260	258	254	251	249	248	247	246	247	247	247	246	245	244	244	246	250	253	253	250	245	241	240	239	241	241	240	239	238	238	238	238	237	236	233	233	234	235	236	238	239	241	243	246	249	253	256	259	261	262	261	259	259	260	261	262	262	263	264	265	268	269	271	273	274	273	272	270	268	266	264	262	260	257	254	250	246	243	241	239	238	237	237	236	235	234	232	231	229	226	223	221	219	217	215	213	212	211	210	209	208	206	205	203	203	202	202	201	200	199	198	196	195	194	192	189	187	187	186	186	187	188	190	191	193	194	195	195	194	194	193	191	190	188	185	183	183	183	183	184	185	186	187	186	183	180	178	176	174	173	172	171	170	168	165	162	160	158	155	154	153	152	151	150	149	147	146	144	142	140	138	136	135	135	134	134	133	133	133	133	133	132	131	129	128	128	127	127	126	126	125	123	121	118	116	114	113	111	110	110	111	112	114	114	114	115	115	114	114	114	114	113	113	112	112	110	109	108	108	107	107	106	105	105	103	101	99	98	96	93	88	85	82	80	78	76	73	71	68	66	65	66	67	69	72	76	80	82	84	86	88	91	93	94	95	95	97	99	101	101	102	104	107	110	110	109	107	106	105	106	107	109	111	113	114	115	117	118	117	116	113	111	110	108	106	104	102	101	99	98	96	96	96	96	96	95	95	95	96	96	96	96	95	93	90	87	85	83	83	83	84	86	89	91	92	92	91	90	87	84	76	68	62	40	17	7	6	4	4	4	5	6	4	2	1	0	0	0	0	0	0	0	0	0	0	0	0	0	0	0	0	0	0	0	0	0	0	0	0	0	0	0	0	0	0	0	0	0	0	0	0	0	0	0	0	0	0	0	0	0	0	0	0	0	0	0	0	0	0	0	0	0	0	0	0	0	0	0	0	0	0	0	0	0	0	0	0	0	0	0	0	0	0	0	0	0	0	0	0	0	0	0	0	0	0	0	0	0	0	0	0	0	0	0	0	0	0	0	0	0	0	0	0	0	0	0	0	0	0	0	0	0	0	0	0	0	0	0	0	0	0	0	0	0	0	0	0	0	0	0	0	0	0	0	0	0	0	0	0	0	0	0	0	0	0	0	0	0	0	0	0	0	0	0	0	0	0	0	0	0	0	0	0	0	0	0	0	0	0	0	0
73	74	74	74	74	74	74	75	77	78	80	82	84	86	89	91	94	96	98	100	102	104	106	107	109	110	111	111	112	112	113	115	116	118	121	123	125	127	128	128	128	126	123	122	123	125	126	127	128	129	129	130	132	133	135	137	139	140	141	140	140	140	141	143	145	146	147	147	148	149	151	152	153	154	155	155	155	155	155	155	154	154	154	154	154	154	155	156	157	158	159	159	159	158	157	155	154	152	151	150	148	146	145	144	143	143	142	141	141	141	144	146	146	146	146	146	147	147	147	147	146	145	144	144	145	146	147	147	147	147	148	149	150	152	153	155	155	156	156	157	158	159	159	160	162	164	166	168	169	169	169	170	172	174	176	178	180	182	184	185	185	185	184	183	181	179	177	175	172	170	167	165	162	160	158	155	153	151	149	147	145	144	142	140	137	134	132	129	126	123	119	117	114	111	109	106	103	101	98	94	91	87	83	80	77	73	69	65	61	60	61	62	64	65	65	66	67	69	70	70	71	73	74	75	77	78	78	79	79	80	81	83	85	87	88	90	92	93	94	96	97	98	98	99	100	100	101	102	104	107	109	112	115	116	118	121	123	126	129	131	133	135	138	140	142	144	146	147	148	148	148	147	146	144	143	141	141	141	142	144	146	147	149	151	153	155	157	158	159	161	163	164	166	168	169	169	171	173	175	178	180	183	186	188	190	193	197	201	205	209	212	214	217	220	223	225	228	230	233	236	240	243	246	250	253	257	261	265	268	273	277	282	286	292	298	307	317	323	328	328	325	322	319	316	312	310	308	307	305	305	306	308	310	313	317	320	323	325	325	326	325	325	324	323	322	322	323	324	325	327	327	328	329	330	329	328	326	324	322	322	325	325	324	325	325	325	325	324	321	320	319	314	308	308	309	309	308	307	307	309	311	315	319	321	323	325	328	330	330	328	324	318	311	305	299	293	286	281	276	271	267	265	263	258	255	254	255	255	254	254	255	257	259	260	260	260	257	254	253	255	257	259	259	258	256	254	253	252	252	251	250	248	246	245	244	244	246	248	247	246	245	248	252	255	255	254	251	248	247	248	250	251	250	248	245	244	242	241	241	243	246	248	250	252	255	257	258	258	258	256	254	251	248	246	244	243	242	243	244	243	243	242	241	242	244	249	252	251	248	243	239	237	236	235	236	235	235	235	235	235	234	233	230	229	229	231	232	234	236	238	240	243	246	250	254	257	258	259	259	257	256	257	257	258	259	260	262	263	266	269	270	272	273	273	273	272	270	268	266	264	262	259	256	252	249	246	243	241	240	239	238	237	237	235	234	232	231	229	226	223	220	219	217	215	214	213	212	211	210	209	208	207	206	205	205	204	203	202	201	199	198	197	195	193	191	190	189	189	189	190	192	193	194	194	196	197	197	197	196	196	194	192	190	188	186	186	186	186	187	188	189	189	188	185	182	180	178	176	175	174	173	171	169	166	164	161	159	157	156	155	154	153	152	150	149	147	145	143	141	139	137	137	137	136	136	135	136	136	136	135	134	133	132	130	129	129	129	128	128	126	124	122	119	117	115	114	112	111	111	112	113	115	115	116	116	116	116	115	115	115	115	114	114	113	111	110	109	109	109	109	108	107	106	104	102	100	99	97	94	91	88	85	83	80	78	75	72	69	67	64	65	66	67	70	73	76	78	80	83	85	87	89	90	90	91	93	95	97	97	98	101	105	107	108	107	105	103	102	103	105	107	108	109	111	112	114	115	117	117	115	113	111	109	106	105	103	102	101	99	98	97	97	97	96	96	96	96	97	98	98	98	98	96	93	91	89	87	86	86	87	89	92	94	94	93	91	89	85	82	74	67	59	38	21	8	6	8	8	5	5	5	4	3	1	0	0	0	0	0	0	0	0	0	0	0	0	0	0	0	0	0	0	0	0	0	0	0	0	0	0	0	0	0	0	0	0	0	0	0	0	0	0	0	0	0	0	0	0	0	0	0	0	0	0	0	0	0	0	0	0	0	0	0	0	0	0	0	0	0	0	0	0	0	0	0	0	0	0	0	0	0	0	0	0	0	0	0	0	0	0	0	0	0	0	0	0	0	0	0	0	0	0	0	0	0	0	0	0	0	0	0	0	0	0	0	0	0	0	0	0	0	0	0	0	0	0	0	0	0	0	0	0	0	0	0	0	0	0	0	0	0	0	0	0	0	0	0	0	0	0	0	0	0	0	0	0	0	0	0	0	0	0	0	0	0	0	0	0	0	0	0	0	0	0	0	0	0	0	0	0
75	75	75	75	75	75	75	76	77	78	80	82	84	86	89	91	94	96	98	101	103	105	106	108	110	111	112	113	114	115	115	116	117	119	122	124	126	128	129	129	129	128	125	124	124	126	127	129	130	131	132	133	134	135	137	139	141	142	143	143	142	142	143	144	146	147	147	148	149	150	152	153	154	155	156	157	157	157	157	157	156	156	156	156	155	155	155	155	157	159	159	160	160	160	159	157	156	154	153	152	150	149	147	147	146	145	145	143	143	142	144	147	148	147	147	147	146	146	146	145	145	144	144	145	146	146	147	147	147	148	149	150	151	153	154	155	156	157	157	158	159	159	159	160	162	164	167	169	170	170	170	171	172	174	176	178	180	181	183	184	185	185	185	183	182	180	178	175	172	170	167	165	162	160	158	155	153	151	149	147	145	144	142	140	138	135	132	129	126	123	120	117	114	111	109	106	103	100	97	93	90	86	83	80	76	73	69	63	59	59	60	62	63	64	65	66	67	68	69	69	70	72	74	75	76	77	77	77	78	79	81	83	85	88	89	91	92	93	94	95	96	96	96	97	97	98	100	103	105	108	110	113	116	118	119	121	123	126	128	130	132	135	137	139	141	143	145	146	147	146	145	144	143	141	140	139	139	140	141	143	145	147	148	149	150	153	156	158	159	160	161	162	163	164	165	167	169	171	174	177	179	184	187	189	191	194	198	203	207	210	213	216	219	222	225	227	230	232	234	237	241	244	247	250	254	257	261	265	269	273	278	282	287	294	301	310	319	324	328	326	321	319	316	313	309	306	304	302	300	301	303	304	306	309	313	317	319	321	321	321	321	321	321	320	319	319	319	320	321	322	322	323	324	325	325	324	322	319	317	316	318	318	317	317	317	317	318	319	318	315	311	307	304	304	305	305	305	304	304	306	308	311	316	318	319	320	321	325	327	326	322	317	311	305	298	292	287	281	276	271	266	263	260	256	255	253	253	252	251	250	251	253	255	256	257	257	252	249	250	252	254	255	254	253	251	250	249	248	248	248	247	245	244	242	240	240	241	242	241	232	219	228	240	244	247	247	245	243	242	242	244	245	244	243	242	240	239	239	239	240	243	246	248	250	252	254	254	254	253	251	249	246	244	242	239	238	239	240	240	240	239	239	239	240	243	246	249	249	245	241	237	234	232	231	232	232	232	232	231	231	229	227	224	225	226	228	230	233	236	237	239	243	247	251	254	257	257	257	256	255	253	254	255	255	256	258	260	263	267	270	271	272	273	274	274	273	271	269	267	264	261	258	255	252	249	246	244	242	240	239	238	237	237	235	234	232	230	228	225	223	220	219	217	216	216	215	214	213	212	211	210	210	209	208	207	206	205	204	203	201	200	199	196	194	193	192	192	192	193	193	195	196	196	196	197	198	199	199	199	198	196	194	192	190	189	188	188	189	190	191	192	191	190	187	184	182	181	179	177	176	175	172	170	167	165	163	161	160	158	157	155	154	153	152	150	148	146	143	141	139	138	139	138	138	137	138	138	138	138	137	136	135	134	133	132	131	131	130	129	127	125	123	120	118	116	114	112	111	111	113	115	116	117	117	117	117	117	117	116	116	116	116	115	114	112	111	110	110	110	110	109	108	107	105	103	102	100	98	96	93	91	88	85	82	79	76	74	70	67	64	63	63	65	67	69	72	73	75	78	82	84	85	86	86	87	89	91	93	94	95	99	103	105	106	105	103	100	100	101	103	104	105	106	107	109	111	113	115	116	116	114	112	109	107	105	104	103	101	100	98	98	97	97	97	96	97	97	98	99	100	100	100	99	97	95	93	92	91	90	91	93	96	97	96	94	90	87	84	80	73	66	58	39	27	10	9	14	13	8	3	2	2	2	1	0	0	0	0	0	0	0	0	0	0	0	0	0	0	0	0	0	0	0	0	0	0	0	0	0	0	0	0	0	0	0	0	0	0	0	0	0	0	0	0	0	0	0	0	0	0	0	0	0	0	0	0	0	0	0	0	0	0	0	0	0	0	0	0	0	0	0	0	0	0	0	0	0	0	0	0	0	0	0	0	0	0	0	0	0	0	0	0	0	0	0	0	0	0	0	0	0	0	0	0	0	0	0	0	0	0	0	0	0	0	0	0	0	0	0	0	0	0	0	0	0	0	0	0	0	0	0	0	0	0	0	0	0	0	0	0	0	0	0	0	0	0	0	0	0	0	0	0	0	0	0	0	0	0	0	0	0	0	0	0	0	0	0	0	0	0	0	0	0	0	0	0	0	0	0	0
77	76	76	76	77	76	76	76	76	77	79	81	83	86	89	91	94	96	99	101	103	105	107	108	110	112	113	114	115	116	117	118	119	120	122	125	127	129	130	130	130	130	129	127	126	127	129	130	131	132	134	135	136	137	139	141	143	144	145	145	145	144	145	146	147	148	148	149	150	152	153	154	155	157	158	158	159	159	159	158	158	158	158	158	157	156	155	156	157	159	160	161	162	162	161	159	158	157	156	154	153	151	150	149	148	148	147	146	145	144	145	148	149	148	147	146	146	146	146	145	145	145	145	146	147	147	148	148	149	149	150	151	152	154	155	156	157	158	158	158	159	159	159	160	162	164	167	169	171	172	172	172	173	174	176	177	179	181	182	184	185	185	185	184	182	180	178	175	172	170	167	165	163	160	158	156	153	151	149	147	146	144	143	141	139	136	133	130	127	124	121	118	115	112	109	106	103	100	96	93	89	86	83	79	76	72	68	63	59	58	59	61	62	63	64	65	66	67	68	68	70	72	73	74	75	75	75	76	77	79	82	84	87	89	90	91	92	93	93	93	94	94	94	95	95	97	100	104	106	108	111	113	116	118	119	121	123	125	127	129	131	133	135	137	138	140	142	143	144	143	140	139	138	138	137	137	137	139	141	143	144	145	146	146	148	150	155	158	158	159	160	161	163	164	165	167	170	174	176	179	181	185	188	191	193	197	200	203	207	210	213	216	220	223	226	229	231	234	236	239	242	245	249	252	255	259	262	266	270	274	278	283	288	294	302	312	320	325	327	324	319	316	313	310	306	303	301	299	298	299	299	300	301	304	308	313	316	317	317	317	317	318	318	317	316	315	316	317	318	318	319	319	321	321	321	320	318	316	315	313	312	312	312	312	310	309	309	310	309	307	305	303	300	299	300	300	300	299	300	302	304	306	312	313	312	313	316	319	321	322	319	314	310	304	297	292	287	281	275	270	266	262	259	257	255	254	249	247	247	248	248	250	251	252	253	251	247	245	247	249	250	250	249	247	246	245	244	244	244	243	243	242	240	237	236	236	236	237	237	222	190	207	231	238	241	241	240	238	236	236	237	239	239	239	239	238	238	237	237	238	240	244	246	248	249	249	249	249	248	247	245	243	240	238	235	235	235	237	238	237	237	236	237	239	241	244	247	246	242	238	234	231	228	228	228	228	227	227	227	226	225	223	221	223	225	227	229	233	235	237	239	243	247	252	254	256	256	255	254	252	251	251	252	254	256	258	261	264	267	270	272	273	274	275	274	273	272	270	267	264	260	257	254	251	248	246	243	241	240	239	238	237	236	235	233	231	230	228	225	223	221	220	219	218	218	217	216	215	214	213	213	212	211	210	209	208	207	205	204	203	202	200	198	195	194	194	195	196	196	197	197	199	199	199	199	200	201	201	201	200	198	196	193	192	191	190	191	192	193	194	194	193	192	189	186	184	183	181	180	178	176	173	170	168	166	165	163	162	160	158	157	155	153	152	150	148	146	143	141	140	140	140	140	139	139	140	141	141	140	140	138	137	136	135	134	133	133	132	131	129	126	124	121	119	116	114	112	111	112	113	115	117	117	118	119	119	118	118	118	117	117	117	116	115	114	112	112	112	112	111	111	109	108	106	105	103	101	100	98	96	93	90	88	84	80	78	75	71	67	64	62	60	61	63	65	68	69	72	75	79	82	82	82	83	84	86	87	89	91	93	97	100	102	103	103	101	99	99	100	101	102	102	102	103	105	108	111	113	115	115	114	111	109	107	106	104	102	100	99	98	97	97	97	97	97	97	98	99	100	100	101	101	101	100	99	98	96	95	95	95	97	98	98	96	93	89	85	82	78	72	65	58	47	33	17	18	22	18	10	3	1	1	1	0	0	0	0	0	0	0	0	0	0	0	0	0	0	0	0	0	0	0	0	0	0	0	0	0	0	0	0	0	0	0	0	0	0	0	0	0	0	0	0	0	0	0	0	0	0	0	0	0	0	0	0	0	0	0	0	0	0	0	0	0	0	0	0	0	0	0	0	0	0	0	0	0	0	0	0	0	0	0	0	0	0	0	0	0	0	0	0	0	0	0	0	0	0	0	0	0	0	0	0	0	0	0	0	0	0	0	0	0	0	0	0	0	0	0	0	0	0	0	0	0	0	0	0	0	0	0	0	0	0	0	0	0	0	0	0	0	0	0	0	0	0	0	0	0	0	0	0	0	0	0	0	0	0	0	0	0	0	0	0	0	0	0	0	0	0	0	0	0	0	0	0	0	0	0	0	0
80	78	78	78	78	77	76	75	75	77	79	81	83	85	88	91	93	96	98	101	103	105	107	109	110	112	114	115	117	118	119	120	121	122	124	126	128	129	131	132	132	132	131	129	128	129	131	132	133	134	135	137	138	140	141	143	145	146	148	148	147	147	147	148	150	149	149	150	152	153	154	155	156	158	159	160	161	161	161	160	160	160	159	159	158	157	156	156	157	159	160	161	163	163	163	162	160	159	158	157	155	154	152	152	151	150	149	148	147	146	146	148	149	148	147	147	147	147	146	146	146	146	146	147	148	149	150	150	151	151	152	152	154	155	156	157	157	158	159	159	159	159	160	161	162	164	167	169	171	173	173	173	174	174	176	177	178	180	182	183	184	185	185	184	182	180	178	175	172	170	167	165	163	161	159	157	154	152	150	148	146	144	143	141	139	136	133	130	127	124	121	118	115	112	109	106	103	99	96	93	89	85	82	79	75	72	68	63	60	57	58	60	61	62	63	64	65	66	66	67	69	71	72	74	74	74	74	75	77	80	83	85	88	90	91	91	92	92	92	91	91	91	92	93	94	97	100	104	106	108	110	113	115	117	118	120	122	123	125	127	129	131	134	135	136	137	139	140	140	138	136	135	135	135	135	135	136	138	140	141	142	143	144	145	146	149	154	157	158	160	162	164	165	167	169	171	173	177	180	182	185	187	190	193	196	200	202	205	207	210	212	216	219	223	226	229	232	235	238	240	244	247	251	254	257	260	263	267	271	275	279	284	289	295	303	312	319	324	325	321	316	313	310	307	304	300	298	296	296	297	296	297	298	301	305	309	312	313	314	313	313	314	315	314	313	313	313	313	314	315	316	317	318	318	318	317	315	314	312	310	309	308	308	306	304	301	299	299	298	297	297	297	296	295	295	294	292	291	293	298	301	301	303	304	304	306	309	314	317	318	316	312	308	302	296	291	286	280	274	270	266	262	259	256	255	251	245	243	244	245	246	247	247	248	247	245	243	243	244	245	245	245	244	242	240	239	239	239	239	238	238	237	235	233	231	231	231	233	233	224	207	216	231	235	238	238	236	234	231	230	231	232	235	235	236	236	235	234	234	235	237	240	243	244	245	244	244	244	244	243	242	239	237	235	233	232	232	233	234	234	233	233	234	236	239	242	244	243	240	237	232	228	225	224	222	221	221	222	222	222	221	220	220	222	224	227	229	231	234	236	239	242	247	251	253	255	254	253	251	249	249	249	251	253	257	260	262	265	267	269	271	274	275	275	275	274	272	270	268	264	260	256	253	250	247	245	242	240	239	238	237	236	235	234	232	231	230	228	226	224	223	221	221	220	219	219	218	217	216	215	215	214	212	211	210	209	208	207	206	205	204	202	199	197	196	196	198	199	200	199	200	201	202	202	201	202	203	203	203	202	200	197	195	193	193	192	193	194	196	197	197	196	194	191	188	186	184	183	181	180	177	174	172	169	168	167	165	163	161	159	158	156	154	153	151	148	146	143	141	141	141	142	142	141	141	142	143	143	143	142	141	139	138	137	136	136	135	134	132	130	127	125	122	119	117	114	113	112	113	114	116	117	118	119	120	120	120	120	119	119	119	118	118	117	115	114	114	114	113	113	111	110	109	107	106	104	103	102	100	98	95	93	89	86	82	78	75	71	67	64	61	58	57	59	62	64	66	69	73	77	80	81	80	80	82	83	83	85	87	91	95	98	100	101	100	99	98	98	99	99	99	97	97	99	102	105	109	111	113	114	113	111	109	107	105	103	101	98	97	95	95	96	96	97	97	98	98	99	100	101	102	103	103	103	103	102	101	99	99	99	100	100	98	95	91	87	83	80	76	70	64	57	50	39	31	27	27	23	12	4	2	1	0	0	0	0	0	0	0	0	0	0	0	0	0	0	0	0	0	0	0	0	0	0	0	0	0	0	0	0	0	0	0	0	0	0	0	0	0	0	0	0	0	0	0	0	0	0	0	0	0	0	0	0	0	0	0	0	0	0	0	0	0	0	0	0	0	0	0	0	0	0	0	0	0	0	0	0	0	0	0	0	0	0	0	0	0	0	0	0	0	0	0	0	0	0	0	0	0	0	0	0	0	0	0	0	0	0	0	0	0	0	0	0	0	0	0	0	0	0	0	0	0	0	0	0	0	0	0	0	0	0	0	0	0	0	0	0	0	0	0	0	0	0	0	0	0	0	0	0	0	0	0	0	0	0	0	0	0	0	0	0	0	0	0	0	0	0	0	0	0	0	0	0	0	0	0	0	0	0
83	82	81	80	79	77	76	75	75	76	78	81	84	86	88	91	93	96	98	101	103	105	107	109	111	112	114	116	118	119	120	121	123	124	125	127	129	130	132	133	133	133	132	130	130	131	132	133	134	135	137	139	140	142	143	145	147	148	150	150	150	149	149	150	152	151	151	151	153	154	155	156	157	159	161	162	163	163	163	162	162	161	161	160	158	158	157	158	158	159	160	162	163	164	164	164	163	161	160	158	157	156	155	154	153	152	151	149	148	147	147	148	150	149	148	148	148	148	148	148	148	148	148	149	150	151	152	152	153	153	153	154	155	156	157	157	158	159	159	159	159	160	161	162	163	165	167	169	172	174	175	175	175	176	176	177	178	179	181	182	184	185	185	184	182	181	178	176	173	170	168	166	164	162	160	158	155	153	150	148	146	144	142	140	138	136	133	130	127	124	122	118	115	112	109	106	103	100	96	93	89	86	83	79	76	72	68	64	61	58	58	59	60	61	63	64	64	64	65	67	69	71	72	73	73	73	73	74	76	80	83	86	89	90	92	92	92	91	90	89	88	89	90	92	94	97	100	103	106	107	109	111	113	115	116	118	120	121	123	126	128	130	132	133	134	135	137	138	137	135	133	132	132	133	133	134	135	137	138	138	139	141	142	144	145	149	154	157	159	163	165	167	169	170	172	174	177	180	183	185	188	191	193	196	200	203	206	207	209	210	213	216	219	222	225	228	232	236	239	242	246	250	253	256	259	262	265	269	272	276	280	285	290	295	303	312	317	322	322	317	312	309	306	303	301	297	295	294	294	294	293	294	296	299	302	306	308	309	310	310	310	310	311	311	310	309	309	309	309	311	313	314	315	315	315	314	312	310	308	307	306	305	304	301	298	296	294	292	291	289	288	289	289	289	288	287	284	283	286	292	295	295	297	298	299	301	304	309	312	312	312	309	305	300	295	289	284	279	273	269	265	261	257	254	253	248	243	241	241	242	243	243	244	244	243	241	239	239	240	240	240	239	238	237	235	234	234	235	235	234	233	232	230	228	225	225	226	227	227	226	223	225	230	232	234	233	232	229	227	226	225	226	229	231	231	232	232	231	231	231	233	236	240	241	241	240	240	239	239	239	237	235	234	233	231	230	229	228	229	229	229	229	230	233	237	239	240	239	238	234	229	226	223	220	218	216	216	217	218	217	216	216	217	220	223	226	228	230	232	235	238	242	246	249	251	252	252	250	248	247	247	248	250	254	257	260	262	264	266	268	270	273	275	276	276	275	273	270	267	264	260	256	253	250	247	245	243	241	240	238	237	236	235	234	233	231	231	230	228	227	225	224	223	222	221	220	220	219	218	217	216	215	214	213	212	210	210	209	208	207	205	203	200	198	198	198	200	202	202	202	202	204	204	204	203	204	204	205	204	203	201	199	197	196	195	194	195	196	198	199	199	198	195	192	190	188	186	184	183	181	178	175	173	171	170	168	166	164	161	160	158	156	155	153	150	147	145	143	142	142	143	144	143	143	143	145	146	146	145	144	143	142	140	139	138	137	137	135	133	131	129	126	123	121	117	115	114	113	114	115	117	118	119	120	121	121	121	121	121	121	120	119	118	118	116	116	115	115	115	114	112	111	110	108	107	106	105	103	102	100	97	94	90	87	83	79	75	71	67	63	60	57	55	56	59	61	64	67	72	75	78	79	78	78	80	81	81	82	84	88	92	96	98	99	98	97	95	96	96	97	96	94	94	97	101	104	107	110	112	113	112	111	109	107	105	102	99	96	94	93	93	94	95	96	96	97	98	99	99	100	101	103	104	105	105	105	104	103	102	102	102	100	97	93	89	85	81	78	74	68	62	56	51	43	36	31	28	24	12	4	3	2	0	0	0	0	0	0	0	0	0	0	0	0	0	0	0	0	0	0	0	0	0	0	0	0	0	0	0	0	0	0	0	0	0	0	0	0	0	0	0	0	0	0	0	0	0	0	0	0	0	0	0	0	0	0	0	0	0	0	0	0	0	0	0	0	0	0	0	0	0	0	0	0	0	0	0	0	0	0	0	0	0	0	0	0	0	0	0	0	0	0	0	0	0	0	0	0	0	0	0	0	0	0	0	0	0	0	0	0	0	0	0	0	0	0	0	0	0	0	0	0	0	0	0	0	0	0	0	0	0	0	0	0	0	0	0	0	0	0	0	0	0	0	0	0	0	0	0	0	0	0	0	0	0	0	0	0	0	0	0	0	0	0	0	0	0	0	0	0	0	0	0	0	0	0	0	0	0	0
86	85	83	82	80	78	77	76	76	77	79	81	84	86	89	91	93	95	98	101	103	105	107	109	110	112	114	116	118	120	121	123	124	126	127	128	130	132	133	134	135	135	134	132	132	133	134	135	136	137	139	140	142	144	145	147	149	151	152	152	152	151	150	151	152	152	152	152	153	154	156	157	159	161	162	163	165	165	165	164	164	163	162	161	160	159	158	159	159	159	161	162	163	165	165	165	165	163	162	160	159	158	157	156	155	154	153	151	150	148	148	149	151	150	149	149	149	149	149	149	149	150	151	151	152	153	153	154	154	155	155	155	156	157	158	158	159	159	160	160	160	161	162	163	164	166	168	171	173	175	177	177	178	177	177	178	178	179	180	182	183	184	185	184	183	181	179	176	174	171	169	168	166	163	161	159	156	153	151	149	146	144	142	140	138	136	133	130	127	124	122	119	115	112	109	107	104	101	97	93	90	86	83	80	76	72	68	64	61	59	58	58	59	60	62	63	63	64	65	66	68	70	71	72	72	72	71	72	75	79	83	87	89	91	92	92	91	90	88	85	85	87	89	92	95	97	99	102	104	106	107	109	110	112	114	115	117	119	121	124	127	128	129	130	131	133	135	135	134	132	130	129	129	131	132	133	134	134	135	136	138	140	142	144	147	150	155	158	162	166	168	170	171	173	175	176	178	181	184	188	191	194	196	199	202	206	208	209	210	212	214	216	219	222	225	228	232	235	239	243	247	251	255	258	262	265	268	271	274	278	282	286	292	297	304	311	316	319	319	313	307	304	302	300	298	294	292	290	291	291	291	292	295	297	300	302	304	305	306	306	307	307	306	306	305	305	304	304	305	307	309	310	311	311	312	311	309	307	305	303	302	300	299	297	295	292	290	288	286	284	283	283	282	281	281	280	279	278	281	285	287	289	291	292	295	297	300	303	305	305	305	303	299	296	292	287	282	276	272	268	264	259	255	253	251	247	243	240	238	238	239	239	240	240	239	236	234	235	236	236	234	234	233	231	229	229	230	230	229	228	227	225	222	220	218	219	221	222	222	222	221	222	224	227	228	228	227	226	224	223	222	222	224	226	227	228	228	228	228	229	230	233	236	237	237	236	234	234	234	234	233	232	231	230	228	227	226	225	226	226	226	227	228	231	234	236	237	236	234	231	227	224	221	217	215	214	213	214	214	213	212	213	216	218	221	224	226	229	232	235	238	242	245	248	249	250	249	248	246	245	245	248	251	254	257	259	260	262	264	266	269	272	274	276	276	276	273	270	266	263	259	256	252	250	247	246	244	243	241	239	237	236	236	235	234	233	233	232	231	230	228	227	226	225	223	222	222	221	220	219	218	217	215	214	212	212	211	211	210	209	207	204	201	200	200	200	202	203	204	204	205	205	206	206	206	206	206	206	205	204	203	202	200	199	197	196	196	198	200	201	202	200	197	194	191	190	188	186	184	182	179	177	175	173	171	169	167	164	162	159	158	156	154	152	149	146	144	144	143	144	144	145	145	145	145	147	148	148	148	147	145	144	142	141	139	139	138	136	134	132	130	127	124	121	118	116	115	115	115	116	117	118	120	121	122	123	123	123	123	122	122	121	120	119	118	117	117	116	116	115	113	112	111	110	108	107	106	105	103	101	98	94	90	87	83	79	75	71	67	63	60	57	54	55	57	59	62	66	70	72	75	76	75	74	76	78	80	81	83	87	91	93	95	96	96	94	93	93	94	94	93	93	94	97	100	103	107	109	111	112	112	110	108	106	103	100	97	94	92	90	91	92	93	94	95	96	97	97	98	98	99	101	103	105	107	107	107	106	105	104	103	100	96	91	87	83	80	76	72	66	61	56	50	44	39	32	28	23	12	5	4	2	1	0	0	0	0	0	0	0	0	0	0	0	0	0	0	0	0	0	0	0	0	0	0	0	0	0	0	0	0	0	0	0	0	0	0	0	0	0	0	0	0	0	0	0	0	0	0	0	0	0	0	0	0	0	0	0	0	0	0	0	0	0	0	0	0	0	0	0	0	0	0	0	0	0	0	0	0	0	0	0	0	0	0	0	0	0	0	0	0	0	0	0	0	0	0	0	0	0	0	0	0	0	0	0	0	0	0	0	0	0	0	0	0	0	0	0	0	0	0	0	0	0	0	0	0	0	0	0	0	0	0	0	0	0	0	0	0	0	0	0	0	0	0	0	0	0	0	0	0	0	0	0	0	0	0	0	0	0	0	0	0	0	0	0	0	0	0	0	0	0	0	0	0	0	0	0	0	0
88	87	86	83	80	79	79	79	79	80	80	82	84	87	90	92	94	96	98	100	102	104	106	108	110	112	114	116	118	120	122	124	126	127	128	130	131	133	134	136	136	136	136	135	134	135	135	136	137	138	140	142	144	145	147	149	151	152	154	154	154	153	152	152	153	152	152	153	154	156	157	159	161	162	164	165	166	167	167	166	166	165	164	162	161	160	160	159	159	160	161	162	164	165	166	167	166	165	163	162	160	159	159	158	158	156	155	153	151	150	148	150	152	151	150	150	150	151	151	151	151	152	153	153	153	153	154	155	156	156	157	157	157	158	159	159	160	160	161	161	161	162	163	165	166	167	169	172	174	176	178	179	180	180	180	180	180	180	181	182	183	184	185	184	183	181	179	177	174	172	171	169	167	165	162	159	157	154	152	149	146	144	141	140	138	135	133	130	127	125	122	119	115	112	110	107	105	101	97	93	90	87	84	80	76	72	67	64	61	58	58	57	57	58	60	62	62	63	64	66	67	69	70	70	70	70	71	71	73	77	82	86	89	91	92	91	90	88	85	83	84	86	89	92	95	96	98	99	101	103	105	107	108	109	111	113	115	117	120	123	125	126	126	127	128	131	133	133	131	129	128	127	128	129	130	131	131	132	134	136	138	140	143	146	149	153	157	161	164	167	169	171	173	174	175	176	178	180	184	188	191	193	196	199	202	206	209	210	211	212	214	217	219	222	225	228	232	236	239	243	248	253	257	261	264	267	271	273	276	280	283	288	294	299	305	310	315	316	313	308	302	301	299	297	294	291	289	287	287	288	290	291	293	295	297	299	300	301	302	303	303	303	302	302	301	300	300	300	301	303	305	306	307	307	307	307	306	304	302	299	297	295	295	294	292	290	287	284	281	280	280	278	276	276	276	275	273	274	277	281	283	285	286	287	290	293	295	297	300	300	298	297	295	292	289	284	279	274	269	265	261	258	255	253	251	247	244	240	237	236	235	235	236	236	235	231	229	230	232	231	229	229	228	226	224	223	222	219	216	220	220	217	213	211	212	214	216	217	217	217	217	218	219	221	222	222	222	222	221	220	220	221	221	222	224	224	224	223	224	226	228	230	232	232	232	230	229	229	230	229	229	228	228	227	225	224	223	223	223	223	223	224	225	228	231	233	234	233	231	228	223	220	217	213	212	212	211	211	211	210	210	212	215	217	220	223	225	228	231	235	238	241	244	246	247	247	246	245	244	243	244	247	250	252	254	256	258	260	262	265	268	270	273	275	276	276	273	270	266	262	259	255	252	250	249	247	246	244	242	240	238	238	237	237	236	235	235	235	234	232	231	230	229	227	225	224	223	223	222	221	220	218	216	215	214	213	214	213	212	210	207	205	203	202	202	202	203	205	207	207	207	208	208	209	208	208	207	207	207	206	205	204	202	200	199	198	198	199	201	203	204	202	199	196	194	191	189	187	186	183	181	179	177	174	172	169	167	164	161	159	157	155	153	150	148	147	146	146	145	145	146	146	146	146	147	148	150	150	150	149	148	145	143	142	140	139	138	136	134	132	130	128	125	122	119	117	116	116	117	118	118	119	121	122	123	124	124	124	124	124	123	122	121	120	119	119	118	118	117	116	114	113	112	111	110	108	107	105	104	101	98	94	90	87	84	79	75	71	67	64	60	57	55	54	56	58	61	64	67	70	71	72	72	71	73	76	79	81	83	86	89	91	92	93	93	91	90	90	91	92	92	92	94	96	99	102	106	108	110	111	111	110	108	105	102	99	95	92	90	88	88	89	90	91	93	94	95	95	95	96	97	99	102	104	106	107	108	107	107	105	102	98	94	89	85	81	77	73	69	64	60	55	49	43	37	30	25	21	13	5	4	2	0	0	0	0	0	0	0	0	0	0	0	0	0	0	0	0	0	0	0	0	0	0	0	0	0	0	0	0	0	0	0	0	0	0	0	0	0	0	0	0	0	0	0	0	0	0	0	0	0	0	0	0	0	0	0	0	0	0	0	0	0	0	0	0	0	0	0	0	0	0	0	0	0	0	0	0	0	0	0	0	0	0	0	0	0	0	0	0	0	0	0	0	0	0	0	0	0	0	0	0	0	0	0	0	0	0	0	0	0	0	0	0	0	0	0	0	0	0	0	0	0	0	0	0	0	0	0	0	0	0	0	0	0	0	0	0	0	0	0	0	0	0	0	0	0	0	0	0	0	0	0	0	0	0	0	0	0	0	0	0	0	0	0	0	0	0	0	0	0	0	0	0	0	0	0	0	0	0
91	90	88	85	81	80	80	80	81	81	81	82	84	87	90	92	93	95	97	99	102	104	106	108	110	112	114	116	118	120	122	124	126	128	129	131	132	134	136	137	138	138	138	138	137	137	137	138	139	140	141	143	145	147	149	151	153	154	155	155	155	154	154	154	153	153	153	154	155	157	159	161	162	164	165	167	167	168	169	169	168	167	166	164	163	162	161	160	160	161	161	162	164	165	166	167	167	166	164	163	162	162	161	161	160	158	156	155	153	150	149	151	153	152	150	150	151	151	151	152	153	154	155	155	154	154	155	156	157	158	158	158	159	159	160	161	161	162	162	162	163	163	165	166	167	169	171	173	175	177	179	181	181	181	181	181	181	181	181	182	183	184	185	184	183	182	179	177	175	174	172	170	168	165	163	160	158	155	152	149	147	144	142	140	138	136	133	131	128	125	122	119	116	113	110	108	105	102	98	94	91	88	84	80	76	72	67	63	60	56	56	57	56	57	58	60	62	62	64	65	66	67	68	69	69	69	70	71	73	77	81	85	88	90	91	90	88	85	82	81	82	85	89	92	94	95	96	97	98	100	102	104	105	107	109	111	114	116	118	120	122	122	123	125	127	130	131	131	129	127	126	126	127	128	128	129	129	131	134	137	139	141	144	148	152	155	159	162	165	168	170	172	173	174	174	175	176	178	181	186	189	191	193	196	200	204	207	209	209	209	212	216	219	222	225	228	232	236	239	243	248	253	258	262	265	269	272	275	278	281	285	289	295	300	305	309	312	311	304	299	298	297	296	294	291	288	285	284	284	286	288	289	291	293	294	295	296	297	298	299	299	299	299	298	298	297	297	297	297	298	301	302	303	302	302	302	301	300	298	296	293	292	292	291	289	286	283	280	277	276	276	273	271	271	272	270	269	272	274	277	279	281	282	284	286	289	290	292	294	295	294	293	291	289	285	280	275	270	265	262	259	256	253	251	249	246	243	239	236	235	233	233	233	232	230	227	223	224	226	226	226	226	225	222	219	214	213	209	208	213	213	211	208	206	206	208	210	211	212	211	211	212	214	214	214	215	215	215	215	216	217	219	218	219	220	221	220	219	220	222	225	227	228	228	227	226	225	225	225	225	225	226	225	224	222	220	219	219	220	220	220	220	221	225	228	230	232	231	228	224	219	216	212	209	209	209	208	208	208	207	207	210	213	215	218	221	224	227	231	234	237	240	242	243	244	244	244	243	242	242	243	245	248	250	252	254	256	258	260	263	266	269	271	274	276	276	274	270	266	262	259	256	253	252	250	249	247	245	242	240	240	240	239	238	237	237	237	237	236	234	233	232	230	228	227	226	225	224	223	222	221	219	217	215	215	216	216	215	213	211	208	206	204	204	204	204	205	207	209	210	210	210	210	210	210	210	209	209	208	208	207	206	204	202	200	199	200	201	203	205	206	204	201	198	196	193	191	189	187	184	182	180	178	175	172	169	166	164	161	159	157	155	152	150	149	148	149	148	147	147	146	147	148	148	149	150	151	152	152	151	149	146	144	142	141	139	137	135	134	132	130	127	125	122	119	118	117	118	119	119	120	121	122	123	124	125	125	125	125	125	125	124	123	122	121	120	119	119	118	116	115	115	113	112	111	110	108	106	104	101	97	94	90	88	84	80	76	72	68	64	61	57	55	54	54	56	59	61	64	66	66	67	68	69	72	75	78	81	83	86	87	88	89	89	89	88	86	86	88	89	90	91	93	96	99	102	105	108	110	111	111	109	107	104	101	98	94	91	88	86	85	85	86	89	91	91	92	92	92	92	95	98	100	103	105	107	108	108	107	104	100	96	92	88	83	79	75	70	66	63	58	52	46	39	33	27	23	18	10	5	3	1	0	0	0	0	0	0	0	0	0	0	0	0	0	0	0	0	0	0	0	0	0	0	0	0	0	0	0	0	0	0	0	0	0	0	0	0	0	0	0	0	0	0	0	0	0	0	0	0	0	0	0	0	0	0	0	0	0	0	0	0	0	0	0	0	0	0	0	0	0	0	0	0	0	0	0	0	0	0	0	0	0	0	0	0	0	0	0	0	0	0	0	0	0	0	0	0	0	0	0	0	0	0	0	0	0	0	0	0	0	0	0	0	0	0	0	0	0	0	0	0	0	0	0	0	0	0	0	0	0	0	0	0	0	0	0	0	0	0	0	0	0	0	0	0	0	0	0	0	0	0	0	0	0	0	0	0	0	0	0	0	0	0	0	0	0	0	0	0	0	0	0	0	0	0	0	0	0	0
93	91	90	87	83	81	80	80	82	83	82	82	84	86	89	91	93	95	97	99	102	104	106	108	110	112	114	116	118	120	122	125	126	128	130	131	133	135	137	138	139	140	140	140	140	139	139	140	141	141	143	145	147	149	151	153	155	156	157	157	156	156	155	155	154	154	154	155	156	157	159	162	164	166	167	168	169	170	170	170	170	168	167	165	164	163	162	162	161	161	162	163	164	165	166	167	167	167	166	165	164	164	163	162	161	159	158	156	154	151	150	151	153	151	150	150	151	152	152	153	154	155	156	157	156	155	156	157	158	159	160	160	160	161	161	162	163	163	164	164	164	165	166	167	169	170	172	174	176	178	181	182	183	183	183	183	183	183	183	183	184	185	185	185	184	182	180	178	177	175	173	171	168	166	164	161	158	155	152	150	147	144	142	140	138	136	134	131	128	125	122	119	116	113	111	108	105	102	99	95	92	88	84	80	76	72	68	64	60	55	55	56	56	56	57	59	60	62	63	64	65	66	67	68	68	68	69	71	73	76	80	84	87	88	89	88	85	81	79	79	81	84	88	91	93	93	94	95	96	98	100	101	103	105	108	110	112	115	116	118	119	120	122	124	127	129	129	128	127	125	124	124	125	126	126	127	129	133	137	139	141	143	146	149	153	156	159	163	166	168	170	171	171	171	171	172	173	175	179	183	185	187	190	193	197	200	203	204	204	206	209	213	216	219	223	227	231	234	238	242	247	251	257	262	266	269	273	275	278	282	286	290	295	301	305	308	308	305	297	293	293	293	292	290	287	284	281	281	282	284	286	287	289	290	291	291	292	292	294	295	296	295	295	295	295	294	293	293	294	294	296	298	298	298	298	298	297	296	294	292	291	290	289	287	285	282	279	276	274	271	270	268	267	266	266	265	266	269	272	273	275	277	278	280	282	284	285	287	290	290	290	289	287	284	281	276	272	266	262	259	257	255	251	248	245	243	241	237	234	233	231	230	229	227	226	223	220	219	220	221	222	222	220	217	214	208	206	205	206	208	207	205	202	201	201	202	202	205	209	208	207	209	210	208	207	208	209	208	208	208	209	212	214	215	217	217	217	217	218	220	222	223	224	224	224	222	221	220	220	221	222	223	223	221	219	215	215	216	217	217	217	217	219	222	225	227	229	228	225	221	217	213	208	206	205	205	205	205	205	204	205	207	210	213	215	219	222	226	230	233	236	238	240	240	241	241	241	241	240	241	242	244	246	248	250	252	254	256	259	262	264	267	270	273	275	275	274	271	267	263	260	257	255	253	252	250	247	245	243	242	242	242	241	239	238	238	239	239	238	236	235	233	231	230	229	228	227	226	225	223	222	220	218	217	217	218	217	216	214	212	210	207	206	206	207	207	207	208	210	212	213	213	213	212	212	211	211	211	210	209	208	207	206	204	202	201	201	203	205	206	207	206	203	200	198	195	193	190	187	185	182	180	177	175	172	169	167	165	163	160	158	156	153	152	151	151	151	150	149	148	147	148	149	150	150	151	152	152	152	151	148	146	144	141	140	138	136	134	132	130	128	126	124	122	120	120	120	120	121	122	122	122	123	124	125	126	126	127	127	126	126	125	124	123	122	121	120	119	118	117	117	116	114	113	112	110	108	106	104	101	97	94	91	88	85	81	77	73	69	65	61	57	54	53	53	55	57	58	61	62	61	63	66	69	72	75	78	80	82	83	84	84	85	85	84	84	84	84	86	87	89	91	93	97	99	102	104	107	109	110	110	109	106	103	100	97	94	91	88	86	85	83	84	86	88	89	89	88	89	91	93	97	99	102	104	106	107	108	106	103	99	95	91	86	82	77	73	68	64	61	55	48	42	36	30	25	20	13	6	5	3	1	0	0	0	0	0	0	0	0	0	0	0	0	0	0	0	0	0	0	0	0	0	0	0	0	0	0	0	0	0	0	0	0	0	0	0	0	0	0	0	0	0	0	0	0	0	0	0	0	0	0	0	0	0	0	0	0	0	0	0	0	0	0	0	0	0	0	0	0	0	0	0	0	0	0	0	0	0	0	0	0	0	0	0	0	0	0	0	0	0	0	0	0	0	0	0	0	0	0	0	0	0	0	0	0	0	0	0	0	0	0	0	0	0	0	0	0	0	0	0	0	0	0	0	0	0	0	0	0	0	0	0	0	0	0	0	0	0	0	0	0	0	0	0	0	0	0	0	0	0	0	0	0	0	0	0	0	0	0	0	0	0	0	0	0	0	0	0	0	0	0	0	0	0	0	0	0	0	0
94	93	91	89	86	83	80	80	81	83	83	83	84	86	88	91	93	95	98	100	103	105	107	109	110	112	114	116	118	120	123	125	126	128	130	132	134	136	138	139	141	141	142	142	142	141	141	142	143	143	144	146	149	151	153	155	156	158	158	158	158	157	157	157	156	156	156	156	157	158	160	163	165	167	168	169	170	171	171	171	170	169	168	166	165	164	163	163	162	162	162	163	164	165	166	167	168	167	167	166	166	165	165	164	162	160	159	157	155	153	152	152	152	151	150	150	152	153	153	154	155	156	157	157	157	157	157	158	159	160	161	161	162	162	163	163	164	165	165	165	166	166	167	168	170	171	173	175	177	179	181	183	184	184	185	185	185	185	185	184	185	185	186	185	184	183	181	180	178	176	174	172	170	167	165	162	159	156	153	150	147	145	142	140	138	136	134	131	129	126	123	120	117	114	111	109	106	103	100	96	92	89	85	81	77	72	68	64	60	56	54	55	55	55	56	58	59	61	62	63	64	65	66	66	67	68	69	71	74	76	79	82	85	86	87	86	82	79	77	77	80	83	87	89	90	90	91	92	94	95	97	99	100	103	106	109	111	113	114	115	116	119	122	124	126	128	128	126	124	123	123	123	124	124	126	128	131	135	139	141	143	145	148	150	154	157	159	162	165	166	167	168	168	168	168	168	170	174	177	180	182	184	187	190	193	197	199	199	200	203	207	211	214	216	220	224	228	231	236	240	245	250	256	261	264	268	272	274	278	282	285	289	294	300	303	305	304	301	293	288	288	288	288	286	283	281	279	278	279	281	284	286	287	288	288	288	288	289	291	292	292	292	291	291	290	289	288	289	290	291	291	292	293	294	294	294	293	291	290	290	289	287	286	283	280	277	275	272	269	266	264	263	263	261	260	261	263	266	268	269	271	273	275	276	278	279	281	283	286	288	287	285	283	280	276	271	266	261	258	256	254	252	249	246	243	241	238	235	232	231	229	227	225	224	222	221	218	216	215	215	216	216	215	214	210	205	203	203	202	201	200	198	196	195	196	197	197	199	203	204	204	205	204	202	201	203	204	203	203	203	203	205	209	210	211	212	213	215	216	218	219	220	220	221	220	219	217	216	216	217	219	219	219	218	215	212	211	212	213	213	214	215	217	220	222	224	225	225	222	219	215	211	206	203	203	203	203	203	202	202	202	204	207	211	214	217	221	225	228	231	234	236	237	238	238	238	238	238	239	239	241	242	244	246	248	250	252	255	258	261	263	266	268	271	273	274	273	271	268	264	261	259	257	255	252	250	247	245	244	244	245	244	242	240	239	240	240	240	239	238	236	234	232	231	230	229	228	227	226	225	223	221	218	218	219	219	218	216	215	213	211	209	208	209	210	209	209	210	211	213	214	214	214	214	214	213	213	212	211	211	210	209	208	206	203	202	203	205	207	208	209	208	205	202	199	197	194	191	188	186	183	180	177	175	172	170	168	166	164	162	159	157	155	154	154	154	154	152	151	149	149	149	150	151	151	152	152	152	151	150	147	144	142	140	138	136	134	132	130	128	126	125	123	122	122	122	122	123	123	124	124	124	125	126	126	127	127	127	128	127	126	125	124	124	123	122	121	120	119	118	117	117	115	114	112	109	107	105	103	100	97	94	91	88	85	81	77	72	68	64	60	57	54	53	53	54	54	56	58	59	59	61	65	68	71	74	76	79	80	80	80	80	80	80	80	80	81	83	85	87	89	91	94	97	100	102	104	107	109	110	110	108	106	102	99	96	94	91	89	87	85	84	83	84	85	86	86	87	88	91	94	97	100	102	103	105	107	107	106	102	98	94	90	85	80	76	70	65	62	58	52	45	39	34	29	23	18	11	6	5	4	2	0	0	0	0	0	0	0	0	0	0	0	0	0	0	0	0	0	0	0	0	0	0	0	0	0	0	0	0	0	0	0	0	0	0	0	0	0	0	0	0	0	0	0	0	0	0	0	0	0	0	0	0	0	0	0	0	0	0	0	0	0	0	0	0	0	0	0	0	0	0	0	0	0	0	0	0	0	0	0	0	0	0	0	0	0	0	0	0	0	0	0	0	0	0	0	0	0	0	0	0	0	0	0	0	0	0	0	0	0	0	0	0	0	0	0	0	0	0	0	0	0	0	0	0	0	0	0	0	0	0	0	0	0	0	0	0	0	0	0	0	0	0	0	0	0	0	0	0	0	0	0	0	0	0	0	0	0	0	0	0	0	0	0	0	0	0	0	0	0	0	0	0	0	0	0	0	0	0
96	95	94	92	89	85	82	80	81	82	82	83	84	86	88	91	94	97	100	102	104	106	108	110	111	112	114	116	118	120	123	125	126	128	130	132	135	137	139	141	142	143	144	144	144	143	143	144	144	145	145	147	149	152	154	156	158	159	160	160	160	159	159	159	159	158	157	157	158	159	161	163	165	167	169	170	171	171	171	171	170	169	168	167	166	165	164	164	163	163	163	164	164	165	166	167	168	168	168	167	167	166	166	164	163	161	159	158	157	155	154	154	153	152	150	151	152	153	154	155	155	156	157	158	158	159	159	159	159	161	162	163	163	164	164	165	166	166	167	167	167	168	169	170	171	172	174	176	178	180	182	183	184	185	186	186	186	186	186	186	186	186	186	186	185	184	183	181	180	178	175	173	170	168	165	163	160	156	153	150	148	145	143	140	138	136	134	132	130	127	124	121	118	115	112	110	106	103	100	97	93	89	85	81	77	73	68	64	59	55	53	54	54	54	55	56	58	60	61	61	62	63	64	65	66	67	69	71	73	75	78	80	82	84	84	83	79	77	76	76	78	82	85	87	87	86	87	89	91	93	94	97	99	101	104	107	108	110	111	113	116	119	122	124	125	126	126	124	122	121	122	122	123	124	126	129	133	136	139	142	144	146	148	150	153	156	159	161	163	164	164	164	164	164	164	165	168	172	175	177	178	180	184	187	190	192	194	195	197	201	205	208	211	214	217	222	225	229	234	239	244	249	255	259	261	264	269	273	277	281	285	289	294	298	300	301	299	295	287	284	284	283	283	282	280	278	276	275	276	278	281	283	285	285	285	285	285	286	287	288	289	289	288	287	285	284	284	285	287	288	287	288	289	290	290	290	288	287	286	287	286	284	281	278	275	272	270	267	265	262	260	260	259	257	256	257	259	262	263	265	267	269	271	273	274	275	276	279	283	284	283	281	279	276	272	264	258	256	254	252	250	248	245	242	240	237	235	232	230	229	227	225	222	221	220	219	216	213	211	212	212	212	213	212	208	203	201	199	197	195	193	192	191	191	192	194	194	195	196	198	199	199	197	196	196	197	199	199	200	200	201	203	205	205	205	207	208	209	212	214	216	217	218	217	216	215	213	212	212	214	215	216	216	216	214	211	208	209	209	210	211	213	216	218	219	221	222	222	220	217	213	209	205	202	201	201	201	201	201	201	201	202	205	209	213	216	220	223	227	229	231	233	234	235	235	235	235	236	237	239	240	243	245	247	248	250	251	254	257	260	263	265	267	269	272	273	273	271	268	266	263	261	259	256	253	250	247	246	246	247	247	246	244	241	241	241	242	241	240	238	237	235	233	232	231	230	228	228	227	226	224	221	219	219	220	220	219	217	215	214	213	211	211	212	212	212	211	212	213	215	216	216	217	216	216	215	215	214	213	212	212	210	209	207	204	204	205	207	209	210	210	210	207	204	201	198	195	192	190	186	183	180	178	175	174	172	169	167	165	162	160	158	157	156	156	157	156	154	152	151	151	151	152	152	152	153	153	152	151	149	145	143	140	138	136	134	132	131	129	127	126	125	124	124	123	124	124	125	126	127	127	127	127	127	128	128	128	128	128	128	127	126	125	124	123	122	121	120	120	119	118	116	115	113	110	107	105	104	102	99	96	93	90	86	83	79	75	71	67	64	61	58	55	54	53	53	53	54	56	57	58	60	64	67	69	72	74	76	77	77	75	75	75	76	77	77	78	82	85	87	89	92	95	98	100	102	104	107	109	110	109	108	105	102	99	96	94	92	90	88	86	84	82	82	83	84	85	87	89	92	95	98	100	102	103	105	106	107	105	101	97	93	88	84	79	74	68	63	60	55	49	44	39	34	29	22	16	10	6	6	4	2	0	0	0	0	0	0	0	0	0	0	0	0	0	0	0	0	0	0	0	0	0	0	0	0	0	0	0	0	0	0	0	0	0	0	0	0	0	0	0	0	0	0	0	0	0	0	0	0	0	0	0	0	0	0	0	0	0	0	0	0	0	0	0	0	0	0	0	0	0	0	0	0	0	0	0	0	0	0	0	0	0	0	0	0	0	0	0	0	0	0	0	0	0	0	0	0	0	0	0	0	0	0	0	0	0	0	0	0	0	0	0	0	0	0	0	0	0	0	0	0	0	0	0	0	0	0	0	0	0	0	0	0	0	0	0	0	0	0	0	0	0	0	0	0	0	0	0	0	0	0	0	0	0	0	0	0	0	0	0	0	0	0	0	0	0	0	0	0	0	0	0	0	0	0	0	0	0	0
96	96	95	93	90	88	86	83	81	82	82	83	85	87	89	92	96	99	101	104	106	108	110	111	112	114	115	117	119	121	123	125	126	128	131	133	135	138	140	142	144	145	145	146	146	146	145	145	146	146	147	148	150	152	155	157	159	160	161	161	161	161	160	160	160	159	158	158	159	160	162	163	166	167	169	170	171	171	171	171	170	169	168	167	166	166	165	165	164	164	164	164	165	165	166	167	168	168	168	168	168	167	166	165	163	161	160	160	159	158	157	156	155	153	152	152	152	153	154	155	155	156	157	158	159	160	160	160	160	161	162	163	164	165	166	167	167	168	169	169	169	170	171	172	173	174	175	177	179	181	182	184	185	186	187	187	188	187	187	187	187	187	187	187	186	185	184	182	181	178	176	174	171	169	166	163	160	157	154	151	148	146	143	141	139	137	135	133	131	128	125	122	119	116	113	110	107	103	100	97	93	89	85	81	77	73	69	65	60	56	53	53	53	53	54	55	57	58	59	60	61	62	63	64	65	66	68	70	72	74	76	78	79	81	81	80	77	76	76	76	77	81	83	84	83	83	85	87	89	90	92	95	98	100	102	105	106	108	110	113	116	119	122	123	124	124	123	121	119	119	120	121	122	123	126	130	133	136	139	141	143	145	147	149	152	155	157	159	160	160	160	160	160	160	160	162	166	170	172	173	174	177	181	184	186	188	191	193	196	200	204	207	210	213	216	221	225	229	234	239	244	248	253	257	259	260	265	272	276	280	285	289	294	297	296	294	291	286	281	279	278	278	278	278	276	275	272	272	272	274	276	279	281	282	282	281	281	282	283	284	285	286	286	285	283	281	280	282	283	284	283	284	285	286	286	285	284	283	284	284	283	281	277	274	271	267	265	264	261	258	256	255	254	253	253	254	255	257	259	260	262	265	267	269	270	271	272	275	278	280	279	277	276	273	268	259	255	251	249	247	245	242	240	238	235	233	231	229	227	226	224	221	218	217	217	216	214	212	210	211	210	209	209	208	205	200	196	193	191	189	188	188	187	187	188	190	191	191	191	191	193	193	192	192	192	193	194	194	195	195	196	198	201	201	202	202	203	204	206	210	212	214	214	214	212	210	208	208	208	210	212	213	214	214	213	209	207	206	206	207	209	211	213	215	216	218	220	219	217	214	210	207	204	200	198	198	198	199	199	199	200	201	204	208	212	215	218	222	225	226	228	230	230	231	232	232	233	235	237	239	242	244	247	248	249	250	251	254	257	260	262	264	266	268	270	272	272	270	268	266	264	261	259	257	253	250	248	248	248	248	248	246	244	242	242	242	242	241	240	239	237	235	234	233	231	230	229	228	227	225	223	221	220	220	221	221	219	218	216	216	215	213	213	214	215	214	214	214	216	217	218	219	219	218	218	217	217	216	215	214	213	212	210	207	205	205	207	209	210	211	212	211	209	206	203	199	197	194	191	187	184	181	179	177	175	172	170	168	166	163	162	160	159	158	159	159	158	156	154	153	152	153	153	154	154	154	153	153	151	149	146	143	140	138	135	133	132	131	130	128	128	127	127	126	125	126	127	127	128	129	129	129	129	129	129	129	129	128	128	128	127	126	125	125	124	123	122	121	120	119	118	115	113	110	108	105	103	102	100	97	94	91	88	84	81	77	73	71	68	65	63	61	59	56	55	53	53	53	54	56	57	59	61	64	66	69	72	73	73	73	71	70	71	71	73	75	77	81	84	87	89	92	94	97	100	102	104	107	109	109	109	108	105	102	98	96	94	92	90	88	86	84	82	81	81	82	84	87	89	93	96	98	100	102	104	105	106	106	103	100	95	91	87	82	78	74	68	62	58	54	49	44	39	34	28	22	14	8	6	5	4	2	0	0	0	0	0	0	0	0	0	0	0	0	0	0	0	0	0	0	0	0	0	0	0	0	0	0	0	0	0	0	0	0	0	0	0	0	0	0	0	0	0	0	0	0	0	0	0	0	0	0	0	0	0	0	0	0	0	0	0	0	0	0	0	0	0	0	0	0	0	0	0	0	0	0	0	0	0	0	0	0	0	0	0	0	0	0	0	0	0	0	0	0	0	0	0	0	0	0	0	0	0	0	0	0	0	0	0	0	0	0	0	0	0	0	0	0	0	0	0	0	0	0	0	0	0	0	0	0	0	0	0	0	0	0	0	0	0	0	0	0	0	0	0	0	0	0	0	0	0	0	0	0	0	0	0	0	0	0	0	0	0	0	0	0	0	0	0	0	0	0	0	0	0	0	0	0	0	0
97	96	95	93	91	90	89	86	84	83	83	85	86	88	90	93	97	100	102	105	107	109	111	112	114	115	117	119	120	122	124	126	127	129	131	134	136	138	141	143	145	146	147	147	148	147	147	147	148	148	148	149	150	153	155	157	159	161	162	162	162	161	160	160	159	159	158	159	160	161	162	164	166	167	169	170	170	171	171	170	169	168	168	167	167	166	166	165	165	165	166	166	165	166	167	168	168	169	169	169	169	168	167	166	164	162	162	161	161	160	160	158	156	155	154	154	154	154	155	155	156	156	157	159	160	161	162	162	161	162	163	164	165	166	167	168	169	170	171	171	171	172	173	174	175	176	176	177	179	181	182	184	185	186	187	188	188	188	188	188	188	188	188	187	187	186	185	183	181	179	176	174	172	169	167	164	161	158	154	152	149	146	144	141	139	137	135	133	131	128	126	123	120	117	114	110	107	103	100	96	92	89	85	81	77	73	69	65	60	56	54	53	53	53	53	54	56	57	58	59	60	62	62	63	65	66	67	69	70	72	73	74	76	78	78	77	76	75	74	74	76	79	81	82	81	82	84	86	87	89	91	94	96	98	100	102	104	107	110	114	117	119	120	121	122	121	120	118	117	118	119	120	121	123	126	130	133	136	138	140	142	144	145	147	149	152	154	155	155	155	155	156	156	156	157	159	162	166	168	170	171	173	177	180	182	185	189	193	197	200	205	208	211	214	218	222	226	230	234	239	243	247	251	254	258	262	267	273	276	280	285	290	293	294	292	289	285	280	277	275	273	273	274	274	273	270	268	267	269	270	273	275	278	279	279	278	278	278	280	281	282	283	283	282	281	279	278	278	279	279	280	280	281	282	282	281	280	280	281	281	280	278	275	272	268	263	260	259	256	254	251	250	248	248	249	249	250	252	255	256	257	260	262	263	264	266	268	270	273	275	274	273	271	267	261	253	249	246	245	242	239	237	235	233	231	229	227	224	222	220	218	217	215	214	214	215	214	211	207	208	207	205	205	204	200	196	192	189	187	185	183	183	183	183	184	185	186	187	186	186	187	188	188	188	188	189	189	189	188	188	188	192	198	198	199	198	198	199	202	205	207	209	210	209	207	205	203	203	204	206	208	210	211	211	209	207	205	203	201	203	206	208	210	211	214	217	218	217	213	210	206	204	201	197	196	195	196	197	198	199	199	200	203	207	210	214	217	219	222	223	225	226	227	228	229	231	232	234	237	240	244	246	249	250	251	252	252	254	257	259	261	263	265	267	268	270	270	269	268	266	263	261	259	256	254	251	250	250	250	249	248	246	245	243	243	243	242	241	240	239	238	236	234	233	231	230	229	228	226	224	223	222	221	221	222	221	220	218	218	218	217	216	215	216	217	216	216	216	217	219	221	222	221	221	220	220	219	218	217	216	215	213	211	208	206	206	208	210	212	212	213	212	210	207	204	200	198	195	192	188	185	182	180	178	175	173	171	169	167	165	163	162	161	161	161	161	159	158	156	154	154	154	154	155	155	155	154	153	151	150	147	144	141	137	135	134	133	133	132	131	130	130	129	128	127	128	129	130	130	131	131	131	131	130	130	129	129	129	129	128	128	127	126	125	124	123	122	121	120	119	116	114	111	108	106	103	102	100	98	95	92	90	87	83	81	77	75	73	71	69	67	65	63	60	57	54	53	52	52	54	55	56	58	60	63	66	68	70	70	69	67	67	67	68	70	74	77	80	84	87	89	92	94	97	100	102	104	107	108	109	108	107	105	101	97	94	92	90	88	87	85	83	81	80	80	82	84	87	89	92	95	98	100	102	104	105	106	105	102	98	94	90	86	81	78	73	68	62	58	54	49	44	39	34	27	20	13	8	6	5	3	1	0	0	0	0	0	0	0	0	0	0	0	0	0	0	0	0	0	0	0	0	0	0	0	0	0	0	0	0	0	0	0	0	0	0	0	0	0	0	0	0	0	0	0	0	0	0	0	0	0	0	0	0	0	0	0	0	0	0	0	0	0	0	0	0	0	0	0	0	0	0	0	0	0	0	0	0	0	0	0	0	0	0	0	0	0	0	0	0	0	0	0	0	0	0	0	0	0	0	0	0	0	0	0	0	0	0	0	0	0	0	0	0	0	0	0	0	0	0	0	0	0	0	0	0	0	0	0	0	0	0	0	0	0	0	0	0	0	0	0	0	0	0	0	0	0	0	0	0	0	0	0	0	0	0	0	0	0	0	0	0	0	0	0	0	0	0	0	0	0	0	0	0	0	0	0	0	0	0
