0	0	0	0	0	0	0	0	0	0	0	0	0	0	0	0	0	0	0	0	0	0	0	0	0	0	0	0	0	0	0	0	0	0	0	0	0	0	0	0	0	0	0	0	0	0	0	0	0	0	0	0	0	0	0	0	0	0	0	0	0	0	1	1	2	3	3	3	3	2	2	2	2	2	1	1	1	0	0	0	1	1	2	2	1	0	0	0	0	0	1	1	2	2	2	2	2	1	0	0	0	0	0	0	0	0	0	0	0	0	1	2	3	3	3	2	2	2	2	1	1	1	0	0	0	0	0	0	0	0	0	0	0	0	0	0	0	0	0	0	0	0	0	0	0	0	0	0	0	0	0	0	0	0	0	0	0	0	0	0	0	0	0	0	0	0	0	0	0	0	0	0	0	0	0	0	0	0	0	0	0	0	0	0	0	0	0	0	0	0	0	0	0	0	0	0	0	0	0	0	0	0	0	0	0	0	0	0	0	0	0	0	0	0	0	0	0	0	0	0	0	0	0	0	0	0	0	0	0	0	0	0	0	0	0	0	0	0	0	0	0	0	0	0	0	0	0	0	0	0	0	0	0	0	0	0	0	0	0	0	0	0	0	0	0	0	0	0	0	0	0	0	0	0	0	0	0	0	0	0	0	0	0	0	0	0	0	0	0	0	0	0	0	0	0	0	0	0	0	0	0	0	0	0	0	0	0	0	0	0	0	0	0	0	0	0	0	0	0	0	0	0	0	0	0	0	0	0	0	0	0	0	0	0	0	0	0	0	0	0	0	0	0	0	0	0	0	0	0	0	0	0	0	0	0	0	0	0	0	0	0	0	0	0	0	0	0	0	0	0	0	0	0	0	0	0	0	0	0	0	0	0	0	0	0	0	0	0	0	0	0	0	0	0	0	0	0	0	0	0	0	0	0	0	0	0	0	0	0	0	0	0	0	0	0	0	0	0	0	0	0	0	0	0	0	0	0	0	0	1	2	2	4	5	7	9	13	16	20	23	26	29	33	37	41	44	47	50	52	55	57	60	63	66	68	71	74	78	81	84	87	91	94	96	100	104	107	110	113	118	123	127	132	136	140	144	148	151	153	154	154	154	152	150	147	144	141	139	136	133	130	127	125	123	121	118	116	114	114	114	115	115	116	116	116	116	116	116	116	117	119	121	123	126	128	130	132	134	136	138	140	141	143	144	146	148	149	149	149	148	147	146	146	144	143	141	140	138	135	133	131	129	127	125	124	123	122	121	120	120	120	117	112	109	107	107	109	111	114	115	117	117	115	115	115	116	119	122	124	126	128	131	132	133	133	131	129	127	127	127	128	130	131	133	135	137	138	139	138	138	137	136	137	139	140	139	138	136	134	132	131	131	130	130	132	133	134	135	135	135	135	134	133	133	133	133	135	135	135	135	135	136	139	142	145	147	149	151	153	155	157	159	161	164	167	170	174	178	185	191	194	195	199	205	209	211	215	219	219	219	218	217	214	210	205	200	196	194	190	185	180	177	174	172	169	165	162	158	156	154	152	150	148	146	146	148	149	150	152	153	154	154	155	156	157	156	156	157	158	158	158	159	162	167	172	175	175	175	177	179	182	184	187	190	194	198	202	207	210	213	217	221	225	228	232	235	237	240	243	246	249	251	253	255	256	255	253	251	252	253	255	257	259	260	261	263	265	266	268	269	270	274	278	281	284	287	290	292	294	297	300	303	305	307	309	310	312	313	313	313	314	315	316	317	318	319	321	322	324	326	329	331	334	336	337	338	339	340	342	344	346	348	349	350	351	352	353	353	353	352	352	351	351	351	351	351	350	349	349	348	348	347	346	345	344	343	342	340	339	337	335	331	328	326	325	323	323	323	325	326	328	330	333	336	338	340	343	347	351	356	359	361	363	363	363	363	363	365	366	367	368	370	371	372	374	376	378	379	381	382	383	384	385	386	388	389	391	393	395	398	400	403	406	409	414	417	420	423	427	429	430	430	429	427	426	425	424	423	421	420	420	419	419	418	417	417	418	419	421	421	421	421	420	421	421	421	420	420	419	418	417	415	413	412	410	410	410	410	409	408	407	406	405	406	406	405	405	405	406	406	406	406	406	407	407	407	408	409	409	409	409	409	408	408	407	406	405	404	402	400	398	397	395	394	392	391	388	386	384	382	379	377	374	372	371	369	367	365	363	361	360	358	356	353	351	350	350	350	348	347	345	344
0	0	0	0	0	0	0	0	0	0	0	0	0	0	0	0	0	0	0	0	0	0	0	0	0	0	0	0	0	0	0	0	0	0	0	0	0	0	0	0	0	0	0	0	0	0	0	0	0	0	0	0	0	0	0	0	0	0	0	0	0	0	0	1	2	2	2	2	2	2	1	1	1	1	0	0	0	0	0	0	0	0	1	1	0	0	0	0	0	0	0	0	1	1	1	1	1	0	0	0	0	0	0	0	0	0	0	0	0	0	0	2	3	3	2	2	2	1	1	0	0	0	0	0	0	0	0	0	0	0	0	0	0	0	0	0	0	0	0	0	0	0	0	0	0	0	0	0	0	0	0	0	0	0	0	0	0	0	0	0	0	0	0	0	0	0	0	0	0	0	0	0	0	0	0	0	0	0	0	0	0	0	0	0	0	0	0	0	0	0	0	0	0	0	0	0	0	0	0	0	0	0	0	0	0	0	0	0	0	0	0	0	0	0	0	0	0	0	0	0	0	0	0	0	0	0	0	0	0	0	0	0	0	0	0	0	0	0	0	0	0	0	0	0	0	0	0	0	0	0	0	0	0	0	0	0	0	0	0	0	0	0	0	0	0	0	0	0	0	0	0	0	0	0	0	0	0	0	0	0	0	0	0	0	0	0	0	0	0	0	0	0	0	0	0	0	0	0	0	0	0	0	0	0	0	0	0	0	0	0	0	0	0	0	0	0	0	0	0	0	0	0	0	0	0	0	0	0	0	0	0	0	0	0	0	0	0	0	0	0	0	0	0	0	0	0	0	0	0	0	0	0	0	0	0	0	0	0	0	0	0	0	0	0	0	0	0	0	0	0	0	0	0	0	0	0	0	0	0	0	0	0	0	0	0	0	0	0	0	0	0	0	0	0	0	0	0	0	0	0	0	0	0	0	0	0	0	0	0	0	0	0	0	0	0	0	0	0	0	0	0	0	0	0	0	0	0	0	0	1	2	2	3	5	7	10	14	17	19	22	26	29	33	37	40	44	47	49	52	54	56	59	62	65	67	70	73	77	80	83	86	89	92	94	97	101	105	107	111	116	121	126	130	135	140	144	147	150	152	153	153	153	151	150	147	143	140	138	135	132	129	126	124	122	120	118	115	113	113	112	113	113	113	113	114	114	114	114	116	117	118	121	123	125	127	129	132	134	136	137	139	140	142	144	146	147	148	148	148	147	146	145	144	143	142	140	139	136	134	133	130	126	123	122	121	121	121	119	118	118	117	113	109	107	105	106	109	112	114	115	115	115	113	113	114	115	117	120	123	124	126	128	130	130	130	129	127	125	123	123	125	127	128	130	132	133	134	135	134	134	133	133	134	135	135	135	135	134	132	130	129	128	128	128	129	130	131	132	132	132	132	132	131	131	130	130	131	132	133	133	134	135	138	141	143	146	147	148	150	152	154	156	159	163	167	169	171	175	181	187	191	193	196	202	207	209	212	214	217	218	217	216	212	208	203	198	194	191	188	184	180	176	174	171	167	164	161	159	158	159	156	151	149	148	148	149	151	152	154	155	156	156	157	159	160	161	161	162	162	160	160	160	166	171	174	176	177	178	180	183	185	187	189	192	195	198	202	206	210	213	218	222	226	229	233	237	240	243	246	249	252	255	257	259	260	259	257	256	257	258	259	261	263	264	266	268	270	271	272	273	274	276	279	282	285	288	291	294	297	299	302	305	307	309	311	312	312	313	313	313	314	315	315	316	317	318	319	320	322	325	327	330	332	334	336	337	339	340	342	343	345	346	348	349	350	351	351	352	352	351	351	351	351	351	352	352	352	351	351	351	351	351	349	349	348	347	346	344	342	340	337	333	330	328	327	326	325	325	325	326	326	328	331	336	338	339	343	348	353	358	361	363	364	365	364	363	363	364	365	366	367	368	369	370	372	374	376	378	379	381	382	384	385	386	388	390	391	394	396	398	401	404	407	410	414	418	421	425	428	431	432	431	430	428	427	426	425	424	423	423	422	422	421	420	420	420	420	422	423	423	423	423	422	422	422	421	421	420	419	418	417	415	414	413	411	410	410	410	410	408	408	408	408	409	409	407	406	406	407	407	407	407	407	408	408	408	408	409	409	409	409	408	408	407	405	404	404	402	400	398	396	395	393	391	390	389	387	385	383	381	378	376	373	371	370	368	366	364	363	362	361	358	354	351	350	348	348	349	348	346	345	344
0	0	0	0	0	0	0	0	0	0	0	0	0	0	0	0	0	0	0	0	0	0	0	0	0	0	0	0	0	0	0	0	0	0	0	0	0	0	0	0	0	0	0	0	0	0	0	0	0	0	0	0	0	0	0	0	0	0	0	0	0	0	0	0	0	1	1	1	1	0	0	0	0	0	0	0	0	0	0	0	0	0	0	0	0	0	0	0	0	0	0	0	0	0	0	0	0	0	0	0	0	0	0	0	0	0	0	0	0	0	0	1	2	3	2	2	1	0	0	0	0	0	0	0	0	0	0	0	0	0	0	0	0	0	0	0	0	0	0	0	0	0	0	0	0	0	0	0	0	0	0	0	0	0	0	0	0	0	0	0	0	0	0	0	0	0	0	0	0	0	0	0	0	0	0	0	0	0	0	0	0	0	0	0	0	0	0	0	0	0	0	0	0	0	0	0	0	0	0	0	0	0	0	0	0	0	0	0	0	0	0	0	0	0	0	0	0	0	0	0	0	0	0	0	0	0	0	0	0	0	0	0	0	0	0	0	0	0	0	0	0	0	0	0	0	0	0	0	0	0	0	0	0	0	0	0	0	0	0	0	0	0	0	0	0	0	0	0	0	0	0	0	0	0	0	0	0	0	0	0	0	0	0	0	0	0	0	0	0	0	0	0	0	0	0	0	0	0	0	0	0	0	0	0	0	0	0	0	0	0	0	0	0	0	0	0	0	0	0	0	0	0	0	0	0	0	0	0	0	0	0	0	0	0	0	0	0	0	0	0	0	0	0	0	0	0	0	0	0	0	0	0	0	0	0	0	0	0	0	0	0	0	0	0	0	0	0	0	0	0	0	0	0	0	0	0	0	0	0	0	0	0	0	0	0	0	0	0	0	0	0	0	0	0	0	0	0	0	0	0	0	0	0	0	0	0	0	0	0	0	0	0	0	0	0	0	0	0	0	0	0	0	0	0	0	0	0	0	0	0	1	2	3	5	7	10	13	16	19	21	25	28	32	36	39	43	46	48	51	53	55	58	60	63	66	68	72	76	79	81	83	87	90	92	94	98	102	106	110	116	120	125	129	134	139	143	146	148	151	152	152	152	150	149	146	143	140	137	134	131	129	126	124	122	119	117	115	113	112	111	111	111	111	111	111	111	112	113	115	116	118	120	123	125	127	129	131	133	135	137	138	139	141	142	143	144	145	145	145	145	144	143	142	141	140	139	137	135	133	131	128	124	122	120	120	120	119	118	117	114	111	108	106	104	102	104	109	112	112	113	114	113	111	111	111	113	116	119	121	123	124	126	127	128	128	126	125	122	120	119	121	123	125	127	129	130	130	131	131	130	130	131	131	132	132	132	132	132	131	128	126	124	124	125	127	128	128	129	130	129	129	129	129	129	129	128	129	130	130	131	132	134	137	139	142	143	145	146	147	149	151	154	157	162	166	167	169	173	177	183	187	190	194	200	205	207	208	210	213	216	216	214	211	206	201	197	193	189	186	183	180	176	173	170	166	164	162	161	161	162	159	154	151	151	152	151	152	154	156	158	159	159	161	163	165	166	166	167	167	164	161	162	169	174	176	177	179	181	183	186	188	191	193	195	197	200	203	206	210	214	218	222	226	230	234	238	242	246	249	252	255	258	261	263	264	263	262	262	262	262	263	265	267	269	271	274	275	276	277	278	279	279	281	284	287	290	293	296	299	302	305	308	310	312	313	313	313	312	312	312	313	314	314	315	316	317	318	319	320	322	324	327	330	332	334	336	338	339	340	342	343	344	345	346	347	348	349	349	350	350	350	350	350	351	351	352	352	353	353	353	353	353	352	351	351	351	349	348	345	341	337	334	332	330	330	330	329	327	327	327	327	328	330	334	337	340	344	350	356	360	362	364	365	365	364	363	363	364	366	366	367	368	369	369	370	372	374	376	378	379	381	382	384	386	388	390	392	394	396	399	402	405	408	412	416	419	423	427	430	432	433	433	431	429	428	428	427	426	425	425	425	425	424	423	423	422	423	424	425	425	425	425	424	423	423	422	421	420	419	418	417	416	414	413	412	411	411	411	410	409	408	408	409	411	411	408	407	406	407	407	408	408	408	408	409	409	409	409	409	409	409	408	407	406	404	403	402	401	399	397	395	393	391	389	388	386	385	383	381	379	376	374	371	369	368	367	365	363	362	361	360	357	354	353	351	347	346	347	347	346	345	343
0	0	0	0	0	0	0	0	0	0	0	0	0	0	0	0	0	0	0	0	0	0	0	0	0	0	0	0	0	0	0	0	0	0	0	0	0	0	0	0	0	0	0	0	0	0	0	0	0	0	0	0	0	0	0	0	0	0	0	0	0	0	0	0	0	0	0	0	0	0	0	0	0	0	0	0	0	0	0	0	0	0	0	0	0	0	0	0	0	0	0	0	0	0	0	0	0	0	0	0	0	0	0	0	0	0	0	0	0	0	0	1	3	3	3	2	1	0	0	0	0	0	0	0	0	0	0	0	0	0	0	0	0	0	0	0	0	0	0	0	0	0	0	0	0	0	0	0	0	0	0	0	0	0	0	0	0	0	0	0	0	0	0	0	0	0	0	0	0	0	0	0	0	0	0	0	0	0	0	0	0	0	0	0	0	0	0	0	0	0	0	0	0	0	0	0	0	0	0	0	0	0	0	0	0	0	0	0	0	0	0	0	0	0	0	0	0	0	0	0	0	0	0	0	0	0	0	0	0	0	0	0	0	0	0	0	0	0	0	0	0	0	0	0	0	0	0	0	0	0	0	0	0	0	0	0	0	0	0	0	0	0	0	0	0	0	0	0	0	0	0	0	0	0	0	0	0	0	0	0	0	0	0	0	0	0	0	0	0	0	0	0	0	0	0	0	0	0	0	0	0	0	0	0	0	0	0	0	0	0	0	0	0	0	0	0	0	0	0	0	0	0	0	0	0	0	0	0	0	0	0	0	0	0	0	0	0	0	0	0	0	0	0	0	0	0	0	0	0	0	0	0	0	0	0	0	0	0	0	0	0	0	0	0	0	0	0	0	0	0	0	0	0	0	0	0	0	0	0	0	0	0	0	0	0	0	0	0	0	0	0	0	0	0	0	0	0	0	0	0	0	0	0	0	0	0	0	0	0	0	0	0	0	0	0	0	0	0	0	0	0	0	0	0	0	0	0	0	0	0	1	2	3	4	5	8	12	15	18	20	24	27	31	35	38	42	44	47	49	52	54	56	58	61	64	66	70	74	77	79	81	84	87	90	93	96	100	104	109	114	119	124	128	132	137	141	144	147	150	151	151	151	150	148	146	143	140	137	133	131	128	125	123	121	119	117	115	113	111	110	109	109	108	108	109	110	111	113	114	116	118	120	122	124	126	127	129	132	133	135	137	138	138	139	140	140	141	141	141	141	142	141	140	139	138	138	136	134	132	129	126	123	121	120	118	118	118	117	114	110	107	105	104	102	100	102	107	110	111	112	113	112	110	109	110	112	114	118	120	121	122	123	124	125	125	124	122	120	118	117	118	119	121	124	126	127	127	127	127	128	128	129	129	129	130	130	130	130	128	125	123	121	121	123	126	127	127	127	127	127	127	127	128	128	128	128	128	127	128	129	131	133	135	138	139	140	142	144	145	147	149	151	155	159	163	164	166	169	174	179	184	188	192	197	202	204	205	207	211	214	215	213	210	205	200	196	193	189	186	184	182	178	174	170	167	166	165	164	164	164	162	157	154	155	155	154	155	157	159	161	162	163	165	167	169	170	170	170	171	169	165	164	170	176	178	179	181	184	187	189	192	195	198	199	200	203	205	208	211	214	218	222	227	231	235	239	244	248	251	254	257	260	262	265	266	266	266	266	267	267	269	271	272	274	276	279	281	282	282	283	283	284	285	287	289	292	295	299	303	306	309	311	313	313	314	314	313	312	311	311	312	312	313	314	315	316	316	317	318	319	321	323	327	330	333	334	336	337	339	340	341	342	343	344	344	345	346	347	347	347	348	348	348	349	350	351	352	354	354	354	355	355	354	354	354	353	352	351	348	344	339	336	334	333	333	334	333	331	330	329	329	329	330	333	337	341	345	351	357	361	363	364	365	365	364	364	365	366	368	368	368	369	370	370	371	372	373	375	377	378	380	382	383	385	388	390	392	394	397	400	404	407	410	414	417	421	425	428	432	434	435	434	432	430	429	429	429	428	427	427	427	427	427	426	425	425	425	426	427	427	427	426	426	425	424	423	422	421	420	419	417	416	415	413	412	412	411	411	410	409	408	408	409	410	410	409	408	408	408	408	408	409	409	409	409	410	411	410	410	409	409	409	408	406	404	402	401	400	398	396	394	392	390	388	386	384	382	381	379	376	374	370	367	366	365	364	362	361	360	359	358	356	354	353	351	347	344	344	344	344	344	344
0	0	0	0	0	0	0	0	0	0	0	0	0	0	0	0	0	0	0	0	0	0	0	0	0	0	0	0	0	0	0	0	0	0	0	0	0	0	0	0	0	0	0	0	0	0	0	0	0	0	0	0	0	0	0	0	0	0	0	0	0	0	0	0	0	0	0	0	0	0	0	0	0	0	0	0	0	0	0	0	0	0	0	0	0	0	0	0	0	0	0	0	0	0	0	0	0	0	0	0	0	0	0	0	0	0	0	0	0	0	0	2	3	3	3	2	1	0	0	0	0	0	0	0	0	0	0	0	0	0	0	0	0	0	0	0	0	0	0	0	0	0	0	0	0	0	0	0	0	0	0	0	0	0	0	0	0	0	0	0	0	0	0	0	0	0	0	0	0	0	0	0	0	0	0	0	0	0	0	0	0	0	0	0	0	0	0	0	0	0	0	0	0	0	0	0	0	0	0	0	0	0	0	0	0	0	0	0	0	0	0	0	0	0	0	0	0	0	0	0	0	0	0	0	0	0	0	0	0	0	0	0	0	0	0	0	0	0	0	0	0	0	0	0	0	0	0	0	0	0	0	0	0	0	0	0	0	0	0	0	0	0	0	0	0	0	0	0	0	0	0	0	0	0	0	0	0	0	0	0	0	0	0	0	0	0	0	0	0	0	0	0	0	0	0	0	0	0	0	0	0	0	0	0	0	0	0	0	0	0	0	0	0	0	0	0	0	0	0	0	0	0	0	0	0	0	0	0	0	0	0	0	0	0	0	0	0	0	0	0	0	0	0	0	0	0	0	0	0	0	0	0	0	0	0	0	0	0	0	0	0	0	0	0	0	0	0	0	0	0	0	0	0	0	0	0	0	0	0	0	0	0	0	0	0	0	0	0	0	0	0	0	0	0	0	0	0	0	0	0	0	0	0	0	0	0	0	0	0	0	0	0	0	0	0	0	0	0	0	0	0	0	0	0	0	0	0	0	0	0	1	2	3	4	5	7	11	14	17	20	23	26	29	33	37	40	43	45	48	50	52	55	57	59	62	64	67	71	74	76	78	81	85	88	92	95	99	103	108	113	118	122	127	130	134	138	142	146	148	149	149	149	149	147	146	143	139	136	132	129	127	124	122	120	118	116	114	112	110	108	107	106	106	107	107	108	110	112	113	115	117	119	121	123	124	126	128	130	132	133	135	136	136	136	136	136	136	137	137	138	138	138	137	137	136	135	134	132	130	128	124	121	119	118	116	115	115	114	111	108	105	102	100	98	98	100	104	108	110	111	111	110	108	108	109	110	112	114	117	118	119	121	122	123	123	122	120	118	116	116	116	117	118	120	123	124	124	124	124	125	126	126	127	127	128	128	128	127	125	122	120	118	118	120	123	125	125	124	125	125	125	125	125	125	126	127	127	126	126	128	130	132	134	135	136	138	140	142	143	145	147	149	153	157	160	161	163	166	172	178	183	187	191	195	199	202	204	205	209	213	215	213	210	205	201	197	194	191	188	186	184	182	177	173	171	171	170	169	169	166	163	159	157	158	159	158	158	159	162	164	165	166	168	170	171	172	173	174	174	173	171	168	171	177	179	181	184	187	190	192	195	198	201	203	204	207	209	212	214	216	220	223	227	231	235	240	243	248	251	254	257	259	262	265	267	268	269	269	270	272	274	276	277	278	281	283	284	285	286	287	288	289	290	292	294	296	299	302	306	309	311	313	314	314	314	313	312	311	310	310	311	311	312	313	314	315	315	316	316	317	319	321	324	328	331	333	334	335	336	337	338	339	340	341	342	342	343	343	344	345	345	346	347	348	349	350	352	353	355	355	356	356	356	356	356	355	354	353	351	347	343	340	338	337	337	338	337	335	333	332	331	331	331	333	337	342	348	353	358	361	363	364	365	365	364	365	367	368	369	370	371	371	371	371	372	373	374	375	377	378	380	382	384	386	388	390	392	394	398	401	405	408	412	415	419	423	427	430	434	436	436	435	432	431	431	432	431	430	430	429	429	429	429	428	427	427	427	428	429	429	428	428	427	426	425	424	423	422	420	419	418	416	415	414	412	412	412	411	411	410	409	409	409	410	410	409	409	409	409	409	409	409	410	410	410	410	411	410	410	410	410	410	408	407	405	403	401	399	397	395	393	391	389	387	385	382	380	378	376	374	371	367	365	363	361	360	359	358	357	356	355	354	354	353	349	345	342	342	343	344	344	344
0	0	0	0	0	0	0	0	0	0	0	0	0	0	0	0	0	0	0	0	0	0	0	0	0	0	0	0	0	0	0	0	0	0	0	0	0	0	0	0	0	0	0	0	0	0	0	0	0	0	0	0	0	0	0	0	0	0	0	0	0	0	0	0	0	0	0	0	0	0	0	0	0	0	0	0	0	0	0	0	0	0	0	0	0	0	0	0	0	0	0	0	0	0	0	0	0	0	0	0	0	0	0	0	0	0	0	0	0	0	1	2	3	3	3	2	0	0	0	0	0	0	0	0	0	0	0	0	0	0	0	0	0	0	0	0	0	0	0	0	0	0	0	0	0	0	0	0	0	0	0	0	0	0	0	0	0	0	0	0	0	0	0	0	0	0	0	0	0	0	0	0	0	0	0	0	0	0	0	0	0	0	0	0	0	0	0	0	0	0	0	0	0	0	0	0	0	0	0	0	0	0	0	0	0	0	0	0	0	0	0	0	0	0	0	0	0	0	0	0	0	0	0	0	0	0	0	0	0	0	0	0	0	0	0	0	0	0	0	0	0	0	0	0	0	0	0	0	0	0	0	0	0	0	0	0	0	0	0	0	0	0	0	0	0	0	0	0	0	0	0	0	0	0	0	0	0	0	0	0	0	0	0	0	0	0	0	0	0	0	0	0	0	0	0	0	0	0	0	0	0	0	0	0	0	0	0	0	0	0	0	0	0	0	0	0	0	0	0	0	0	0	0	0	0	0	0	0	0	0	0	0	0	0	0	0	0	0	0	0	0	0	0	0	0	0	0	0	0	0	0	0	0	0	0	0	0	0	0	0	0	0	0	0	0	0	0	0	0	0	0	0	0	0	0	0	0	0	0	0	0	0	0	0	0	0	0	0	0	0	0	0	0	0	0	0	0	0	0	0	0	0	0	0	0	0	0	0	0	0	0	0	0	0	0	0	0	0	0	0	0	0	0	0	0	0	0	0	0	0	1	2	3	4	5	7	10	14	16	19	22	25	29	32	36	39	41	43	46	49	51	53	55	57	60	62	65	68	71	74	77	80	84	88	91	95	99	103	107	112	116	120	124	128	131	135	139	143	145	147	148	149	148	146	144	141	138	134	131	128	125	123	121	119	117	115	113	112	109	107	106	105	105	105	106	108	109	110	112	114	116	118	120	121	123	125	126	128	130	132	133	134	134	134	133	132	133	133	134	135	135	135	135	135	134	133	131	130	129	126	122	119	117	115	113	111	110	109	107	105	103	100	97	96	96	99	103	107	109	109	108	107	106	107	108	109	109	111	113	115	117	119	120	121	121	121	119	116	115	114	114	113	115	117	120	120	120	120	121	121	122	123	124	125	126	126	125	124	122	120	117	116	115	116	119	122	122	121	122	123	123	123	123	123	123	124	124	125	126	128	128	130	132	133	133	135	138	140	142	143	145	147	149	153	157	158	161	166	172	178	182	186	190	194	198	201	203	205	210	214	216	216	211	207	203	199	196	194	191	188	186	185	181	176	174	174	174	174	173	169	165	162	162	163	163	163	162	163	165	167	168	170	171	172	173	175	176	177	177	177	175	174	174	177	181	183	187	190	193	195	198	201	203	205	207	210	212	214	215	218	221	225	228	231	236	239	242	246	250	252	254	257	260	263	265	267	269	271	273	274	276	277	278	280	282	285	286	288	289	291	292	293	295	297	298	300	303	306	309	311	312	313	314	313	313	312	311	310	309	309	309	310	311	312	313	314	314	314	315	316	317	320	322	326	329	331	332	333	334	335	336	337	338	339	339	339	340	341	341	342	343	344	345	347	348	349	350	352	354	356	357	358	358	358	358	357	356	355	353	351	348	345	343	342	342	342	340	339	336	334	333	333	333	334	338	344	351	355	359	362	364	365	365	365	365	366	368	369	371	372	373	373	373	373	374	375	376	377	378	380	381	383	385	387	389	391	393	395	398	402	405	409	412	416	420	425	428	432	435	437	436	435	434	433	434	434	433	433	432	432	432	431	431	431	430	430	430	430	431	431	430	430	429	427	426	425	424	423	421	420	419	417	416	414	413	413	412	412	412	411	410	410	410	410	410	409	410	411	411	410	410	410	410	410	410	410	411	410	411	411	411	410	409	407	405	403	401	399	397	395	392	390	388	386	384	381	379	377	375	372	370	366	364	362	359	358	357	356	354	353	352	352	352	351	347	342	341	341	342	343	343	344
0	0	0	0	0	0	0	0	0	0	0	0	0	0	0	0	0	0	0	0	0	0	0	0	0	0	0	0	0	0	0	0	0	0	0	0	0	0	0	0	0	0	0	0	0	0	0	0	0	0	0	0	0	0	0	0	0	0	0	0	0	0	0	0	0	0	0	0	0	0	0	0	0	0	0	0	0	0	0	0	0	0	0	0	0	0	0	0	0	0	0	0	0	0	0	0	0	0	0	0	0	0	0	0	0	0	0	0	0	0	1	2	3	3	2	1	0	0	0	0	0	0	0	0	0	0	0	0	0	0	0	0	0	0	0	0	0	0	0	0	0	0	0	0	0	0	0	0	0	0	0	0	0	0	0	0	0	0	0	0	0	0	0	0	0	0	0	0	0	0	0	0	0	0	0	0	0	0	0	0	0	0	0	0	0	0	0	0	0	0	0	0	0	0	0	0	0	0	0	0	0	0	0	0	0	0	0	0	0	0	0	0	0	0	0	0	0	0	0	0	0	0	0	0	0	0	0	0	0	0	0	0	0	0	0	0	0	0	0	0	0	0	0	0	0	0	0	0	0	0	0	0	0	0	0	0	0	0	0	0	0	0	0	0	0	0	0	0	0	0	0	0	0	0	0	0	0	0	0	0	0	0	0	0	0	0	0	0	0	0	0	0	0	0	0	0	0	0	0	0	0	0	0	0	0	0	0	0	0	0	0	0	0	0	0	0	0	0	0	0	0	0	0	0	0	0	0	0	0	0	0	0	0	0	0	0	0	0	0	0	0	0	0	0	0	0	0	0	0	0	0	0	0	0	0	0	0	0	0	0	0	0	0	0	0	0	0	0	0	0	0	0	0	0	0	0	0	0	0	0	0	0	0	0	0	0	0	0	0	0	0	0	0	0	0	0	0	0	0	0	0	0	0	0	0	0	0	0	0	0	0	0	0	0	0	0	0	0	0	0	0	0	0	0	0	0	0	0	0	0	0	2	3	4	6	7	10	14	16	19	21	24	27	31	34	37	39	42	44	47	49	51	53	55	58	60	64	67	70	73	76	79	83	87	90	94	98	103	107	111	114	117	121	125	128	132	136	140	143	145	146	147	146	145	142	139	135	132	129	126	124	122	121	119	116	114	113	111	108	106	105	103	103	103	105	107	108	109	110	112	114	117	119	121	122	124	125	127	129	131	131	131	131	131	130	129	130	131	132	133	133	133	132	132	132	130	129	128	126	124	121	117	115	113	110	108	107	106	105	104	102	99	96	95	96	98	101	105	107	107	106	105	104	104	106	107	107	108	109	112	115	117	118	119	119	119	117	114	112	112	111	111	112	115	117	118	117	117	117	118	119	120	121	122	122	123	123	122	120	118	114	112	112	113	116	118	119	119	120	121	121	121	121	122	121	121	121	123	126	127	128	128	130	131	131	132	136	139	140	141	143	145	146	150	155	157	160	165	171	177	181	185	189	192	197	200	202	206	212	217	219	218	215	210	206	202	198	196	193	191	188	187	184	180	177	176	176	176	175	170	167	164	166	168	168	167	166	167	168	170	171	173	174	175	177	178	180	180	181	181	180	178	177	180	183	186	190	193	195	197	199	202	205	207	208	211	213	214	216	219	222	225	228	232	235	237	239	242	246	248	250	252	255	259	263	265	268	270	273	273	274	276	277	279	282	284	286	288	290	292	295	297	299	301	303	304	306	308	311	312	312	313	313	312	312	311	310	308	307	307	308	309	310	311	312	313	313	313	314	314	316	318	320	323	327	329	331	332	333	333	334	335	336	337	337	338	339	339	340	340	341	342	344	345	346	348	349	351	353	356	358	359	359	360	360	359	358	357	355	353	351	349	346	346	346	346	345	343	340	337	335	335	335	336	339	345	352	357	360	362	364	365	366	366	366	367	368	370	372	374	375	375	376	376	377	377	378	379	380	381	383	384	386	388	390	392	394	396	399	402	406	409	412	416	421	425	429	433	435	436	436	435	435	435	435	436	435	435	434	434	434	434	433	433	433	432	432	432	433	433	432	431	430	429	427	426	425	424	422	421	420	418	417	416	415	414	413	413	413	412	411	411	411	412	411	410	411	412	412	411	411	410	410	411	411	411	411	411	411	412	411	410	409	407	405	403	400	399	397	394	392	390	388	386	383	381	379	377	374	372	370	366	364	362	360	358	357	355	354	352	351	349	348	348	345	342	340	340	340	341	342	342
0	0	0	0	0	0	0	0	0	0	0	0	0	0	0	0	0	0	0	0	0	0	0	0	0	0	0	0	0	0	0	0	0	0	0	0	0	0	0	0	0	0	0	0	0	0	0	0	0	0	0	0	0	0	0	0	0	0	0	0	0	0	0	0	0	0	0	0	0	0	0	0	0	0	0	0	0	0	0	0	0	0	0	0	0	0	0	0	0	0	0	0	0	0	0	0	0	0	0	0	0	0	0	0	0	0	0	0	0	1	2	3	3	2	2	1	0	0	0	0	0	0	0	0	0	0	0	0	0	0	0	0	0	0	0	0	0	0	0	0	0	0	0	0	0	0	0	0	0	0	0	0	0	0	0	0	0	0	0	0	0	0	0	0	0	0	0	0	0	0	0	0	0	0	0	0	0	0	0	0	0	0	0	0	0	0	0	0	0	0	0	0	0	0	0	0	0	0	0	0	0	0	0	0	0	0	0	0	0	0	0	0	0	0	0	0	0	0	0	0	0	0	0	0	0	0	0	0	0	0	0	0	0	0	0	0	0	0	0	0	0	0	0	0	0	0	0	0	0	0	0	0	0	0	0	0	0	0	0	0	0	0	0	0	0	0	0	0	0	0	0	0	0	0	0	0	0	0	0	0	0	0	0	0	0	0	0	0	0	0	0	0	0	0	0	0	0	0	0	0	0	0	0	0	0	0	0	0	0	0	0	0	0	0	0	0	0	0	0	0	0	0	0	0	0	0	0	0	0	0	0	0	0	0	0	0	0	0	0	0	0	0	0	0	0	0	0	0	0	0	0	0	0	0	0	0	0	0	0	0	0	0	0	0	0	0	0	0	0	0	0	0	0	0	0	0	0	0	0	0	0	0	0	0	0	0	0	0	0	0	0	0	0	0	0	0	0	0	0	0	0	0	0	0	0	0	0	0	0	0	0	0	0	0	0	0	0	0	0	0	0	0	0	0	0	0	0	0	0	0	0	2	2	4	7	8	11	14	17	19	21	23	26	29	32	35	37	39	42	45	47	49	51	53	56	59	63	66	69	73	76	79	83	87	90	93	97	101	105	109	112	114	118	122	125	129	133	136	139	142	143	144	144	142	140	137	133	130	128	126	124	122	120	118	115	113	111	109	107	105	104	102	102	102	104	106	107	108	109	111	113	115	118	120	121	123	124	126	128	130	130	130	129	128	127	127	128	129	129	131	131	130	130	130	129	128	127	126	124	122	119	116	114	112	108	105	104	105	104	103	101	98	95	94	95	98	101	103	105	105	104	102	101	101	103	104	104	104	106	110	113	115	116	117	117	116	114	111	111	111	110	109	111	113	114	114	114	114	114	115	116	117	118	118	119	120	120	120	118	116	112	109	110	111	114	116	117	117	118	118	118	119	119	120	120	119	120	122	125	126	127	128	129	129	130	131	135	138	138	139	141	144	146	149	154	157	160	164	169	175	179	184	188	191	194	199	202	207	214	219	221	220	217	213	209	204	201	198	195	192	190	188	187	184	182	180	178	177	175	171	169	168	170	172	172	171	170	170	172	173	174	176	178	179	181	182	183	184	184	184	184	183	182	184	186	189	191	194	196	198	201	203	205	207	209	210	212	213	215	219	222	225	228	231	234	236	237	238	241	243	245	247	250	254	260	264	265	267	270	270	272	274	275	277	280	282	284	287	290	294	297	299	302	305	306	307	309	310	311	312	311	311	311	311	310	309	308	307	306	306	307	308	309	310	312	312	312	312	313	313	314	316	318	321	324	327	329	330	331	332	333	334	334	335	336	336	337	338	338	338	339	341	342	344	345	347	348	350	352	355	358	359	361	361	362	362	361	359	357	355	354	352	350	349	349	350	349	347	343	339	337	337	337	338	341	345	352	357	360	363	365	366	366	366	366	367	369	371	373	375	376	377	378	379	379	380	381	381	382	383	384	386	388	389	391	393	395	398	400	403	406	409	412	416	421	425	428	432	435	436	436	436	436	437	437	437	437	437	437	437	436	436	435	435	435	434	434	434	435	434	434	433	432	431	429	428	427	426	424	423	422	420	419	418	417	416	416	415	414	414	414	413	413	414	413	412	412	412	412	412	412	411	411	412	412	412	411	411	412	412	412	411	409	407	405	403	401	399	396	394	392	390	388	386	384	381	379	378	375	373	370	367	365	363	361	358	357	355	354	353	352	349	347	346	345	342	340	339	338	338	339	339
0	0	0	0	0	0	0	0	0	0	0	0	0	0	0	0	0	0	0	0	0	0	0	0	0	0	0	0	0	0	0	0	0	0	0	0	0	0	0	0	0	0	0	0	0	0	0	0	0	0	0	0	0	0	0	0	0	0	0	0	0	0	0	0	0	0	0	0	0	0	0	0	0	0	0	0	0	0	0	0	0	0	0	0	0	0	0	0	0	0	0	0	0	0	0	0	0	0	0	0	0	0	0	0	0	0	0	0	1	2	2	3	3	2	2	1	0	0	0	0	0	0	0	0	0	0	0	0	0	0	0	0	0	0	0	0	0	0	0	0	0	0	0	0	0	0	0	0	0	0	0	0	0	0	0	0	0	0	0	0	0	0	0	0	0	0	0	0	0	0	0	0	0	0	0	0	0	0	0	0	0	0	0	0	0	0	0	0	0	0	0	0	0	0	0	0	0	0	0	0	0	0	0	0	0	0	0	0	0	0	0	0	0	0	0	0	0	0	0	0	0	0	0	0	0	0	0	0	0	0	0	0	0	0	0	0	0	0	0	0	0	0	0	0	0	0	0	0	0	0	0	0	0	0	0	0	0	0	0	0	0	0	0	0	0	0	0	0	0	0	0	0	0	0	0	0	0	0	0	0	0	0	0	0	0	0	0	0	0	0	0	0	0	0	0	0	0	0	0	0	0	0	0	0	0	0	0	0	0	0	0	0	0	0	0	0	0	0	0	0	0	0	0	0	0	0	0	0	0	0	0	0	0	0	0	0	0	0	0	0	0	0	0	0	0	0	0	0	0	0	0	0	0	0	0	0	0	0	0	0	0	0	0	0	0	0	0	0	0	0	0	0	0	0	0	0	0	0	0	0	0	0	0	0	0	0	0	0	0	0	0	0	0	0	0	0	0	0	0	0	0	0	0	0	0	0	0	0	0	0	0	0	0	0	0	0	0	0	0	0	0	0	0	0	0	0	0	0	0	0	0	1	2	4	7	8	10	13	16	19	21	23	25	28	30	33	35	37	39	42	45	47	49	53	56	59	62	66	69	72	76	79	83	86	89	92	96	99	103	106	110	113	116	120	124	127	130	133	136	138	140	141	141	139	137	134	130	127	126	125	123	121	118	116	113	111	109	107	105	104	103	102	101	102	103	105	106	107	108	110	112	114	117	119	120	122	123	124	126	128	129	129	127	125	125	125	126	126	127	129	129	128	128	127	127	126	125	124	122	121	118	115	113	110	107	104	102	102	101	100	98	96	93	93	94	97	99	102	102	102	100	99	98	98	100	101	102	102	104	107	110	112	114	115	114	113	111	110	110	109	108	108	110	111	111	111	111	112	112	112	113	114	115	116	116	117	117	116	116	115	112	108	108	110	112	113	114	115	115	115	116	116	117	118	118	119	120	122	123	125	126	127	128	130	130	132	135	137	138	139	142	145	147	150	153	157	160	163	168	173	179	184	188	191	194	198	204	210	215	220	222	221	219	216	211	207	204	201	197	194	193	192	190	188	186	184	181	179	177	174	171	171	174	176	176	175	174	174	176	177	178	179	181	183	185	186	186	186	187	187	187	186	186	186	188	190	192	195	197	199	201	203	205	207	208	209	210	212	214	217	221	224	227	230	232	232	233	234	236	239	241	242	244	247	252	257	260	262	265	266	267	270	272	274	277	280	283	286	290	294	298	301	304	306	308	309	310	310	310	310	310	310	310	309	309	308	307	306	306	305	306	307	308	310	311	311	312	312	312	312	313	314	317	320	323	325	327	328	329	330	331	332	333	334	335	335	336	336	336	336	338	339	341	343	344	346	347	349	352	354	357	359	361	362	363	363	363	361	359	357	356	355	353	352	352	353	352	350	346	343	339	338	338	339	342	345	351	357	361	363	365	366	366	366	366	368	370	372	374	376	377	378	379	380	381	382	382	383	383	384	386	387	389	391	393	395	397	399	402	404	407	410	413	417	421	424	428	432	434	435	435	436	437	438	439	439	439	439	439	439	438	438	437	437	437	437	436	436	436	436	435	434	433	432	431	429	429	428	427	425	424	422	421	420	419	418	418	417	416	416	416	415	415	414	414	413	413	413	413	413	413	412	412	413	413	413	412	412	412	412	412	411	409	407	405	403	402	400	397	395	393	391	389	387	384	382	380	378	376	374	370	367	365	363	361	359	357	356	355	354	352	349	346	346	344	342	340	338	337	337	336	336
0	0	0	0	0	0	0	0	0	0	0	0	0	0	0	0	0	0	0	0	0	0	0	0	0	0	0	0	0	0	0	0	0	0	0	0	0	0	0	0	0	0	0	0	0	0	0	0	0	0	0	0	0	0	0	0	0	0	0	0	0	0	0	0	0	0	0	0	0	0	0	0	0	0	0	0	0	0	0	0	0	0	0	0	0	0	0	0	0	0	0	0	0	0	0	0	0	0	0	0	0	0	0	0	0	0	0	0	1	2	2	3	3	2	2	1	0	0	0	0	0	0	0	0	0	0	0	0	0	0	0	0	0	0	0	0	0	0	0	0	0	0	0	0	0	0	0	0	0	0	0	0	0	0	0	0	0	0	0	0	0	0	0	0	0	0	0	0	0	0	0	0	0	0	0	0	0	0	0	0	0	0	0	0	0	0	0	0	0	0	0	0	0	0	0	0	0	0	0	0	0	0	0	0	0	0	0	0	0	0	0	0	0	0	0	0	0	0	0	0	0	0	0	0	0	0	0	0	0	0	0	0	0	0	0	0	0	0	0	0	0	0	0	0	0	0	0	0	0	0	0	0	0	0	0	0	0	0	0	0	0	0	0	0	0	0	0	0	0	0	0	0	0	0	0	0	0	0	0	0	0	0	0	0	0	0	0	0	0	0	0	0	0	0	0	0	0	0	0	0	0	0	0	0	0	0	0	0	0	0	0	0	0	0	0	0	0	0	0	0	0	0	0	0	0	0	0	0	0	0	0	0	0	0	0	0	0	0	0	0	0	0	0	0	0	0	0	0	0	0	0	0	0	0	0	0	0	0	0	0	0	0	0	0	0	0	0	0	0	0	0	0	0	0	0	0	0	0	0	0	0	0	0	0	0	0	0	0	0	0	0	0	0	0	0	0	0	0	0	0	0	0	0	0	0	0	0	0	0	0	0	0	0	0	0	0	0	0	0	0	0	0	0	0	0	0	0	0	0	0	0	1	2	4	6	7	9	12	15	18	20	21	24	26	28	30	33	35	37	40	43	46	49	53	56	60	63	66	69	72	76	79	82	86	89	91	94	97	100	103	108	111	115	119	123	126	128	130	132	135	137	139	138	137	135	131	126	122	122	123	122	119	117	115	112	110	107	105	103	102	102	101	101	102	103	104	105	106	107	109	111	114	116	117	119	121	122	123	124	126	128	127	125	123	122	122	122	123	125	127	127	126	125	125	124	123	122	121	121	119	116	113	111	108	105	103	101	99	98	97	96	93	92	92	93	96	98	100	100	99	97	95	94	94	96	98	100	101	102	105	107	110	111	112	112	112	110	108	107	105	105	107	108	109	108	108	108	109	110	110	110	111	112	113	114	115	114	113	113	113	110	107	106	108	110	111	112	112	112	113	114	114	115	116	118	119	120	122	123	124	125	127	129	131	133	133	135	137	139	141	144	147	149	152	154	158	161	163	167	173	178	183	187	192	195	200	207	212	215	219	222	222	220	218	214	210	207	205	202	199	197	196	193	191	189	187	185	182	180	177	174	174	177	179	180	179	178	178	179	180	181	182	184	186	187	188	188	189	189	189	188	188	188	188	189	190	192	195	197	199	201	203	205	206	207	208	209	210	212	215	218	222	225	229	229	229	229	230	232	234	236	237	238	241	245	250	254	257	259	262	263	265	268	271	274	278	281	285	289	294	298	301	304	306	308	309	310	310	309	308	308	308	308	308	307	307	306	305	304	304	305	306	307	309	310	311	311	311	311	311	311	313	316	319	321	323	325	326	327	328	329	330	332	332	333	334	334	334	334	334	336	338	340	342	344	345	347	349	351	354	356	359	361	363	364	365	365	364	362	360	358	357	355	355	355	355	354	352	349	345	342	339	339	340	342	345	351	357	361	363	365	366	366	366	366	368	370	372	374	376	377	378	379	380	381	382	383	384	385	386	387	389	390	392	394	397	399	401	404	406	409	412	415	418	421	425	429	432	433	434	434	435	437	439	440	440	440	441	440	440	440	440	440	439	439	439	438	437	437	437	436	436	435	433	432	431	431	430	429	428	426	424	423	422	421	420	419	418	418	417	417	416	415	415	414	414	415	415	415	415	414	413	413	413	414	413	413	413	413	413	412	411	409	407	405	404	402	400	398	396	394	392	390	388	385	382	380	378	376	373	370	367	365	363	360	359	357	356	355	354	352	349	345	343	342	341	341	339	337	337	337	336
0	0	0	0	0	0	0	0	0	0	0	0	0	0	0	0	0	0	0	0	0	0	0	0	0	0	0	0	0	0	0	0	0	0	0	0	0	0	0	0	0	0	0	0	0	0	0	0	0	0	0	0	0	0	0	0	0	0	0	0	0	0	0	0	0	0	0	0	0	0	0	0	0	0	0	0	0	0	0	0	0	0	0	0	0	0	0	0	0	0	0	0	0	0	0	0	0	0	0	0	0	0	0	0	0	0	0	0	1	2	3	3	3	2	1	0	0	0	0	0	0	0	0	0	0	0	0	0	0	0	0	0	0	0	0	0	0	0	0	0	0	0	0	0	0	0	0	0	0	0	0	0	0	0	0	0	0	0	0	0	0	0	0	0	0	0	0	0	0	0	0	0	0	0	0	0	0	0	0	0	0	0	0	0	0	0	0	0	0	0	0	0	0	0	0	0	0	0	0	0	0	0	0	0	0	0	0	0	0	0	0	0	0	0	0	0	0	0	0	0	0	0	0	0	0	0	0	0	0	0	0	0	0	0	0	0	0	0	0	0	0	0	0	0	0	0	0	0	0	0	0	0	0	0	0	0	0	0	0	0	0	0	0	0	0	0	0	0	0	0	0	0	0	0	0	0	0	0	0	0	0	0	0	0	0	0	0	0	0	0	0	0	0	0	0	0	0	0	0	0	0	0	0	0	0	0	0	0	0	0	0	0	0	0	0	0	0	0	0	0	0	0	0	0	0	0	0	0	0	0	0	0	0	0	0	0	0	0	0	0	0	0	0	0	0	0	0	0	0	0	0	0	0	0	0	0	0	0	0	0	0	0	0	0	0	0	0	0	0	0	0	0	0	0	0	0	0	0	0	0	0	0	0	0	0	0	0	0	0	0	0	0	0	0	0	0	0	0	0	0	0	0	0	0	0	0	0	0	0	0	0	0	0	0	0	0	0	0	0	0	0	0	0	0	0	0	0	0	0	0	0	1	2	3	5	6	8	12	15	17	19	21	23	25	27	29	32	35	37	40	44	47	50	53	57	60	62	65	68	72	75	79	82	85	87	90	92	95	97	101	105	109	113	116	121	124	126	128	130	132	134	135	135	134	131	126	121	118	118	119	119	118	115	113	110	108	105	103	101	100	99	99	100	101	103	103	104	105	106	108	110	113	114	116	118	120	121	122	123	124	125	124	122	120	120	119	119	121	123	125	125	123	123	123	121	119	119	120	119	117	113	111	109	106	104	101	99	97	96	95	94	91	90	91	92	95	96	98	97	96	95	93	91	91	92	95	97	98	99	101	105	108	110	110	110	111	109	106	104	102	103	105	106	106	106	105	105	106	107	107	107	108	109	110	111	112	111	110	109	108	106	105	105	106	108	109	110	111	111	112	113	113	113	115	118	119	121	123	124	125	126	128	130	133	135	136	137	139	141	144	146	149	152	155	157	160	163	165	169	173	178	182	187	191	195	203	209	213	215	217	220	221	219	218	215	213	210	208	206	204	202	200	197	195	193	191	188	185	182	180	178	178	181	182	183	182	181	181	182	183	184	185	187	188	189	190	190	191	191	190	190	189	190	190	189	190	191	194	197	199	201	203	204	204	205	206	207	208	210	212	216	220	223	226	226	225	226	227	227	229	231	232	234	238	242	245	249	252	255	257	259	261	264	268	272	275	279	284	289	293	297	300	303	306	308	309	309	308	307	306	306	306	306	306	306	305	304	304	303	303	304	305	306	308	309	310	310	310	309	309	310	311	314	317	320	322	323	323	324	325	327	328	330	331	332	333	333	332	332	333	334	336	338	341	343	344	346	348	350	353	355	357	360	362	363	365	366	366	365	363	361	359	358	358	358	358	357	354	351	348	344	341	340	341	342	346	351	357	360	363	364	365	365	365	365	367	369	372	374	375	376	377	379	380	381	383	384	385	386	387	389	390	392	394	396	398	401	403	406	409	412	415	417	420	423	426	430	432	433	432	432	434	436	438	440	441	441	441	442	442	442	442	442	441	441	440	439	438	438	438	438	438	437	435	434	434	433	432	431	430	428	427	426	424	423	421	420	420	419	419	418	418	417	416	416	416	416	416	417	417	416	415	414	414	414	414	413	413	413	413	412	410	409	407	406	404	402	401	399	397	395	393	391	389	386	383	380	378	376	372	369	367	364	362	359	358	356	355	354	352	351	348	345	341	339	340	341	340	338	337	337	336
0	0	0	0	0	0	0	0	0	0	0	0	0	0	0	0	0	0	0	0	0	0	0	0	0	0	0	0	0	0	0	0	0	0	0	0	0	0	0	0	0	0	0	0	0	0	0	0	0	0	0	0	0	0	0	0	0	0	0	0	0	0	0	0	0	0	0	0	0	0	0	0	0	0	0	0	0	0	0	0	0	0	0	0	0	0	0	0	0	0	0	0	0	0	0	0	0	0	0	0	0	0	0	0	0	0	0	0	1	2	3	3	3	2	1	0	0	0	0	0	0	0	0	0	0	0	0	0	0	0	0	0	0	0	0	0	0	0	0	0	0	0	0	0	0	0	0	0	0	0	0	0	0	0	0	0	0	0	0	0	0	0	0	0	0	0	0	0	0	0	0	0	0	0	0	0	0	0	0	0	0	0	0	0	0	0	0	0	0	0	0	0	0	0	0	0	0	0	0	0	0	0	0	0	0	0	0	0	0	0	0	0	0	0	0	0	0	0	0	0	0	0	0	0	0	0	0	0	0	0	0	0	0	0	0	0	0	0	0	0	0	0	0	0	0	0	0	0	0	0	0	0	0	0	0	0	0	0	0	0	0	0	0	0	0	0	0	0	0	0	0	0	0	0	0	0	0	0	0	0	0	0	0	0	0	0	0	0	0	0	0	0	0	0	0	0	0	0	0	0	0	0	0	0	0	0	0	0	0	0	0	0	0	0	0	0	0	0	0	0	0	0	0	0	0	0	0	0	0	0	0	0	0	0	0	0	0	0	0	0	0	0	0	0	0	0	0	0	0	0	0	0	0	0	0	0	0	0	0	0	0	0	0	0	0	0	0	0	0	0	0	0	0	0	0	0	0	0	0	0	0	0	0	0	0	0	0	0	0	0	0	0	0	0	0	0	0	0	0	0	0	0	0	0	0	0	0	0	0	0	0	0	0	0	0	0	0	0	0	0	0	0	0	0	0	0	0	0	0	0	0	1	2	3	4	6	8	11	15	18	19	21	23	25	27	29	32	34	38	41	44	47	50	53	57	59	62	65	68	71	75	78	81	83	86	88	91	93	96	100	104	107	110	113	118	121	123	126	128	129	130	131	132	131	127	122	119	116	116	115	115	114	113	111	108	106	103	101	99	98	98	98	99	101	102	102	103	104	105	107	109	111	113	115	117	118	120	121	121	121	120	119	118	118	118	117	118	119	120	122	122	121	121	120	118	117	117	118	118	114	111	110	107	104	102	100	98	96	95	94	92	91	90	90	91	93	95	95	95	94	93	91	90	90	91	92	94	94	95	98	101	104	107	108	107	108	107	105	102	100	100	101	102	103	103	103	103	103	104	104	104	105	106	106	107	108	108	107	106	105	104	104	104	105	106	107	108	110	110	111	111	111	112	115	117	119	121	123	124	125	127	129	131	134	137	138	140	143	145	147	149	152	155	158	160	163	165	168	171	174	177	182	186	190	194	203	208	212	214	216	218	218	218	217	215	214	212	210	209	208	207	205	202	199	197	194	191	187	184	182	181	184	185	186	185	185	184	184	184	186	187	188	189	190	191	191	191	192	192	191	191	191	191	190	189	189	190	193	195	197	199	201	201	202	203	204	205	206	208	211	214	218	221	223	223	223	223	224	225	226	228	229	231	235	239	242	245	248	251	253	257	260	263	266	269	273	277	282	287	291	294	298	302	305	306	307	307	306	306	304	304	304	304	304	304	303	303	302	303	302	303	303	305	306	308	308	309	308	308	308	308	309	311	315	318	320	321	321	321	323	324	326	327	329	331	332	332	331	331	332	333	335	337	339	341	343	345	347	350	352	354	356	358	360	363	365	367	367	367	366	364	363	361	361	361	360	359	356	353	349	346	343	341	340	342	346	351	356	359	361	362	363	363	363	364	366	368	370	372	374	375	376	378	379	381	382	384	386	387	388	390	392	394	396	398	400	403	405	408	411	414	417	419	421	424	427	430	432	431	431	431	433	435	438	440	441	442	442	443	444	444	444	443	443	443	442	440	439	439	439	439	439	438	437	436	436	435	434	433	432	431	429	428	426	425	423	422	421	421	421	420	419	418	418	417	417	417	417	418	418	417	416	415	415	414	414	414	414	414	414	412	411	409	408	406	404	403	402	400	398	397	395	392	390	387	384	381	378	375	372	369	367	364	361	359	356	355	354	352	351	350	348	345	341	339	340	340	339	338	337	337	336
0	0	0	0	0	0	0	0	0	0	0	0	0	0	0	0	0	0	0	0	0	0	0	0	0	0	0	0	0	0	0	0	0	0	0	0	0	0	0	0	0	0	0	0	0	0	0	0	0	0	0	0	0	0	0	0	0	0	0	0	0	0	0	0	0	0	0	0	0	0	0	0	0	0	0	0	0	0	0	0	0	0	0	0	0	0	0	0	0	0	0	0	0	0	0	0	0	0	0	0	0	0	0	0	0	0	0	0	1	3	3	3	3	2	1	0	0	0	0	0	0	0	0	0	0	0	0	0	0	0	0	0	0	0	0	0	0	0	0	0	0	0	0	0	0	0	0	0	0	0	0	0	0	0	0	0	0	0	0	0	0	0	0	0	0	0	0	0	0	0	0	0	0	0	0	0	0	0	0	0	0	0	0	0	0	0	0	0	0	0	0	0	0	0	0	0	0	0	0	0	0	0	0	0	0	0	0	0	0	0	0	0	0	0	0	0	0	0	0	0	0	0	0	0	0	0	0	0	0	0	0	0	0	0	0	0	0	0	0	0	0	0	0	0	0	0	0	0	0	0	0	0	0	0	0	0	0	0	0	0	0	0	0	0	0	0	0	0	0	0	0	0	0	0	0	0	0	0	0	0	0	0	0	0	0	0	0	0	0	0	0	0	0	0	0	0	0	0	0	0	0	0	0	0	0	0	0	0	0	0	0	0	0	0	0	0	0	0	0	0	0	0	0	0	0	0	0	0	0	0	0	0	0	0	0	0	0	0	0	0	0	0	0	0	0	0	0	0	0	0	0	0	0	0	0	0	0	0	0	0	0	0	0	0	0	0	0	0	0	0	0	0	0	0	0	0	0	0	0	0	0	0	0	0	0	0	0	0	0	0	0	0	0	0	0	0	0	0	0	0	0	0	0	0	0	0	0	0	0	0	0	0	0	0	0	0	0	0	0	0	0	0	0	0	0	0	0	0	0	0	0	1	2	3	4	5	7	10	14	17	19	21	23	24	27	29	32	34	37	40	44	47	50	53	56	59	61	64	67	70	74	77	79	81	84	87	89	92	95	99	102	105	107	110	114	118	120	123	125	127	128	129	130	128	124	121	118	116	114	113	112	110	109	108	107	104	102	100	98	97	97	97	98	99	100	101	101	102	104	106	108	110	112	114	116	117	118	119	119	119	117	116	116	116	116	115	116	117	117	118	119	119	119	119	117	115	115	115	115	112	109	108	106	103	100	97	96	95	94	92	91	91	91	89	89	91	93	93	93	93	91	89	88	89	89	90	92	92	93	96	99	101	102	103	103	104	104	103	100	98	98	98	99	100	101	101	100	100	101	102	103	103	104	104	104	104	105	105	104	103	103	103	103	104	105	107	108	109	109	110	110	111	112	115	117	118	120	123	124	126	129	131	133	136	138	141	143	146	148	150	152	155	158	160	162	166	169	172	174	176	178	182	187	190	193	200	205	209	212	214	216	216	216	215	213	213	212	211	211	211	211	209	206	204	200	197	193	190	186	183	185	188	189	189	188	188	187	186	187	188	189	189	190	191	192	192	192	192	192	191	191	190	190	189	188	188	189	191	193	195	197	197	196	197	199	202	203	204	207	211	214	216	217	218	219	219	220	221	223	225	227	228	230	233	237	240	242	246	250	252	256	260	262	265	268	271	275	280	284	288	292	296	301	303	304	305	305	305	304	303	302	302	302	302	302	302	302	301	302	301	301	302	303	305	306	307	307	307	307	307	307	308	309	312	315	318	319	318	318	320	323	324	325	327	328	330	330	329	330	330	332	333	335	337	340	342	344	346	348	350	352	354	356	359	362	365	368	369	369	368	367	365	364	364	364	362	360	358	354	350	347	344	342	340	342	346	349	354	357	359	360	361	361	362	363	364	367	369	370	372	374	375	377	379	380	382	384	386	388	389	392	394	396	398	400	402	405	407	410	413	416	419	421	423	426	429	430	431	430	430	430	432	434	437	439	441	442	443	444	445	446	446	445	445	444	443	442	441	441	441	441	440	440	439	439	439	438	437	436	435	433	431	430	428	427	426	424	423	422	422	422	421	420	419	419	418	418	418	419	419	418	418	417	416	416	415	415	415	415	414	413	412	410	409	408	406	405	403	402	400	398	396	393	391	388	386	382	379	376	372	370	368	365	361	358	356	354	353	352	351	350	349	345	342	340	339	339	339	338	337	337	336
0	0	0	0	0	0	0	0	0	0	0	0	0	0	0	0	0	0	0	0	0	0	0	0	0	0	0	0	0	0	0	0	0	0	0	0	0	0	0	0	0	0	0	0	0	0	0	0	0	0	0	0	0	0	0	0	0	0	0	0	0	0	0	0	0	0	0	0	0	0	0	0	0	0	0	0	0	0	0	0	0	0	0	0	0	0	0	0	0	0	0	0	0	0	0	0	0	0	0	0	0	0	0	0	0	0	0	0	1	3	3	3	3	2	1	0	0	0	0	0	0	0	0	0	0	0	0	0	0	0	0	0	0	0	0	0	0	0	0	0	0	0	0	0	0	0	0	0	0	0	0	0	0	0	0	0	0	0	0	0	0	0	0	0	0	0	0	0	0	0	0	0	0	0	0	0	0	0	0	0	0	0	0	0	0	0	0	0	0	0	0	0	0	0	0	0	0	0	0	0	0	0	0	0	0	0	0	0	0	0	0	0	0	0	0	0	0	0	0	0	0	0	0	0	0	0	0	0	0	0	0	0	0	0	0	0	0	0	0	0	0	0	0	0	0	0	0	0	0	0	0	0	0	0	0	0	0	0	0	0	0	0	0	0	0	0	0	0	0	0	0	0	0	0	0	0	0	0	0	0	0	0	0	0	0	0	0	0	0	0	0	0	0	0	0	0	0	0	0	0	0	0	0	0	0	0	0	0	0	0	0	0	0	0	0	0	0	0	0	0	0	0	0	0	0	0	0	0	0	0	0	0	0	0	0	0	0	0	0	0	0	0	0	0	0	0	0	0	0	0	0	0	0	0	0	0	0	0	0	0	0	0	0	0	0	0	0	0	0	0	0	0	0	0	0	0	0	0	0	0	0	0	0	0	0	0	0	0	0	0	0	0	0	0	0	0	0	0	0	0	0	0	0	0	0	0	0	0	0	0	0	0	0	0	0	0	0	0	0	0	0	0	0	0	0	0	0	0	0	0	0	1	2	3	4	5	6	10	14	17	19	21	22	24	26	29	32	34	37	40	43	46	49	52	55	58	60	63	66	69	72	75	77	80	82	85	89	92	95	98	100	103	105	108	111	115	118	121	123	124	125	128	129	126	122	120	117	115	113	112	111	108	106	105	104	103	101	98	97	96	95	96	96	97	98	99	99	101	102	104	106	108	110	112	114	115	116	117	117	117	116	115	114	114	114	113	113	114	114	115	116	117	117	117	116	114	112	112	111	109	107	106	104	101	98	96	94	93	92	90	90	91	91	88	87	88	91	92	92	91	89	87	87	87	87	87	89	90	92	94	97	98	99	99	100	101	100	99	97	96	96	96	97	98	99	99	98	97	99	100	101	101	102	102	102	101	102	102	102	102	102	103	103	105	106	107	108	108	108	109	109	110	112	114	116	117	120	122	124	127	130	132	135	137	139	142	144	147	150	153	155	158	160	163	166	170	173	176	177	179	181	184	187	190	193	200	205	208	210	212	214	214	213	211	210	211	211	211	212	212	212	211	209	206	203	199	196	193	190	189	192	192	191	191	191	190	190	189	189	190	190	190	191	191	191	191	191	191	191	190	190	189	188	187	186	186	187	189	190	192	193	193	192	192	195	199	201	202	206	210	212	213	213	213	214	215	216	217	219	222	224	227	229	232	235	238	240	244	249	251	254	258	261	264	267	270	273	277	281	286	290	293	298	301	303	303	303	303	302	301	301	301	301	301	301	301	300	300	300	300	300	301	302	303	305	306	306	305	305	305	306	307	308	309	312	316	317	316	314	317	320	322	323	324	326	327	327	328	328	329	330	332	334	336	338	340	342	345	346	348	350	352	355	358	362	365	368	369	370	369	368	368	367	367	366	364	361	358	355	351	348	346	343	342	343	346	349	353	356	357	358	359	360	361	362	363	365	367	369	370	372	374	376	378	380	382	384	387	388	390	393	395	397	400	402	404	406	409	411	414	417	420	422	425	427	429	430	430	429	428	429	431	434	437	439	440	442	443	445	446	447	447	446	446	445	444	443	443	442	442	442	442	442	441	441	441	440	439	438	437	435	433	432	430	429	428	427	425	424	424	424	423	422	421	420	420	420	420	420	420	420	420	419	418	417	416	416	416	416	415	414	413	412	411	409	408	406	405	403	401	399	397	394	392	389	386	383	379	376	373	370	368	365	361	358	356	355	353	352	350	350	349	345	343	341	339	338	339	338	338	336	335
0	0	0	0	0	0	0	0	0	0	0	0	0	0	0	0	0	0	0	0	0	0	0	0	0	0	0	0	0	0	0	0	0	0	0	0	0	0	0	0	0	0	0	0	0	0	0	0	0	0	0	0	0	0	0	0	0	0	0	0	0	0	0	0	0	0	0	0	0	0	0	0	0	0	0	0	0	0	0	0	0	0	0	0	0	0	0	0	0	0	0	0	0	0	0	0	0	0	0	0	0	0	0	0	0	0	0	0	1	2	3	2	2	1	1	0	0	0	0	0	0	0	0	0	0	0	0	0	0	0	0	0	0	0	0	0	0	0	0	0	0	0	0	0	0	0	0	0	0	0	0	0	0	0	0	0	0	0	0	0	0	0	0	0	0	0	0	0	0	0	0	0	0	0	0	0	0	0	0	0	0	0	0	0	0	0	0	0	0	0	0	0	0	0	0	0	0	0	0	0	0	0	0	0	0	0	0	0	0	0	0	0	0	0	0	0	0	0	0	0	0	0	0	0	0	0	0	0	0	0	0	0	0	0	0	0	0	0	0	0	0	0	0	0	0	0	0	0	0	0	0	0	0	0	0	0	0	0	0	0	0	0	0	0	0	0	0	0	0	0	0	0	0	0	0	0	0	0	0	0	0	0	0	0	0	0	0	0	0	0	0	0	0	0	0	0	0	0	0	0	0	0	0	0	0	0	0	0	0	0	0	0	0	0	0	0	0	0	0	0	0	0	0	0	0	0	0	0	0	0	0	0	0	0	0	0	0	0	0	0	0	0	0	0	0	0	0	0	0	0	0	0	0	0	0	0	0	0	0	0	0	0	0	0	0	0	0	0	0	0	0	0	0	0	0	0	0	0	0	0	0	0	0	0	0	0	0	0	0	0	0	0	0	0	0	0	0	0	0	0	0	0	0	0	0	0	0	0	0	0	0	0	0	0	0	0	0	0	0	0	0	0	0	0	0	0	0	0	0	0	0	0	2	3	3	5	6	10	13	16	18	20	21	23	25	28	31	34	36	39	42	45	48	51	54	57	59	62	65	67	70	73	75	78	82	85	88	91	94	97	99	101	103	106	109	113	116	119	121	122	124	126	126	124	121	119	117	114	112	111	109	106	104	103	102	101	99	97	95	94	94	94	95	96	97	97	98	99	101	103	105	107	109	110	112	113	114	115	115	115	115	114	112	112	112	111	110	111	112	113	114	115	115	115	114	112	110	109	107	105	104	103	101	99	96	94	92	91	90	89	89	89	89	86	84	86	88	89	89	88	87	86	86	86	85	85	86	88	90	92	95	96	97	97	98	98	98	97	95	94	94	95	95	96	96	96	95	96	97	98	98	99	99	99	99	99	99	99	100	100	101	102	103	104	105	107	107	107	108	108	109	110	111	113	115	117	119	122	125	127	129	132	135	137	139	141	145	148	151	154	157	160	163	166	169	173	176	178	180	183	184	186	188	191	194	200	205	207	209	210	211	211	209	208	207	207	208	209	211	211	211	211	209	207	205	202	198	196	194	195	196	195	194	193	193	192	191	190	190	191	191	190	190	190	190	190	190	189	189	188	188	187	186	185	184	184	185	186	187	188	189	190	190	191	193	197	199	201	204	207	209	208	208	209	211	212	213	214	216	219	222	225	228	230	233	236	239	244	248	250	253	256	259	263	267	269	272	275	279	283	287	290	294	298	300	301	301	301	300	299	299	299	300	300	300	299	299	299	299	299	299	300	300	302	303	304	304	304	304	304	305	306	306	308	310	314	315	313	311	314	317	319	321	322	323	324	325	326	327	327	329	331	333	335	336	338	340	342	344	347	349	351	354	358	362	365	367	368	369	370	370	370	370	369	367	365	362	359	356	353	350	348	347	346	346	349	351	352	353	354	356	358	360	361	362	362	364	367	368	369	371	374	376	378	380	382	385	387	389	391	393	396	398	401	404	406	408	410	412	414	417	420	423	425	427	428	429	428	427	427	428	430	433	436	438	440	442	443	445	447	447	447	448	447	447	446	445	444	444	444	444	444	444	444	443	443	442	440	439	438	436	435	433	432	431	430	429	427	426	426	426	425	424	423	422	422	422	422	422	422	422	422	421	420	419	418	417	417	417	416	415	414	413	412	411	409	407	405	404	402	399	397	394	392	389	387	383	380	377	373	370	368	365	362	360	357	355	353	352	350	349	347	345	345	344	341	339	339	339	337	336	335
0	0	0	0	0	0	0	0	0	0	0	0	0	0	0	0	0	0	0	0	0	0	0	0	0	0	0	0	0	0	0	0	0	0	0	0	0	0	0	0	0	0	0	0	0	0	0	0	0	0	0	0	0	0	0	0	0	0	0	0	0	0	0	0	0	0	0	0	0	0	0	0	0	0	0	0	0	0	0	0	0	0	0	0	0	0	0	0	0	0	0	0	0	0	0	0	0	0	0	0	0	0	0	0	0	0	0	0	1	2	3	2	2	1	1	0	0	0	0	0	0	0	0	0	0	0	0	0	0	0	0	0	0	0	0	0	0	0	0	0	0	0	0	0	0	0	0	0	0	0	0	0	0	0	0	0	0	0	0	0	0	0	0	0	0	0	0	0	0	0	0	0	0	0	0	0	0	0	0	0	0	0	0	0	0	0	0	0	0	0	0	0	0	0	0	0	0	0	0	0	0	0	0	0	0	0	0	0	0	0	0	0	0	0	0	0	0	0	0	0	0	0	0	0	0	0	0	0	0	0	0	0	0	0	0	0	0	0	0	0	0	0	0	0	0	0	0	0	0	0	0	0	0	0	0	0	0	0	0	0	0	0	0	0	0	0	0	0	0	0	0	0	0	0	0	0	0	0	0	0	0	0	0	0	0	0	0	0	0	0	0	0	0	0	0	0	0	0	0	0	0	0	0	0	0	0	0	0	0	0	0	0	0	0	0	0	0	0	0	0	0	0	0	0	0	0	0	0	0	0	0	0	0	0	0	0	0	0	0	0	0	0	0	0	0	0	0	0	0	0	0	0	0	0	0	0	0	0	0	0	0	0	0	0	0	0	0	0	0	0	0	0	0	0	0	0	0	0	0	0	0	0	0	0	0	0	0	0	0	0	0	0	0	0	0	0	0	0	0	0	0	0	0	0	0	0	0	0	0	0	0	0	0	0	0	0	0	0	0	0	0	0	0	0	0	0	0	0	0	0	0	0	1	2	3	4	6	9	12	14	16	18	20	22	25	27	30	33	35	38	41	44	47	50	53	55	58	60	63	65	68	71	74	77	81	84	87	90	93	96	98	100	102	104	107	111	115	117	119	121	122	123	123	122	120	118	116	114	111	109	107	104	102	101	100	99	98	96	94	92	92	93	94	95	95	96	96	97	100	102	104	106	108	109	110	111	112	113	113	113	113	112	110	110	110	109	109	109	110	112	113	113	114	113	112	110	108	106	105	103	101	100	98	96	95	92	90	88	88	87	87	86	85	83	82	83	85	85	85	85	84	84	84	85	84	84	85	87	88	90	93	94	95	95	95	96	96	95	94	93	93	93	93	94	94	94	93	94	95	95	96	97	97	97	97	97	97	97	98	99	100	101	102	103	104	106	107	107	107	108	109	110	111	112	114	116	118	121	124	127	128	131	134	137	139	142	145	148	151	155	158	162	166	169	172	175	177	180	183	186	188	189	190	193	197	201	204	206	207	208	208	207	205	203	201	203	205	206	207	209	209	209	208	207	205	203	201	198	198	198	198	197	196	194	193	192	191	190	190	190	190	189	188	188	187	188	188	187	186	186	186	185	184	183	182	182	182	184	185	186	186	187	189	190	193	196	198	201	203	205	204	204	206	207	208	209	211	212	215	218	220	223	226	229	232	235	239	243	247	250	253	256	258	261	265	268	270	273	277	281	285	288	291	295	298	299	299	299	298	297	298	299	299	299	298	298	298	298	298	298	298	298	299	300	301	302	302	303	303	303	304	305	305	306	308	311	313	312	309	311	314	316	318	319	320	321	323	324	325	326	328	330	332	334	335	336	338	339	342	345	348	350	353	357	362	364	365	367	369	370	371	372	372	370	368	366	364	361	358	356	354	352	351	350	351	351	352	352	352	353	356	358	360	361	362	363	366	368	369	370	372	374	376	378	380	382	385	387	390	392	394	396	399	402	404	407	408	410	412	414	417	420	423	425	426	426	426	426	426	426	427	430	432	435	438	440	442	444	445	447	448	448	449	448	448	448	447	446	446	446	446	446	446	446	446	444	443	441	440	438	437	435	434	433	432	431	430	429	428	428	428	427	425	425	424	424	424	424	423	423	423	423	422	421	420	419	418	418	418	417	417	416	415	414	413	411	409	406	404	402	399	397	394	392	389	387	383	380	377	374	371	368	366	364	361	358	356	354	352	350	348	346	345	346	345	343	341	340	339	337	336	335
0	0	0	0	0	0	0	0	0	0	0	0	0	0	0	0	0	0	0	0	0	0	0	0	0	0	0	0	0	0	0	0	0	0	0	0	0	0	0	0	0	0	0	0	0	0	0	0	0	0	0	0	0	0	0	0	0	0	0	0	0	0	0	0	0	0	0	0	0	0	0	0	0	0	0	0	0	0	0	0	0	0	0	0	0	0	0	0	0	0	0	0	0	0	0	0	0	0	0	0	0	0	0	0	0	0	0	0	2	3	3	2	2	1	0	0	0	0	0	0	0	0	0	0	0	0	0	0	0	0	0	0	0	0	0	0	0	0	0	0	0	0	0	0	0	0	0	0	0	0	0	0	0	0	0	0	0	0	0	0	0	0	0	0	0	0	0	0	0	0	0	0	0	0	0	0	0	0	0	0	0	0	0	0	0	0	0	0	0	0	0	0	0	0	0	0	0	0	0	0	0	0	0	0	0	0	0	0	0	0	0	0	0	0	0	0	0	0	0	0	0	0	0	0	0	0	0	0	0	0	0	0	0	0	0	0	0	0	0	0	0	0	0	0	0	0	0	0	0	0	0	0	0	0	0	0	0	0	0	0	0	0	0	0	0	0	0	0	0	0	0	0	0	0	0	0	0	0	0	0	0	0	0	0	0	0	0	0	0	0	0	0	0	0	0	0	0	0	0	0	0	0	0	0	0	0	0	0	0	0	0	0	0	0	0	0	0	0	0	0	0	0	0	0	0	0	0	0	0	0	0	0	0	0	0	0	0	0	0	0	0	0	0	0	0	0	0	0	0	0	0	0	0	0	0	0	0	0	0	0	0	0	0	0	0	0	0	0	0	0	0	0	0	0	0	0	0	0	0	0	0	0	0	0	0	0	0	0	0	0	0	0	0	0	0	0	0	0	0	0	0	0	0	0	0	0	0	0	0	0	0	0	0	0	0	0	0	0	0	0	0	0	0	0	0	0	0	0	0	0	0	0	1	2	3	4	5	7	10	13	15	18	19	22	24	26	29	32	34	37	39	42	45	48	51	54	56	59	61	64	67	70	73	76	80	82	85	89	93	95	96	98	101	103	106	109	113	115	117	119	120	121	121	120	119	117	115	113	110	107	104	102	100	99	98	97	96	94	92	91	91	92	94	94	94	94	95	96	99	101	103	105	106	107	109	110	110	111	111	110	110	109	108	107	107	107	107	108	109	110	111	112	112	112	111	109	106	104	103	101	99	98	96	95	94	91	89	87	87	85	84	83	82	80	80	82	82	83	83	83	82	82	83	84	83	83	85	87	88	89	91	92	92	92	92	93	93	93	92	92	92	91	92	93	92	92	92	92	93	93	94	95	95	95	95	95	96	96	97	98	99	101	102	102	103	105	107	108	108	109	111	112	112	113	114	114	116	118	121	124	126	128	132	136	140	143	146	149	151	155	159	164	167	170	173	175	178	181	185	188	189	191	193	195	199	202	204	204	204	204	204	202	200	198	196	198	201	202	202	204	206	206	206	205	204	203	202	200	199	198	197	197	195	194	193	191	190	188	188	188	188	187	185	184	184	185	185	184	183	183	184	183	181	179	179	179	180	182	183	184	184	185	186	189	192	195	197	200	202	202	201	201	203	204	205	206	209	211	214	218	220	222	226	228	231	235	239	243	246	249	252	256	258	260	264	267	270	273	277	281	285	288	290	293	296	297	297	297	296	296	297	298	298	298	297	296	296	297	297	297	296	296	297	298	299	300	301	303	303	303	303	304	304	305	306	308	310	310	308	307	310	313	314	316	318	320	321	323	323	325	326	328	331	332	334	335	336	337	340	343	346	348	351	355	360	363	364	365	367	370	371	373	373	372	370	368	366	364	362	360	358	356	355	354	353	353	353	353	354	356	358	359	361	362	364	367	369	371	372	372	373	375	377	379	381	383	385	387	390	392	394	396	399	401	404	406	408	410	412	414	416	419	422	424	425	425	424	424	424	425	427	430	433	436	438	440	442	444	446	448	449	449	450	450	450	449	449	448	448	449	449	449	449	449	448	447	445	443	441	440	438	437	436	434	433	432	431	431	430	430	429	428	427	427	426	426	426	425	425	425	425	424	423	422	421	420	419	419	419	419	419	418	417	416	414	412	409	407	405	403	400	398	395	392	390	387	384	381	378	375	372	369	367	364	362	359	357	355	352	350	348	346	345	345	344	343	342	341	340	338	336	334
0	0	0	0	0	0	0	0	0	0	0	0	0	0	0	0	0	0	0	0	0	0	0	0	0	0	0	0	0	0	0	0	0	0	0	0	0	0	0	0	0	0	0	0	0	0	0	0	0	0	0	0	0	0	0	0	0	0	0	0	0	0	0	0	0	0	0	0	0	0	0	0	0	0	0	0	0	0	0	0	0	0	0	0	0	0	0	0	0	0	0	0	0	0	0	0	0	0	0	0	0	0	0	0	0	0	0	0	1	2	2	2	2	1	0	0	0	0	0	0	0	0	0	0	0	0	0	0	0	0	0	0	0	0	0	0	0	0	0	0	0	0	0	0	0	0	0	0	0	0	0	0	0	0	0	0	0	0	0	0	0	0	0	0	0	0	0	0	0	0	0	0	0	0	0	0	0	0	0	0	0	0	0	0	0	0	0	0	0	0	0	0	0	0	0	0	0	0	0	0	0	0	0	0	0	0	0	0	0	0	0	0	0	0	0	0	0	0	0	0	0	0	0	0	0	0	0	0	0	0	0	0	0	0	0	0	0	0	0	0	0	0	0	0	0	0	0	0	0	0	0	0	0	0	0	0	0	0	0	0	0	0	0	0	0	0	0	0	0	0	0	0	0	0	0	0	0	0	0	0	0	0	0	0	0	0	0	0	0	0	0	0	0	0	0	0	0	0	0	0	0	0	0	0	0	0	0	0	0	0	0	0	0	0	0	0	0	0	0	0	0	0	0	0	0	0	0	0	0	0	0	0	0	0	0	0	0	0	0	0	0	0	0	0	0	0	0	0	0	0	0	0	0	0	0	0	0	0	0	0	0	0	0	0	0	0	0	0	0	0	0	0	0	0	0	0	0	0	0	0	0	0	0	0	0	0	0	0	0	0	0	0	0	0	0	0	0	0	0	0	0	0	0	0	0	0	0	0	0	0	0	0	0	0	0	0	0	0	0	0	0	0	0	0	0	0	0	0	0	0	0	0	1	2	3	4	5	6	9	12	15	17	19	21	23	25	28	30	33	36	38	41	44	46	49	52	55	57	59	62	66	69	72	75	78	81	84	88	92	94	94	96	99	102	105	108	111	113	115	117	118	119	119	119	118	116	114	112	110	106	103	100	98	97	96	95	94	92	91	90	90	91	92	93	93	93	94	95	98	100	102	103	104	106	107	108	109	109	109	108	108	107	106	105	105	105	106	106	106	107	110	111	111	110	109	107	104	102	101	100	98	97	95	94	92	90	87	86	85	83	81	80	79	79	80	80	81	81	82	81	80	81	82	82	82	82	84	87	88	89	89	89	90	90	90	90	90	90	90	90	90	90	91	91	90	90	90	91	91	92	93	93	93	94	94	95	96	96	96	97	99	101	102	102	103	105	108	109	110	112	113	114	114	115	115	115	116	117	119	121	124	126	130	134	139	142	145	147	150	154	159	164	167	170	173	175	177	181	185	188	190	192	195	197	200	202	203	203	202	201	200	198	196	193	191	193	196	197	198	200	201	202	203	203	203	203	202	200	198	197	196	195	194	193	190	188	187	185	185	186	186	185	183	181	181	182	182	181	180	180	180	179	178	177	176	177	178	179	181	182	182	183	185	188	191	194	196	198	200	198	198	198	199	200	202	204	207	210	214	218	220	223	226	229	232	236	239	243	246	248	251	255	257	260	264	266	269	273	277	281	284	287	290	292	294	295	295	295	295	296	297	297	298	297	296	295	295	295	296	296	295	295	295	296	297	298	299	301	301	302	302	303	303	303	304	305	306	307	306	306	308	310	312	314	316	318	320	321	322	324	325	327	329	330	331	333	334	336	338	341	344	347	350	353	356	359	361	363	366	369	371	373	374	374	372	370	369	367	365	363	361	359	358	357	356	355	355	356	357	359	360	361	363	365	368	370	372	373	374	375	376	377	378	380	381	384	386	388	390	392	394	396	398	401	403	405	407	409	411	413	416	418	420	422	423	423	423	422	423	425	427	430	433	437	439	441	443	446	448	449	450	451	452	452	452	451	450	450	450	451	451	451	451	451	450	448	446	445	443	442	440	439	438	436	435	434	434	433	432	432	431	430	429	429	428	427	427	427	427	427	426	426	425	423	422	422	422	421	421	421	421	420	419	417	415	413	410	408	406	404	402	398	395	393	390	387	384	381	379	376	373	370	367	364	361	359	357	355	352	351	349	347	346	345	343	342	342	342	342	339	336	334
0	0	0	0	0	0	0	0	0	0	0	0	0	0	0	0	0	0	0	0	0	0	0	0	0	0	0	0	0	0	0	0	0	0	0	0	0	0	0	0	0	0	0	0	0	0	0	0	0	0	0	0	0	0	0	0	0	0	0	0	0	0	0	0	0	0	0	0	0	0	0	0	0	0	0	0	0	0	0	0	0	0	0	0	0	0	0	0	0	0	0	0	0	0	0	0	0	0	0	0	0	0	0	0	0	0	0	0	0	1	2	1	1	1	0	0	0	0	0	0	0	0	0	0	0	0	0	0	0	0	0	0	0	0	0	0	0	0	0	0	0	0	0	0	0	0	0	0	0	0	0	0	0	0	0	0	0	0	0	0	0	0	0	0	0	0	0	0	0	0	0	0	0	0	0	0	0	0	0	0	0	0	0	0	0	0	0	0	0	0	0	0	0	0	0	0	0	0	0	0	0	0	0	0	0	0	0	0	0	0	0	0	0	0	0	0	0	0	0	0	0	0	0	0	0	0	0	0	0	0	0	0	0	0	0	0	0	0	0	0	0	0	0	0	0	0	0	0	0	0	0	0	0	0	0	0	0	0	0	0	0	0	0	0	0	0	0	0	0	0	0	0	0	0	0	0	0	0	0	0	0	0	0	0	0	0	0	0	0	0	0	0	0	0	0	0	0	0	0	0	0	0	0	0	0	0	0	0	0	0	0	0	0	0	0	0	0	0	0	0	0	0	0	0	0	0	0	0	0	0	0	0	0	0	0	0	0	0	0	0	0	0	0	0	0	0	0	0	0	0	0	0	0	0	0	0	0	0	0	0	0	0	0	0	0	0	0	0	0	0	0	0	0	0	0	0	0	0	0	0	0	0	0	0	0	0	0	0	0	0	0	0	0	0	0	0	0	0	0	0	0	0	0	0	0	0	0	0	0	0	0	0	0	0	0	0	0	0	0	0	0	0	0	0	0	0	0	0	0	0	0	0	1	2	3	4	5	6	8	12	15	16	17	20	22	24	26	29	31	34	37	39	42	44	47	50	52	55	58	61	64	68	71	74	77	80	83	86	90	92	92	94	97	100	103	106	108	110	112	115	116	117	118	118	117	115	113	111	109	107	104	101	98	95	94	92	91	90	90	89	89	90	91	92	92	92	93	94	96	99	101	102	102	103	105	106	107	107	107	106	106	105	103	103	103	103	104	105	104	105	108	109	109	108	107	105	103	101	100	99	98	96	94	92	90	88	86	85	84	82	79	78	77	77	78	79	79	79	80	79	79	79	80	80	79	79	81	84	86	87	87	87	87	87	88	88	88	88	88	89	89	88	89	89	88	87	88	88	88	89	90	90	91	93	94	95	95	95	96	97	99	102	103	104	105	108	111	112	114	115	116	117	117	117	118	118	118	118	118	120	122	124	127	131	136	139	142	144	148	153	158	163	166	169	171	173	176	179	183	188	191	193	196	198	200	202	202	202	200	198	197	195	191	188	188	190	192	194	196	197	197	198	200	201	201	201	200	198	197	196	195	194	192	190	188	185	183	182	182	183	184	183	181	179	179	179	179	178	177	177	177	177	175	175	175	175	175	177	180	181	181	182	185	188	191	192	194	196	196	196	196	196	196	198	201	204	207	210	213	217	221	224	227	230	233	236	239	243	245	248	251	254	256	260	263	266	269	273	277	280	283	286	288	291	292	293	293	294	295	296	296	297	297	296	295	294	293	293	294	294	294	293	293	294	295	296	297	298	300	300	301	301	301	301	301	301	302	303	304	304	306	309	310	312	314	316	319	320	322	323	324	325	327	328	329	331	333	335	337	340	343	346	349	351	353	356	359	362	365	368	371	373	374	374	373	372	371	370	368	366	364	362	360	359	358	357	357	358	360	361	362	364	366	368	371	373	374	376	377	377	378	378	380	381	383	385	387	389	391	392	394	396	398	400	403	404	406	408	410	412	414	417	419	421	421	421	421	421	423	425	428	431	434	438	440	442	444	447	449	450	452	453	454	454	454	453	452	452	453	453	453	453	453	453	451	450	449	447	446	444	443	441	440	438	437	437	436	435	435	434	434	432	431	430	429	429	429	428	428	428	427	426	425	424	424	424	424	424	423	423	423	421	419	418	415	413	411	408	406	405	403	400	396	393	390	387	385	382	379	376	373	370	368	365	362	359	357	355	353	351	350	348	346	344	342	342	342	342	342	340	337	335
0	0	0	0	0	0	0	0	0	0	0	0	0	0	0	0	0	0	0	0	0	0	0	0	0	0	0	0	0	0	0	0	0	0	0	0	0	0	0	0	0	0	0	0	0	0	0	0	0	0	0	0	0	0	0	0	0	0	0	0	0	0	0	0	0	0	0	0	0	0	0	0	0	0	0	0	0	0	0	0	0	0	0	0	0	0	0	0	0	0	0	0	0	0	0	0	0	0	0	0	0	0	0	0	0	0	0	0	0	0	0	0	0	0	0	0	0	0	0	0	0	0	0	0	0	0	0	0	0	0	0	0	0	0	0	0	0	0	0	0	0	0	0	0	0	0	0	0	0	0	0	0	0	0	0	0	0	0	0	0	0	0	0	0	0	0	0	0	0	0	0	0	0	0	0	0	0	0	0	0	0	0	0	0	0	0	0	0	0	0	0	0	0	0	0	0	0	0	0	0	0	0	0	0	0	0	0	0	0	0	0	0	0	0	0	0	0	0	0	0	0	0	0	0	0	0	0	0	0	0	0	0	0	0	0	0	0	0	0	0	0	0	0	0	0	0	0	0	0	0	0	0	0	0	0	0	0	0	0	0	0	0	0	0	0	0	0	0	0	0	0	0	0	0	0	0	0	0	0	0	0	0	0	0	0	0	0	0	0	0	0	0	0	0	0	0	0	0	0	0	0	0	0	0	0	0	0	0	0	0	0	0	0	0	0	0	0	0	0	0	0	0	0	0	0	0	0	0	0	0	0	0	0	0	0	0	0	0	0	0	0	0	0	0	0	0	0	0	0	0	0	0	0	0	0	0	0	0	0	0	0	0	0	0	0	0	0	0	0	0	0	0	0	0	0	0	0	0	0	0	0	0	0	0	0	0	0	0	0	0	0	0	0	0	0	0	0	0	0	0	0	0	0	0	0	0	0	0	0	0	0	0	0	0	0	0	0	0	0	0	0	0	0	0	0	0	0	0	0	0	0	0	1	2	3	4	5	6	8	12	15	15	16	18	21	23	25	28	30	33	35	38	40	42	45	48	51	54	57	60	63	66	69	73	76	79	81	84	87	89	90	92	94	97	100	103	105	107	110	112	114	115	116	117	116	115	113	111	109	107	105	101	97	94	92	90	89	88	88	88	88	89	90	91	91	91	92	93	95	98	99	100	100	101	103	104	105	105	105	105	104	102	101	100	100	101	102	103	103	104	106	107	107	107	106	104	102	101	99	99	98	94	91	89	88	86	85	84	83	81	78	77	75	75	76	77	77	77	77	76	76	77	78	78	77	77	78	81	83	84	85	85	85	85	85	86	86	87	87	87	87	87	86	86	85	85	86	86	86	87	88	88	90	92	93	94	94	96	97	99	101	104	105	106	108	110	112	114	116	117	118	119	120	120	120	121	120	119	119	121	122	123	125	129	133	136	139	142	146	151	157	161	164	167	170	172	175	179	183	188	191	194	196	198	199	200	201	200	198	196	195	191	186	183	184	188	190	192	193	194	194	195	197	198	199	199	198	196	195	194	193	191	189	187	185	183	180	178	178	180	183	182	179	176	175	176	176	175	175	175	175	174	173	172	172	173	174	176	179	180	180	181	185	188	189	190	192	194	195	195	195	195	195	197	200	205	208	211	214	218	221	225	228	230	233	236	239	242	245	248	251	254	257	260	263	265	268	271	276	279	282	284	287	289	290	291	291	293	294	295	296	296	296	295	294	293	292	292	292	292	292	292	292	292	293	294	295	297	298	299	299	299	298	298	298	299	299	300	301	303	305	307	308	310	312	315	317	319	320	322	323	324	326	326	327	329	331	334	336	339	342	345	347	350	352	355	358	361	364	367	370	373	374	373	372	371	371	371	370	368	366	364	362	361	359	358	358	359	361	363	365	367	369	371	372	374	376	378	380	380	380	380	381	382	384	387	389	390	392	393	394	396	398	400	402	403	405	407	409	411	412	414	417	419	419	418	419	420	423	426	429	433	436	438	441	443	445	448	450	452	453	454	456	456	456	455	454	454	455	455	455	456	455	454	453	452	452	450	448	446	445	443	442	440	440	439	438	437	437	437	436	435	433	432	431	431	430	430	429	429	428	427	426	425	425	426	426	426	426	425	424	422	420	418	416	413	412	410	407	405	403	401	397	394	391	388	386	382	379	376	373	371	369	366	362	359	358	356	353	351	349	348	346	344	342	341	341	341	341	339	337	335
0	0	0	0	0	0	0	0	0	0	0	0	0	0	0	0	0	0	0	0	0	0	0	0	0	0	0	0	0	0	0	0	0	0	0	0	0	0	0	0	0	0	0	0	0	0	0	0	0	0	0	0	0	0	0	0	0	0	0	0	0	0	0	0	0	0	0	0	0	0	0	0	0	0	0	0	0	0	0	0	0	0	0	0	0	0	0	0	0	0	0	0	0	0	0	0	0	0	0	0	0	0	0	0	0	0	0	0	0	0	0	0	0	0	0	0	0	0	0	0	0	0	0	0	0	0	0	0	0	0	0	0	0	0	0	0	0	0	0	0	0	0	0	0	0	0	0	0	0	0	0	0	0	0	0	0	0	0	0	0	0	0	0	0	0	0	0	0	0	0	0	0	0	0	0	0	0	0	0	0	0	0	0	0	0	0	0	0	0	0	0	0	0	0	0	0	0	0	0	0	0	0	0	0	0	0	0	0	0	0	0	0	0	0	0	0	0	0	0	0	0	0	0	0	0	0	0	0	0	0	0	0	0	0	0	0	0	0	0	0	0	0	0	0	0	0	0	0	0	0	0	0	0	0	0	0	0	0	0	0	0	0	0	0	0	0	0	0	0	0	0	0	0	0	0	0	0	0	0	0	0	0	0	0	0	0	0	0	0	0	0	0	0	0	0	0	0	0	0	0	0	0	0	0	0	0	0	0	0	0	0	0	0	0	0	0	0	0	0	0	0	0	0	0	0	0	0	0	0	0	0	0	0	0	0	0	0	0	0	0	0	0	0	0	0	0	0	0	0	0	0	0	0	0	0	0	0	0	0	0	0	0	0	0	0	0	0	0	0	0	0	0	0	0	0	0	0	0	0	0	0	0	0	0	0	0	0	0	0	0	0	0	0	0	0	0	0	0	0	0	0	0	0	0	0	0	0	0	0	0	0	0	0	0	0	0	0	0	0	0	0	0	0	0	0	0	0	0	0	0	0	0	1	2	3	4	6	6	7	11	14	15	15	17	20	22	24	26	29	31	34	37	39	41	44	47	50	53	55	58	62	64	67	70	74	77	80	82	84	86	88	90	92	95	98	101	103	106	109	111	113	115	116	116	116	115	113	111	109	108	105	102	97	94	91	89	87	86	86	87	87	88	89	90	90	90	91	93	95	96	97	97	98	99	101	103	104	104	104	103	102	101	100	99	99	99	100	100	101	102	104	105	105	105	105	104	102	101	99	98	97	94	90	87	86	85	84	83	82	80	77	75	74	74	74	75	75	75	74	73	74	75	76	76	76	76	76	78	80	82	82	82	82	82	83	83	84	85	86	86	86	85	85	85	85	85	85	85	86	87	87	88	90	91	92	93	94	97	100	101	103	105	107	108	110	112	114	115	117	119	120	121	121	121	122	122	121	120	121	122	122	123	126	129	132	134	137	141	145	150	155	159	162	166	169	172	176	180	184	187	190	193	195	196	196	196	197	197	195	193	191	187	182	180	180	185	188	188	189	191	191	192	194	195	196	196	195	194	193	192	191	189	186	184	182	180	177	176	175	176	178	178	174	172	173	173	173	173	172	172	172	171	169	168	169	171	173	175	176	177	179	181	184	186	187	188	190	191	193	194	194	194	195	197	201	205	209	213	216	219	222	225	228	230	234	236	239	242	245	249	252	254	257	260	262	265	267	270	274	277	280	283	285	287	288	289	290	292	294	295	295	295	295	294	293	292	292	291	290	290	290	291	291	292	292	293	294	295	296	297	297	296	295	295	295	296	297	298	299	301	303	305	306	308	310	313	316	318	319	321	322	323	324	325	326	327	330	333	336	338	341	344	346	349	351	354	357	360	364	367	369	371	372	371	370	370	370	370	369	368	367	366	365	363	362	360	360	361	363	364	366	368	370	372	373	375	377	380	382	382	381	381	382	384	386	388	390	392	393	394	395	396	397	399	400	402	403	405	407	408	410	411	413	415	416	417	418	420	423	427	431	435	437	440	441	444	446	449	451	453	454	456	457	457	457	456	456	456	457	458	458	458	457	456	455	454	453	452	450	448	447	445	444	442	442	441	440	440	439	439	438	436	435	433	433	432	432	431	430	430	429	428	427	427	427	428	428	428	428	427	425	423	420	418	416	414	413	411	408	406	404	402	399	395	392	389	386	383	379	376	374	372	369	365	362	360	358	356	353	351	349	347	345	343	342	342	341	341	340	338	336	335
0	0	0	0	0	0	0	0	0	0	0	0	0	0	0	0	0	0	0	0	0	0	0	0	0	0	0	0	0	0	0	0	0	0	0	0	0	0	0	0	0	0	0	0	0	0	0	0	0	0	0	0	0	0	0	0	0	0	0	0	0	0	0	0	0	0	0	0	0	0	0	0	0	0	0	0	0	0	0	0	0	0	0	0	0	0	0	0	0	0	0	0	0	0	0	0	0	0	0	0	0	0	0	0	0	0	0	0	0	0	0	0	0	0	0	0	0	0	0	0	0	0	0	0	0	0	0	0	0	0	0	0	0	0	0	0	0	0	0	0	0	0	0	0	0	0	0	0	0	0	0	0	0	0	0	0	0	0	0	0	0	0	0	0	0	0	0	0	0	0	0	0	0	0	0	0	0	0	0	0	0	0	0	0	0	0	0	0	0	0	0	0	0	0	0	0	0	0	0	0	0	0	0	0	0	0	0	0	0	0	0	0	0	0	0	0	0	0	0	0	0	0	0	0	0	0	0	0	0	0	0	0	0	0	0	0	0	0	0	0	0	0	0	0	0	0	0	0	0	0	0	0	0	0	0	0	0	0	0	0	0	0	0	0	0	0	0	0	0	0	0	0	0	0	0	0	0	0	0	0	0	0	0	0	0	0	0	0	0	0	0	0	0	0	0	0	0	0	0	0	0	0	0	0	0	0	0	0	0	0	0	0	0	0	0	0	0	0	0	0	0	0	0	0	0	0	0	0	0	0	0	0	0	0	0	0	0	0	0	0	0	0	0	0	0	0	0	0	0	0	0	0	0	0	0	0	0	0	0	0	0	0	0	0	0	0	0	0	0	0	0	0	0	0	0	0	0	0	0	0	0	0	0	0	0	0	0	0	0	0	0	0	0	0	0	0	0	0	0	0	0	0	0	0	0	0	0	0	0	0	0	0	0	0	0	0	0	0	0	0	0	0	0	0	0	0	0	0	0	0	0	0	1	2	3	5	6	6	7	10	13	15	15	17	19	21	24	26	28	30	33	36	38	40	43	46	49	52	54	57	60	63	65	68	71	75	78	80	82	85	87	89	91	93	96	99	103	106	109	112	114	116	116	116	116	115	113	111	109	108	105	101	96	94	91	88	86	85	85	86	86	87	88	89	89	89	90	92	94	95	96	96	96	98	100	101	102	103	103	102	101	100	99	98	98	98	99	99	99	100	103	104	104	104	103	103	102	100	99	98	96	93	90	86	84	83	82	82	81	78	75	74	73	73	72	72	73	74	73	72	72	73	74	75	75	74	74	75	78	80	80	80	80	80	80	81	81	82	83	83	83	84	84	85	85	84	85	86	87	87	87	88	90	91	92	93	95	98	101	103	105	106	108	110	112	114	115	117	119	120	122	122	123	123	123	123	123	124	123	123	124	126	129	131	132	134	137	142	145	150	154	158	162	165	169	173	176	180	183	186	188	191	192	192	192	192	193	194	192	189	186	183	181	179	177	179	183	185	186	187	189	190	192	192	192	192	191	190	190	190	188	186	183	180	178	177	175	173	172	172	172	172	169	169	170	170	170	170	169	169	169	168	167	166	166	169	171	172	173	175	178	180	182	183	185	186	187	188	190	191	192	194	195	197	201	205	210	214	218	220	223	226	228	231	234	237	241	244	247	250	254	256	258	260	262	265	267	270	272	275	278	281	282	284	286	287	289	291	293	294	295	295	295	294	292	292	292	292	291	290	290	290	290	291	291	292	293	294	295	295	294	293	292	291	292	294	294	295	297	298	300	302	304	306	308	312	314	316	318	320	321	322	323	323	324	326	329	332	335	338	340	342	345	348	350	353	355	359	362	366	368	370	370	368	367	367	367	367	368	368	368	367	366	365	363	362	361	362	363	365	367	369	371	372	374	376	378	381	382	382	382	382	383	385	387	389	391	393	395	396	396	396	396	397	398	399	401	403	405	406	407	408	411	413	414	416	418	421	425	429	433	436	439	441	443	445	448	450	452	454	456	457	458	458	458	458	458	458	459	460	460	459	459	458	457	456	454	453	451	450	449	447	446	444	444	443	443	442	442	441	440	438	436	435	435	434	433	432	431	431	431	430	429	429	429	430	431	430	429	427	425	423	421	418	417	415	413	411	409	407	404	402	399	396	392	389	387	384	380	376	374	372	369	365	362	360	358	356	354	352	349	347	345	344	343	342	342	340	339	337	335	334
0	0	0	0	0	0	0	0	0	0	0	0	0	0	0	0	0	0	0	0	0	0	0	0	0	0	0	0	0	0	0	0	0	0	0	0	0	0	0	0	0	0	0	0	0	0	0	0	0	0	0	0	0	0	0	0	0	0	0	0	0	0	0	0	0	0	0	0	0	0	0	0	0	0	0	0	0	0	0	0	0	0	0	0	0	0	0	0	0	0	0	0	0	0	0	0	0	0	0	0	0	0	0	0	0	0	0	0	0	0	0	0	0	0	0	0	0	0	0	0	0	0	0	0	0	0	0	0	0	0	0	0	0	0	0	0	0	0	0	0	0	0	0	0	0	0	0	0	0	0	0	0	0	0	0	0	0	0	0	0	0	0	0	0	0	0	0	0	0	0	0	0	0	0	0	0	0	0	0	0	0	0	0	0	0	0	0	0	0	0	0	0	0	0	0	0	0	0	0	0	0	0	0	0	0	0	0	0	0	0	0	0	0	0	0	0	0	0	0	0	0	0	0	0	0	0	0	0	0	0	0	0	0	0	0	0	0	0	0	0	0	0	0	0	0	0	0	0	0	0	0	0	0	0	0	0	0	0	0	0	0	0	0	0	0	0	0	0	0	0	0	0	0	0	0	0	0	0	0	0	0	0	0	0	0	0	0	0	0	0	0	0	0	0	0	0	0	0	0	0	0	0	0	0	0	0	0	0	0	0	0	0	0	0	0	0	0	0	0	0	0	0	0	0	0	0	0	0	0	0	0	0	0	0	0	0	0	0	0	0	0	0	0	0	0	0	0	0	0	0	0	0	0	0	0	0	0	0	0	0	0	0	0	0	0	0	0	0	0	0	0	0	0	0	0	0	0	0	0	0	0	0	0	0	0	0	0	0	0	0	0	0	0	0	0	0	0	0	0	0	0	0	0	0	0	0	0	0	0	0	0	0	0	0	0	0	0	0	0	0	0	0	0	0	0	0	0	0	0	0	0	1	2	2	3	5	7	6	7	10	13	15	16	18	19	22	24	26	28	30	33	35	37	40	42	45	47	50	53	55	58	61	64	66	68	72	75	78	81	83	86	88	90	93	96	99	103	107	109	112	114	116	116	116	116	115	113	111	109	107	104	100	96	93	91	88	85	84	84	85	86	87	87	88	88	88	89	90	92	93	93	94	95	97	99	100	101	102	101	100	99	98	97	96	96	98	99	99	99	100	103	104	103	103	102	102	101	100	99	98	95	92	89	86	83	82	81	81	79	76	74	73	72	71	70	70	70	71	70	70	70	71	72	72	73	72	72	74	76	77	78	78	77	77	78	78	79	80	80	81	82	83	84	84	85	85	86	87	88	89	89	90	91	93	94	96	97	100	103	105	107	108	109	111	114	116	118	119	121	122	123	124	124	125	125	126	127	128	127	126	126	128	131	133	134	136	140	144	148	152	155	159	162	166	169	173	177	179	182	184	186	188	189	189	189	189	190	191	189	186	183	181	180	178	175	174	178	183	185	186	187	188	190	191	190	190	189	188	188	187	185	181	179	177	176	175	172	170	169	169	169	168	166	166	166	166	166	167	166	166	166	165	165	165	165	166	169	171	172	174	176	178	180	181	182	183	185	186	187	189	192	193	195	197	201	206	211	215	218	221	223	227	229	232	235	239	243	246	249	253	257	258	260	262	264	266	268	270	272	274	276	279	280	282	284	286	288	291	292	294	294	295	294	293	292	291	291	291	290	289	289	290	290	290	290	291	292	293	293	293	292	290	289	289	290	291	291	292	294	296	298	300	302	304	307	310	313	314	316	318	319	320	321	321	322	325	328	331	334	337	339	341	344	346	348	351	354	357	360	364	366	368	368	366	364	364	364	364	365	366	366	367	366	366	364	363	362	362	363	365	367	369	371	372	374	376	378	380	381	382	382	382	383	385	387	389	391	393	395	396	396	396	395	395	395	396	398	401	402	403	405	407	410	412	414	416	419	422	426	430	434	438	440	442	444	446	448	451	453	455	457	458	459	459	459	459	459	459	460	461	462	462	461	460	459	457	456	455	453	452	451	449	448	447	446	445	445	445	444	443	442	440	439	437	437	436	435	434	433	432	432	431	430	430	431	432	432	431	430	428	425	423	421	418	417	415	413	412	410	407	405	402	399	396	393	390	387	384	380	376	374	372	369	366	362	360	358	356	354	353	350	348	346	344	343	342	341	340	339	337	335	334
0	0	0	0	0	0	0	0	0	0	0	0	0	0	0	0	0	0	0	0	0	0	0	0	0	0	0	0	0	0	0	0	0	0	0	0	0	0	0	0	0	0	0	0	0	0	0	0	0	0	0	0	0	0	0	0	0	0	0	0	0	0	0	0	0	0	0	0	0	0	0	0	0	0	0	0	0	0	0	0	0	0	0	0	0	0	0	0	0	0	0	0	0	0	0	0	0	0	0	0	0	0	0	0	0	0	0	0	0	0	0	0	0	0	0	0	0	0	0	0	0	0	0	0	0	0	0	0	0	0	0	0	0	0	0	0	0	0	0	0	0	0	0	0	0	0	0	0	0	0	0	0	0	0	0	0	0	0	0	0	0	0	0	0	0	0	0	0	0	0	0	0	0	0	0	0	0	0	0	0	0	0	0	0	0	0	0	0	0	0	0	0	0	0	0	0	0	0	0	0	0	0	0	0	0	0	0	0	0	0	0	0	0	0	0	0	0	0	0	0	0	0	0	0	0	0	0	0	0	0	0	0	0	0	0	0	0	0	0	0	0	0	0	0	0	0	0	0	0	0	0	0	0	0	0	0	0	0	0	0	0	0	0	0	0	0	0	0	0	0	0	0	0	0	0	0	0	0	0	0	0	0	0	0	0	0	0	0	0	0	0	0	0	0	0	0	0	0	0	0	0	0	0	0	0	0	0	0	0	0	0	0	0	0	0	0	0	0	0	0	0	0	0	0	0	0	0	0	0	0	0	0	0	0	0	0	0	0	0	0	0	0	0	0	0	0	0	0	0	0	0	0	0	0	0	0	0	0	0	0	0	0	0	0	0	0	0	0	0	0	0	0	0	0	0	0	0	0	0	0	0	0	0	0	0	0	0	0	0	0	0	0	0	0	0	0	0	0	0	0	0	0	0	0	0	0	0	0	0	0	0	0	0	0	0	0	0	0	0	0	0	0	0	0	0	0	0	0	0	0	0	1	2	2	4	6	7	7	7	9	12	15	16	18	19	21	24	26	28	30	32	34	36	39	41	43	46	49	52	54	57	59	62	64	66	69	73	77	79	82	84	88	91	93	96	100	103	107	109	112	114	116	116	116	116	115	113	111	108	106	103	99	94	92	91	87	84	82	83	84	85	86	86	86	86	86	87	88	89	90	91	92	94	97	98	100	100	100	99	97	96	96	95	93	94	96	99	99	99	100	102	103	103	102	102	101	100	100	99	97	94	91	90	88	84	81	80	78	76	74	73	72	71	70	68	68	68	68	67	67	67	67	68	69	70	70	71	72	74	75	75	76	76	76	77	78	78	78	80	80	81	83	84	84	85	87	88	89	90	91	92	93	94	95	97	99	100	102	104	106	108	109	111	113	116	119	121	122	123	124	125	126	126	127	128	129	129	130	131	131	130	131	134	135	137	140	143	147	151	154	157	160	164	167	170	174	176	178	179	181	182	184	186	187	186	186	187	187	186	184	180	178	178	176	173	172	175	179	183	184	185	185	187	188	189	189	188	187	186	183	179	176	175	175	174	173	170	167	166	166	165	165	164	163	162	162	163	164	164	163	163	162	163	164	164	165	167	170	173	174	175	176	178	179	180	181	182	184	186	188	191	193	195	198	203	207	211	215	218	221	224	227	230	233	236	240	245	249	252	257	260	261	263	265	266	267	269	271	273	274	276	278	280	281	284	286	288	291	292	293	294	294	294	293	292	290	290	290	289	289	289	288	288	289	289	290	291	291	291	290	289	288	287	287	288	289	289	290	292	294	296	298	300	303	306	309	312	313	315	317	318	318	318	319	321	324	327	329	332	335	338	340	343	345	347	349	352	355	358	361	364	365	365	363	362	361	361	361	362	363	365	366	366	366	365	363	362	363	364	365	367	368	370	372	373	375	377	379	380	381	381	382	383	385	388	389	391	393	395	395	395	395	394	393	393	394	396	398	400	401	403	406	409	411	414	417	420	423	427	431	435	438	441	443	445	447	449	451	454	456	458	459	460	461	461	461	461	461	462	463	464	464	463	462	460	459	458	456	455	454	453	451	450	449	448	448	448	448	447	445	444	442	441	440	438	437	436	435	435	434	433	432	432	432	433	433	432	431	430	428	425	423	421	418	417	415	413	412	410	407	404	401	398	395	393	390	387	384	381	377	374	372	370	366	364	361	359	356	355	353	351	349	346	344	343	342	341	339	338	337	336	335
0	0	0	0	0	0	0	0	0	0	0	0	0	0	0	0	0	0	0	0	0	0	0	0	0	0	0	0	0	0	0	0	0	0	0	0	0	0	0	0	0	0	0	0	0	0	0	0	0	0	0	0	0	0	0	0	0	0	0	0	0	0	0	0	0	0	0	0	0	0	0	0	0	0	0	0	0	0	0	0	0	0	0	0	0	0	0	0	0	0	0	0	0	0	0	0	0	0	0	0	0	0	0	0	0	0	0	0	0	0	0	0	0	0	0	0	0	0	0	0	0	0	0	0	0	0	0	0	0	0	0	0	0	0	0	0	0	0	0	0	0	0	0	0	0	0	0	0	0	0	0	0	0	0	0	0	0	0	0	0	0	0	0	0	0	0	0	0	0	0	0	0	0	0	0	0	0	0	0	0	0	0	0	0	0	0	0	0	0	0	0	0	0	0	0	0	0	0	0	0	0	0	0	0	0	0	0	0	0	0	0	0	0	0	0	0	0	0	0	0	0	0	0	0	0	0	0	0	0	0	0	0	0	0	0	0	0	0	0	0	0	0	0	0	0	0	0	0	0	0	0	0	0	0	0	0	0	0	0	0	0	0	0	0	0	0	0	0	0	0	0	0	0	0	0	0	0	0	0	0	0	0	0	0	0	0	0	0	0	0	0	0	0	0	0	0	0	0	0	0	0	0	0	0	0	0	0	0	0	0	0	0	0	0	0	0	0	0	0	0	0	0	0	0	0	0	0	0	0	0	0	0	0	0	0	0	0	0	0	0	0	0	0	0	0	0	0	0	0	0	0	0	0	0	0	0	0	0	0	0	0	0	0	0	0	0	0	0	0	0	0	0	0	0	0	0	0	0	0	0	0	0	0	0	0	0	0	0	0	0	0	0	0	0	0	0	0	0	0	0	0	0	0	0	0	0	0	0	0	0	0	0	0	0	0	0	0	0	0	0	0	0	0	0	0	0	0	0	0	0	0	1	2	3	4	5	7	7	7	10	13	14	16	17	19	21	23	25	27	29	31	34	36	38	40	42	45	47	50	53	55	58	60	62	64	67	71	75	78	81	83	87	90	94	97	100	103	106	109	112	114	115	116	116	116	115	113	110	108	105	101	97	93	91	89	86	83	81	81	83	84	85	85	85	85	85	86	86	87	88	89	92	94	96	98	99	99	98	97	95	94	93	92	91	91	92	95	96	98	99	100	101	101	102	101	100	100	99	98	96	92	89	89	88	85	81	78	76	75	73	71	71	70	69	68	67	66	66	65	65	65	65	65	66	67	69	70	71	73	74	74	74	75	76	77	79	79	79	80	81	82	83	84	85	87	88	90	91	93	94	96	97	97	98	100	101	102	104	106	108	110	111	112	115	118	121	123	124	125	126	127	128	129	130	131	131	131	132	134	134	134	135	136	137	139	143	147	150	153	156	159	162	165	167	170	173	174	174	175	177	179	180	182	183	183	183	183	184	183	181	179	178	177	173	169	168	171	174	177	180	181	182	183	184	186	186	185	184	182	177	173	172	172	172	171	169	166	165	164	163	162	162	161	160	159	158	159	161	161	159	159	160	161	162	163	164	166	168	171	173	173	173	175	177	179	181	182	184	186	189	192	195	198	201	205	208	212	215	218	221	224	228	231	234	238	242	247	251	255	258	261	264	266	268	269	270	271	272	274	276	277	278	280	282	285	287	289	291	292	293	293	293	293	293	291	290	289	288	288	288	288	287	287	288	289	289	289	289	289	288	287	286	285	285	286	287	288	289	290	292	295	297	299	302	305	308	310	311	313	314	315	315	315	316	319	323	326	328	330	333	336	339	341	344	346	348	350	353	356	359	361	363	362	361	359	358	358	358	359	361	363	365	366	366	364	363	362	363	364	365	366	368	370	371	372	373	375	376	378	379	380	381	383	385	387	390	392	393	394	394	394	393	392	392	392	394	396	397	399	401	403	405	408	411	414	418	421	424	427	431	435	438	440	443	446	448	450	452	455	457	460	461	462	462	462	463	463	464	464	465	465	466	465	464	463	461	460	458	457	456	455	453	452	451	450	450	450	450	449	447	446	444	443	441	440	439	438	437	436	435	434	434	434	434	434	433	433	431	430	428	426	423	421	419	417	415	413	411	409	406	403	400	397	395	392	390	387	383	380	377	374	372	370	367	364	362	360	358	356	353	351	349	347	345	343	342	341	339	337	337	336	335
0	0	0	0	0	0	0	0	0	0	0	0	0	0	0	0	0	0	0	0	0	0	0	0	0	0	0	0	0	0	0	0	0	0	0	0	0	0	0	0	0	0	0	0	0	0	0	0	0	0	0	0	0	0	0	0	0	0	0	0	0	0	0	0	0	0	0	0	0	0	0	0	0	0	0	0	0	0	0	0	0	0	0	0	0	0	0	0	0	0	0	0	0	0	0	0	0	0	0	0	0	0	0	0	0	0	0	0	0	0	0	0	0	0	0	0	0	0	0	0	0	0	0	0	0	0	0	0	0	0	0	0	0	0	0	0	0	0	0	0	0	0	0	0	0	0	0	0	0	0	0	0	0	0	0	0	0	0	0	0	0	0	0	0	0	0	0	0	0	0	0	0	0	0	0	0	0	0	0	0	0	0	0	0	0	0	0	0	0	0	0	0	0	0	0	0	0	0	0	0	0	0	0	0	0	0	0	0	0	0	0	0	0	0	0	0	0	0	0	0	0	0	0	0	0	0	0	0	0	0	0	0	0	0	0	0	0	0	0	0	0	0	0	0	0	0	0	0	0	0	0	0	0	0	0	0	0	0	0	0	0	0	0	0	0	0	0	0	0	0	0	0	0	0	0	0	0	0	0	0	0	0	0	0	0	0	0	0	0	0	0	0	0	0	0	0	0	0	0	0	0	0	0	0	0	0	0	0	0	0	0	0	0	0	0	0	0	0	0	0	0	0	0	0	0	0	0	0	0	0	0	0	0	0	0	0	0	0	0	0	0	0	0	0	0	0	0	0	0	0	0	0	0	0	0	0	0	0	0	0	0	0	0	0	0	0	0	0	0	0	0	0	0	0	0	0	0	0	0	0	0	0	0	0	0	0	0	0	0	0	0	0	0	0	0	0	0	0	0	0	0	0	0	0	0	0	0	0	0	0	0	0	0	0	0	0	0	0	0	0	0	0	0	0	0	0	0	0	0	0	0	1	2	3	3	5	6	6	8	11	13	14	15	17	18	20	22	24	26	28	30	33	35	37	39	41	44	46	49	51	53	56	58	60	63	67	71	75	78	80	83	86	90	93	96	99	103	106	109	111	114	115	116	116	115	114	112	109	107	103	99	95	92	90	88	85	82	80	80	81	83	84	84	84	84	84	84	85	86	87	89	91	94	95	97	97	97	97	96	94	93	91	90	89	88	89	90	93	96	98	98	99	100	101	101	100	99	97	96	94	90	87	87	87	85	80	77	76	74	71	70	70	69	69	68	66	66	65	64	64	63	64	65	66	67	68	69	70	72	72	72	73	74	75	77	78	79	80	82	83	84	85	86	87	89	91	93	94	96	97	99	100	100	101	102	103	104	105	107	110	111	113	114	117	119	122	123	125	127	128	130	131	131	132	133	133	134	135	136	137	137	137	137	139	142	145	149	152	154	157	160	162	164	166	167	169	170	170	171	172	174	176	178	180	180	179	180	181	181	180	178	177	176	172	167	165	167	169	172	176	177	178	178	180	181	181	180	180	179	173	170	170	169	169	167	165	163	163	162	160	159	159	159	158	156	155	156	157	157	157	157	158	159	161	163	164	164	166	168	170	171	172	173	175	178	180	182	185	188	190	193	197	201	204	206	209	212	215	218	222	225	229	233	236	241	245	248	252	256	260	264	267	269	271	272	273	274	275	277	278	279	280	282	283	286	288	289	291	292	292	293	293	293	292	291	290	288	287	286	287	287	287	287	287	288	289	289	288	288	287	285	284	284	284	284	286	287	288	289	291	294	296	298	301	304	307	308	309	310	311	311	312	313	315	319	323	326	327	329	331	334	337	340	342	344	346	348	351	355	357	359	360	360	358	356	356	356	356	357	358	361	363	365	365	364	363	362	362	363	364	366	367	368	369	370	371	373	374	376	378	379	381	383	385	387	389	391	392	393	393	392	391	391	390	391	393	396	397	399	401	403	406	409	411	414	418	421	424	428	431	435	438	441	444	446	449	451	454	456	459	461	463	464	463	464	464	465	465	466	467	467	468	467	466	465	463	462	460	459	458	456	455	454	453	453	453	453	452	451	450	448	446	444	442	441	440	440	439	438	437	436	435	435	435	434	434	433	431	430	428	426	424	421	419	417	415	413	410	408	405	402	399	397	394	392	389	386	383	380	377	375	372	370	367	365	362	360	359	357	354	351	348	346	345	343	342	341	339	338	337	336	335
0	0	0	0	0	0	0	0	0	0	0	0	0	0	0	0	0	0	0	0	0	0	0	0	0	0	0	0	0	0	0	0	0	0	0	0	0	0	0	0	0	0	0	0	0	0	0	0	0	0	0	0	0	0	0	0	0	0	0	0	0	0	0	0	0	0	0	0	0	0	0	0	0	0	0	0	0	0	0	0	0	0	0	0	0	0	0	0	0	0	0	0	0	0	0	0	0	0	0	0	0	0	0	0	0	0	0	0	0	0	0	0	0	0	0	0	0	0	0	0	0	0	0	0	0	0	0	0	0	0	0	0	0	0	0	0	0	0	0	0	0	0	0	0	0	0	0	0	0	0	0	0	0	0	0	0	0	0	0	0	0	0	0	0	0	0	0	0	0	0	0	0	0	0	0	0	0	0	0	0	0	0	0	0	0	0	0	0	0	0	0	0	0	0	0	0	0	0	0	0	0	0	0	0	0	0	0	0	0	0	0	0	0	0	0	0	0	0	0	0	0	0	0	0	0	0	0	0	0	0	0	0	0	0	0	0	0	0	0	0	0	0	0	0	0	0	0	0	0	0	0	0	0	0	0	0	0	0	0	0	0	0	0	0	0	0	0	0	0	0	0	0	0	0	0	0	0	0	0	0	0	0	0	0	0	0	0	0	0	0	0	0	0	0	0	0	0	0	0	0	0	0	0	0	0	0	0	0	0	0	0	0	0	0	0	0	0	0	0	0	0	0	0	0	0	0	0	0	0	0	0	0	0	0	0	0	0	0	0	0	0	0	0	0	0	0	0	0	0	0	0	0	0	0	0	0	0	0	0	0	0	0	0	0	0	0	0	0	0	0	0	0	0	0	0	0	0	0	0	0	0	0	0	0	0	0	0	0	0	0	0	0	0	0	0	0	0	0	0	0	0	0	0	0	0	0	0	0	0	0	0	0	0	0	0	0	0	0	0	0	0	0	0	0	0	0	0	0	0	0	1	2	2	3	4	7	8	7	8	12	13	14	15	16	18	19	21	23	25	27	29	32	34	36	38	40	42	45	47	49	52	54	57	60	63	67	70	74	77	80	83	87	90	93	96	98	102	105	108	111	113	114	115	115	114	112	110	108	105	101	96	93	90	88	86	82	79	78	78	79	81	83	83	83	83	83	83	83	85	87	89	91	93	94	94	95	96	96	94	93	91	89	89	88	87	87	88	90	93	95	96	97	99	100	100	99	97	94	93	92	89	86	86	86	84	80	77	75	72	71	69	69	69	69	68	66	65	65	64	63	62	63	65	66	67	68	69	70	71	72	72	72	74	74	75	77	78	80	82	84	86	87	88	90	93	94	96	97	99	100	102	103	103	103	104	105	106	108	110	112	113	115	116	118	121	122	124	126	129	130	131	133	134	135	135	136	136	137	138	139	139	140	140	142	144	147	151	153	155	157	159	162	163	164	163	163	165	166	167	168	170	172	175	177	176	175	176	178	179	177	176	175	173	170	166	164	164	166	170	174	176	176	176	176	177	177	178	179	178	172	167	167	167	166	163	162	161	161	160	158	157	156	156	155	155	154	154	155	156	157	157	157	158	160	162	163	164	166	167	169	171	173	174	175	177	179	182	185	189	191	194	198	203	206	208	210	214	217	219	223	227	231	234	238	243	247	249	253	258	262	266	269	272	273	275	277	278	279	280	281	282	283	283	285	287	288	289	290	291	292	292	292	292	291	291	290	288	287	286	285	286	286	286	287	287	288	288	287	287	285	284	283	283	283	283	284	286	287	289	291	293	295	298	300	303	305	306	307	308	309	309	310	312	315	318	322	325	327	328	330	333	335	337	339	342	344	347	350	353	356	357	358	357	355	354	353	354	354	354	356	358	361	363	364	363	362	361	361	361	362	364	365	366	367	368	369	371	373	376	378	379	381	383	384	386	388	389	390	390	390	390	389	389	390	391	394	396	398	400	402	404	406	409	412	415	418	421	425	428	432	435	438	441	444	447	450	453	456	458	461	463	465	465	465	465	466	466	467	468	469	470	470	470	468	467	465	464	462	461	460	458	457	456	456	455	456	455	455	453	452	450	448	446	444	443	442	441	440	439	438	437	436	436	436	435	434	433	431	429	428	426	424	422	419	417	415	412	410	407	405	402	399	396	394	391	389	386	383	380	377	375	372	370	368	365	362	360	359	358	355	352	348	346	345	343	342	341	339	338	337	336	336
0	0	0	0	0	0	0	0	0	0	0	0	0	0	0	0	0	0	0	0	0	0	0	0	0	0	0	0	0	0	0	0	0	0	0	0	0	0	0	0	0	0	0	0	0	0	0	0	0	0	0	0	0	0	0	0	0	0	0	0	0	0	0	0	0	0	0	0	0	0	0	0	0	0	0	0	0	0	0	0	0	0	0	0	0	0	0	0	0	0	0	0	0	0	0	0	0	0	0	0	0	0	0	0	0	0	0	0	0	0	0	0	0	0	0	0	0	0	0	0	0	0	0	0	0	0	0	0	0	0	0	0	0	0	0	0	0	0	0	0	0	0	0	0	0	0	0	0	0	0	0	0	0	0	0	0	0	0	0	0	0	0	0	0	0	0	0	0	0	0	0	0	0	0	0	0	0	0	0	0	0	0	0	0	0	0	0	0	0	0	0	0	0	0	0	0	0	0	0	0	0	0	0	0	0	0	0	0	0	0	0	0	0	0	0	0	0	0	0	0	0	0	0	0	0	0	0	0	0	0	0	0	0	0	0	0	0	0	0	0	0	0	0	0	0	0	0	0	0	0	0	0	0	0	0	0	0	0	0	0	0	0	0	0	0	0	0	0	0	0	0	0	0	0	0	0	0	0	0	0	0	0	0	0	0	0	0	0	0	0	0	0	0	0	0	0	0	0	0	0	0	0	0	0	0	0	0	0	0	0	0	0	0	0	0	0	0	0	0	0	0	0	0	0	0	0	0	0	0	0	0	0	0	0	0	0	0	0	0	0	0	0	0	0	0	0	0	0	0	0	0	0	0	0	0	0	0	0	0	0	0	0	0	0	0	0	0	0	0	0	0	0	0	0	0	0	0	0	0	0	0	0	0	0	0	0	0	0	0	0	0	0	0	0	0	0	0	0	0	0	0	0	0	0	0	0	0	0	0	0	0	0	0	0	0	0	0	0	0	0	0	0	0	0	0	0	0	0	0	0	1	2	3	4	6	8	10	10	11	12	13	13	14	16	17	19	21	24	25	26	29	32	33	35	37	39	42	44	46	49	51	54	57	59	62	66	69	73	76	79	82	86	89	92	95	97	101	104	107	110	112	113	114	113	112	110	108	105	102	97	93	91	88	86	83	79	76	75	76	78	80	82	82	82	82	82	83	83	85	87	88	90	91	91	91	92	94	94	93	91	89	88	88	87	86	86	86	88	90	92	94	96	97	98	98	97	95	92	90	90	88	86	86	85	83	79	75	73	71	70	69	68	68	68	66	65	64	64	63	61	61	63	66	68	68	69	70	71	72	73	73	73	74	75	76	77	79	82	84	86	88	89	91	93	95	97	98	99	101	103	105	106	106	106	107	109	110	111	113	114	115	116	118	120	122	123	125	127	130	131	133	135	136	137	137	138	139	139	140	141	142	142	144	145	147	149	151	153	155	157	158	160	160	160	159	159	160	162	163	165	167	169	172	173	172	171	172	175	175	175	173	171	170	168	166	164	163	165	167	170	173	173	173	174	174	173	176	178	176	169	165	165	165	163	161	159	159	159	158	156	154	154	153	153	154	154	155	156	157	157	157	158	159	160	161	163	166	168	168	170	173	174	175	175	177	178	180	185	189	192	194	198	202	206	208	211	215	218	220	224	228	231	235	239	244	247	251	255	260	264	268	271	273	276	278	280	281	282	283	284	284	284	285	286	287	289	289	290	291	291	291	291	291	291	290	289	288	287	286	284	285	285	285	286	286	287	286	286	285	284	283	282	282	282	282	283	284	286	288	290	292	294	297	299	301	303	304	305	306	307	308	310	313	315	318	322	325	327	329	330	332	334	335	336	339	342	345	348	352	354	355	355	354	353	351	351	351	351	352	354	357	359	362	363	362	361	360	360	359	360	362	363	364	365	367	369	370	373	375	377	379	380	382	383	385	386	388	388	388	387	387	388	389	390	392	394	397	399	401	403	405	407	410	413	416	419	422	426	429	432	436	439	443	446	449	452	454	458	460	463	464	466	467	467	467	467	468	469	471	471	472	472	472	470	468	467	465	464	463	462	460	458	458	458	458	458	458	457	455	453	451	449	447	446	445	443	442	441	440	439	438	438	437	436	435	433	432	430	429	427	425	423	422	420	417	415	413	410	407	404	401	398	396	393	391	389	386	383	380	378	376	373	372	370	367	363	361	360	358	355	352	349	347	345	344	343	342	340	339	338	337	337
0	0	0	0	0	0	0	0	0	0	0	0	0	0	0	0	0	0	0	0	0	0	0	0	0	0	0	0	0	0	0	0	0	0	0	0	0	0	0	0	0	0	0	0	0	0	0	0	0	0	0	0	0	0	0	0	0	0	0	0	0	0	0	0	0	0	0	0	0	0	0	0	0	0	0	0	0	0	0	0	0	0	0	0	0	0	0	0	0	0	0	0	0	0	0	0	0	0	0	0	0	0	0	0	0	0	0	0	0	0	0	0	0	0	0	0	0	0	0	0	0	0	0	0	0	0	0	0	0	0	0	0	0	0	0	0	0	0	0	0	0	0	0	0	0	0	0	0	0	0	0	0	0	0	0	0	0	0	0	0	0	0	0	0	0	0	0	0	0	0	0	0	0	0	0	0	0	0	0	0	0	0	0	0	0	0	0	0	0	0	0	0	0	0	0	0	0	0	0	0	0	0	0	0	0	0	0	0	0	0	0	0	0	0	0	0	0	0	0	0	0	0	0	0	0	0	0	0	0	0	0	0	0	0	0	0	0	0	0	0	0	0	0	0	0	0	0	0	0	0	0	0	0	0	0	0	0	0	0	0	0	0	0	0	0	0	0	0	0	0	0	0	0	0	0	0	0	0	0	0	0	0	0	0	0	0	0	0	0	0	0	0	0	0	0	0	0	0	0	0	0	0	0	0	0	0	0	0	0	0	0	0	0	0	0	0	0	0	0	0	0	0	0	0	0	0	0	0	0	0	0	0	0	0	0	0	0	0	0	0	0	0	0	0	0	0	0	0	0	0	0	0	0	0	0	0	0	0	0	0	0	0	0	0	0	0	0	0	0	0	0	0	0	0	0	0	0	0	0	0	0	0	0	0	0	0	0	0	0	0	0	0	0	0	0	0	0	0	0	0	0	0	0	0	0	0	0	0	0	0	0	0	0	0	0	0	0	0	0	0	0	0	0	0	0	0	0	0	0	1	1	2	4	5	8	10	12	13	14	14	13	13	15	16	18	20	23	25	26	28	30	33	34	35	37	40	42	45	47	49	52	54	57	59	62	65	68	71	74	77	81	84	87	90	94	96	100	103	107	109	111	112	112	111	109	107	105	102	98	94	91	88	86	83	80	77	75	74	75	77	79	80	81	81	81	81	82	83	84	86	88	88	89	89	89	90	92	92	91	89	88	86	86	86	85	85	86	87	88	89	92	94	95	96	96	96	94	91	89	88	87	86	85	83	80	76	73	71	69	68	68	67	66	66	65	63	62	62	61	60	61	64	67	69	70	70	72	73	75	76	76	76	76	77	78	80	82	84	85	87	90	91	93	94	96	97	99	100	102	104	106	107	108	109	111	111	113	115	116	116	116	118	120	122	124	125	127	129	132	134	135	137	138	138	139	140	140	141	142	142	143	144	145	146	147	148	149	151	153	155	156	156	155	154	154	154	155	157	159	162	164	166	168	169	168	167	169	170	172	172	171	169	168	167	165	163	162	162	162	163	166	169	170	169	168	167	169	171	170	165	163	162	161	160	159	157	156	156	155	153	152	151	151	152	153	154	155	156	157	157	158	159	159	160	162	164	167	169	170	172	174	176	177	177	177	178	180	185	189	193	195	197	200	204	206	211	215	217	221	225	228	232	236	240	244	248	251	256	261	265	268	271	275	278	280	282	284	285	285	285	285	285	286	287	288	289	289	290	291	291	291	291	291	290	290	290	289	288	286	284	284	284	284	285	286	286	285	285	284	283	282	281	281	282	282	282	283	285	288	290	291	293	295	297	299	300	302	303	304	305	307	309	313	315	319	322	325	327	329	330	332	332	332	334	337	340	344	347	349	352	353	353	352	350	349	348	348	348	349	352	355	358	360	361	361	360	359	358	358	359	360	361	362	364	366	368	370	372	375	377	378	379	381	382	383	385	386	386	385	385	386	387	388	390	392	394	397	399	402	404	406	408	411	413	416	420	423	426	429	433	436	440	444	447	450	453	456	459	462	464	465	467	468	468	468	469	469	471	472	474	474	474	474	472	470	469	468	466	465	463	462	461	460	460	460	460	460	459	457	455	453	451	449	447	446	445	444	443	442	441	440	439	437	436	435	433	431	430	428	426	424	422	421	419	417	415	412	409	407	404	401	398	395	393	391	389	386	384	381	379	376	374	373	371	368	363	361	360	357	355	352	350	348	346	345	345	344	342	341	340	339	339
0	0	0	0	0	0	0	0	0	0	0	0	0	0	0	0	0	0	0	0	0	0	0	0	0	0	0	0	0	0	0	0	0	0	0	0	0	0	0	0	0	0	0	0	0	0	0	0	0	0	0	0	0	0	0	0	0	0	0	0	0	0	0	0	0	0	0	0	0	0	0	0	0	0	0	0	0	0	0	0	0	0	0	0	0	0	0	0	0	0	0	0	0	0	0	0	0	0	0	0	0	0	0	0	0	0	0	0	0	0	0	0	0	0	0	0	0	0	0	0	0	0	0	0	0	0	0	0	0	0	0	0	0	0	0	0	0	0	0	0	0	0	0	0	0	0	0	0	0	0	0	0	0	0	0	0	0	0	0	0	0	0	0	0	0	0	0	0	0	0	0	0	0	0	0	0	0	0	0	0	0	0	0	0	0	0	0	0	0	0	0	0	0	0	0	0	0	0	0	0	0	0	0	0	0	0	0	0	0	0	0	0	0	0	0	0	0	0	0	0	0	0	0	0	0	0	0	0	0	0	0	0	0	0	0	0	0	0	0	0	0	0	0	0	0	0	0	0	0	0	0	0	0	0	0	0	0	0	0	0	0	0	0	0	0	0	0	0	0	0	0	0	0	0	0	0	0	0	0	0	0	0	0	0	0	0	0	0	0	0	0	0	0	0	0	0	0	0	0	0	0	0	0	0	0	0	0	0	0	0	0	0	0	0	0	0	0	0	0	0	0	0	0	0	0	0	0	0	0	0	0	0	0	0	0	0	0	0	0	0	0	0	0	0	0	0	0	0	0	0	0	0	0	0	0	0	0	0	0	0	0	0	0	0	0	0	0	0	0	0	0	0	0	0	0	0	0	0	0	0	0	0	0	0	0	0	0	0	0	0	0	0	0	0	0	0	0	0	0	0	0	0	0	0	0	0	0	0	0	0	0	0	0	0	0	0	0	0	0	0	0	0	0	0	0	0	0	0	1	1	2	3	5	8	9	11	14	15	16	16	15	14	16	18	19	22	24	27	28	30	32	34	36	37	39	41	43	45	47	50	52	54	57	59	62	64	67	70	73	76	79	83	86	89	92	95	98	102	105	108	110	110	110	109	106	104	102	98	95	92	89	86	83	81	79	76	75	74	74	76	78	78	79	80	80	80	81	82	84	85	86	86	86	87	87	88	90	90	90	88	87	85	84	83	82	83	85	86	87	88	90	92	94	94	94	94	93	91	88	87	86	84	82	79	76	75	73	70	67	66	66	66	65	64	63	62	61	61	60	60	62	65	69	70	71	72	73	75	77	78	79	79	79	80	81	83	84	85	87	89	91	93	94	95	96	98	99	101	103	105	107	108	109	112	113	114	115	117	118	118	118	120	122	124	126	128	129	131	133	135	137	138	139	139	140	140	141	142	142	143	143	144	145	145	145	146	147	148	149	151	152	153	152	151	150	151	153	155	157	160	163	165	166	166	164	164	165	166	167	168	168	167	166	164	161	160	159	159	160	160	161	163	164	163	162	160	160	161	162	161	160	159	159	159	157	155	154	154	152	151	150	150	150	151	153	153	154	155	156	158	159	160	161	161	163	165	168	170	172	174	175	176	178	179	180	180	182	185	189	193	195	197	199	201	205	210	214	217	222	226	229	232	237	241	245	249	252	257	262	265	268	272	276	280	282	284	285	286	286	286	286	285	286	287	288	289	289	290	290	290	290	291	290	290	290	290	289	288	286	284	283	283	283	284	285	285	285	284	283	282	281	280	280	280	280	281	282	285	287	289	290	292	294	295	297	298	300	302	303	303	305	308	311	314	317	322	324	325	327	330	331	330	329	332	336	340	342	345	347	349	351	351	349	348	347	346	345	345	347	350	353	357	359	360	360	359	358	357	357	357	359	360	361	363	365	367	369	371	373	375	376	378	378	379	380	382	383	383	383	383	384	386	388	390	392	394	396	399	401	404	406	408	411	413	416	419	423	426	429	433	436	440	444	447	451	454	457	460	463	465	466	467	468	469	469	470	470	472	474	475	476	476	475	473	472	471	469	468	467	465	464	463	462	463	463	462	461	460	458	456	455	453	451	450	448	446	445	444	443	442	440	439	437	436	434	432	431	429	427	425	423	421	419	418	416	414	412	409	407	404	401	398	395	394	392	390	387	384	382	379	377	375	374	372	367	363	361	359	358	356	353	351	349	348	347	347	346	345	343	342	341	340
0	0	0	0	0	0	0	0	0	0	0	0	0	0	0	0	0	0	0	0	0	0	0	0	0	0	0	0	0	0	0	0	0	0	0	0	0	0	0	0	0	0	0	0	0	0	0	0	0	0	0	0	0	0	0	0	0	0	0	0	0	0	0	0	0	0	0	0	0	0	0	0	0	0	0	0	0	0	0	0	0	0	0	0	0	0	0	0	0	0	0	0	0	0	0	0	0	0	0	0	0	0	0	0	0	0	0	0	0	0	0	0	0	0	0	0	0	0	0	0	0	0	0	0	0	0	0	0	0	0	0	0	0	0	0	0	0	0	0	0	0	0	0	0	0	0	0	0	0	0	0	0	0	0	0	0	0	0	0	0	0	0	0	0	0	0	0	0	0	0	0	0	0	0	0	0	0	0	0	0	0	0	0	0	0	0	0	0	0	0	0	0	0	0	0	0	0	0	0	0	0	0	0	0	0	0	0	0	0	0	0	0	0	0	0	0	0	0	0	0	0	0	0	0	0	0	0	0	0	0	0	0	0	0	0	0	0	0	0	0	0	0	0	0	0	0	0	0	0	0	0	0	0	0	0	0	0	0	0	0	0	0	0	0	0	0	0	0	0	0	0	0	0	0	0	0	0	0	0	0	0	0	0	0	0	0	0	0	0	0	0	0	0	0	0	0	0	0	0	0	0	0	0	0	0	0	0	0	0	0	0	0	0	0	0	0	0	0	0	0	0	0	0	0	0	0	0	0	0	0	0	0	0	0	0	0	0	0	0	0	0	0	0	0	0	0	0	0	0	0	0	0	0	0	0	0	0	0	0	0	0	0	0	0	0	0	0	0	0	0	0	0	0	0	0	0	0	0	0	0	0	0	0	0	0	0	0	0	0	0	0	0	0	0	0	0	0	0	0	0	0	0	0	0	0	0	0	0	0	0	0	0	0	0	0	0	0	0	0	0	0	0	0	0	0	0	0	1	2	2	3	4	7	9	11	13	14	16	18	17	16	16	18	20	21	23	25	28	30	32	35	37	38	40	42	43	44	45	47	50	52	54	56	59	61	64	67	70	72	75	79	82	85	88	91	94	97	101	104	106	108	108	108	106	104	102	100	96	94	91	87	84	82	79	77	75	74	73	73	75	77	77	78	78	79	79	80	82	83	84	84	83	83	84	85	86	88	89	88	87	85	84	83	81	79	80	81	83	85	87	88	90	92	93	93	93	92	91	89	87	86	84	81	77	74	73	72	68	65	65	65	64	64	63	61	60	60	60	60	61	63	67	69	71	72	73	75	78	79	80	81	82	82	83	84	85	86	87	89	91	92	94	95	96	97	98	100	102	104	106	108	109	110	112	115	116	117	118	119	120	121	122	124	126	129	130	132	133	135	136	138	139	140	140	140	140	141	141	142	143	142	142	142	142	142	142	142	143	144	146	147	149	150	147	146	148	151	155	157	160	162	163	164	164	162	161	162	163	164	165	165	165	163	160	158	157	156	156	157	159	160	158	157	158	158	157	156	156	157	157	156	155	156	157	155	153	152	150	149	148	149	149	150	151	152	153	154	155	157	159	161	162	163	163	164	166	168	171	173	175	176	178	180	181	182	183	184	186	188	192	194	196	198	200	203	208	213	218	223	226	229	232	236	241	246	250	253	257	262	265	269	273	277	281	283	285	286	287	287	286	286	285	286	287	288	288	289	289	289	289	289	290	290	290	290	290	289	288	286	284	284	283	283	283	283	283	283	283	282	281	280	279	279	279	279	280	281	284	286	287	289	291	292	294	294	295	298	300	301	302	303	306	309	311	315	320	322	324	325	327	328	327	326	329	335	338	340	343	345	346	347	348	347	346	344	343	343	344	346	349	353	356	358	359	359	358	357	356	356	357	358	359	361	362	364	366	368	370	372	373	374	375	375	376	377	379	380	381	381	382	383	385	387	390	392	394	396	398	400	402	405	407	410	413	415	418	422	425	429	433	436	440	444	448	451	455	458	461	463	465	466	467	468	469	469	470	471	473	474	475	476	477	476	475	474	473	471	470	469	468	466	465	465	465	464	464	463	461	460	458	456	455	453	451	449	448	446	445	444	442	441	439	437	435	433	431	430	429	427	424	422	420	419	417	416	413	411	409	407	405	402	399	396	394	392	390	387	384	383	380	378	376	374	371	367	364	362	360	358	356	355	353	352	351	350	349	348	347	346	344	343	341
