265	266	267	269	271	273	274	277	279	281	282	283	285	286	287	289	290	293	296	298	300	301	303	305	307	308	310	312	314	317	320	323	327	329	330	331	331	330	330	330	330	329	328	328	327	327	326	326	326	326	326	327	328	329	331	332	333	334	336	337	338	339	339	338	336	334	334	334	334	334	334	334	336	337	338	339	340	340	341	342	344	344	346	350	352	354	355	356	357	358	360	362	364	366	368	371	374	376	378	379	380	381	382	383	383	383	384	385	387	389	390	390	392	394	396	398	399	401	403	405	407	409	410	411	413	414	417	419	420	420	420	419	417	415	413	413	413	415	417	420	423	425	427	429	430	430	430	429	429	429	428	427	426	424	423	422	421	421	420	418	415	413	413	414	415	417	418	418	417	416	414	411	410	408	406	404	403	401	399	398	398	398	398	396	395	393	391	390	390	390	390	390	390	389	389	388	388	387	385	383	381	379	376	374	371	368	366	362	356	355	359	359	358	359	359	358	356	356	354	353	351	350	349	345	343	342	340	339	337	334	332	329	327	325	323	321	320	319	319	318	316	313	311	309	307	305	302	299	297	297	297	295	292	289	287	285	283	282	281	279	277	275	274	273	273	273	274	274	275	276	281	284	286	287	287	287	286	285	284	284	284	285	287	289	291	293	294	295	295	295	294	293	291	290	288	286	285	283	282	280	279	278	279	279	279	280	281	281	281	280	280	280	280	280	280	279	278	277	277	275	274	273	272	270	268	266	265	263	262	260	259	258	258	257	257	258	256	254	252	250	247	245	243	240	237	234	232	229	226	222	217	213	209	206	204	202	199	196	193	191	188	185	182	180	177	173	170	165	162	159	155	151	147	144	142	134	127	123	121	126	127	124	120	116	113	111	110	109	106	103	102	102	101	100	98	96	95	93	91	90	89	87	87	87	88	90	93	94	95	95	96	97	98	99	101	101	103	104	105	106	106	107	108	109	111	114	117	118	119	123	124	124	127	128	128	129	130	131	133	134	135	137	137	138	138	139	140	142	144	145	144	145	147	149	150	151	152	153	153	155	156	156	156	156	155	157	160	162	163	166	168	170	171	172	172	172	174	176	176	176	177	180	182	183	181	179	177	175	174	173	171	170	170	171	173	174	174	174	174	174	174	174	173	173	173	173	175	177	177	176	175	174	172	170	168	167	166	165	164	164	163	162	163	163	163	162	161	161	162	162	162	162	162	162	162	161	161	160	160	160	161	162	162	163	165	167	170	171	173	176	178	178	178	177	176	175	174	173	172	171	171	171	170	170	170	169	167	165	163	161	159	157	156	154	153	151	150	148	146	144	143	140	135	129	126	124	121	119	116	113	111	109	105	102	99	97	94	91	88	85	82	79	77	76	74	73	71	69	66	65	64	63	63	62	61	60	58	56	55	53	50	46	45	44	42	40	38	36	35	35	33	31	29	28	27	26	27	27	26	24	22	21	21	21	20	21	23	25	25	25	24	24	23	22	21	20	21	21	20	20	19	18	17	17	16	15	15	14	14	13	12	12	10	8	8	8	7	7	5	4	4	4	4	3	2	1	0	0	0	0	0	0	0	0	0	0	0	0	0	0	0	1	1	1	1	1	1	2	2	1	0	0	0	0	0	0	0	0	0	0	0	0	0	0	0	0	0	0	0	0	0	0	0	0	0	0	0	0	0	0	0	0	0	0	0	0	0	0	0	0	0	0	0	0	0	0	0	0	0	0	0	0	0	0	0	0	0	0	0	0	0	0	0	0	0	0	0	0	0	0	0	0	0	0	0	0	0	0	0	0	0	0	0	0	0	0	0	0	0	0	0	0	0	0	0	0	0	0	0	0	0	0	0	0	0	0	0	0	0	0	0	0	0	0	0	0	0	0	1	2	3	6	11	17	19	20	20	20	21	23	25	27	30	32	33	34	35	36	36	37	38	39	40	40	39	39	39	39	38	38	38	38	39	39	38	38	38	38	39	40	41	42	44	46	47	49	49	46	45	46	47	46	45	46	46	45	43	42	41	39	37	36	34	34	33	33	33	33	33	34	36	37	36	36
266	267	269	271	273	274	276	278	280	282	284	285	287	288	290	291	292	294	297	300	301	303	305	307	308	310	312	314	317	319	323	326	330	333	334	334	334	334	333	333	333	332	331	331	330	329	328	328	329	329	329	329	330	331	333	334	336	337	338	340	341	342	341	340	338	336	336	336	335	335	335	336	337	339	341	344	344	343	344	345	346	346	348	351	354	357	359	359	360	361	363	365	367	369	371	373	375	378	380	381	382	383	385	386	385	384	383	384	386	389	390	390	392	395	397	398	400	401	403	406	408	409	411	413	414	416	418	419	421	422	422	420	418	416	415	414	414	415	417	419	421	424	426	428	429	430	429	429	429	429	429	428	427	425	424	422	421	420	418	417	414	412	411	412	413	415	416	417	416	415	413	410	409	408	406	403	401	400	398	397	396	395	395	394	392	390	389	387	387	386	386	386	386	386	386	385	385	384	383	381	379	376	374	370	368	365	364	361	355	354	357	356	354	354	355	354	353	353	352	351	349	349	347	343	340	339	339	338	336	333	330	327	324	323	321	319	318	316	316	315	314	311	308	305	303	300	297	294	292	292	292	291	288	286	285	283	282	280	278	275	273	272	272	272	271	271	272	273	273	274	279	282	283	284	284	285	284	283	282	283	285	286	288	290	293	294	295	296	296	296	295	293	292	290	288	286	284	283	281	280	279	278	277	277	278	279	279	279	279	279	278	278	278	279	278	278	277	276	276	275	273	272	271	269	267	266	264	263	262	260	259	258	257	256	255	254	253	252	250	248	245	243	241	238	236	233	230	227	225	220	215	211	208	205	203	201	197	193	192	190	186	183	181	179	176	173	170	166	162	159	155	150	146	143	140	133	126	121	121	126	128	125	121	117	114	112	111	108	105	103	101	100	100	99	97	96	95	94	91	88	86	85	86	86	87	89	90	91	92	93	95	97	97	98	99	100	101	102	103	103	104	105	106	108	110	113	117	119	118	118	118	120	124	130	130	128	127	129	131	131	132	134	134	135	136	137	138	139	141	142	142	143	144	146	148	149	150	151	151	152	154	156	156	156	155	158	160	161	162	165	167	168	170	172	172	172	174	175	174	174	177	179	181	181	179	177	175	173	172	171	168	167	168	170	171	171	171	171	171	171	171	171	171	170	170	170	172	173	173	173	172	171	169	167	165	164	163	162	162	161	161	160	161	161	160	159	159	159	159	159	159	159	160	160	159	158	158	157	157	157	159	160	160	161	162	165	167	169	171	173	175	175	175	174	173	172	171	170	169	168	168	168	167	167	166	165	164	162	160	158	156	155	153	151	150	149	147	146	144	142	141	138	133	129	126	123	120	117	115	112	110	107	103	100	98	96	93	90	87	84	82	78	76	73	71	69	68	65	63	63	62	61	61	60	60	59	57	55	53	51	48	47	46	44	42	39	37	35	34	33	31	28	27	26	25	24	24	25	24	22	21	21	21	21	20	20	21	23	23	23	23	23	22	22	20	20	21	21	20	20	19	18	17	17	16	16	15	14	14	14	13	12	11	10	9	8	8	8	7	5	4	4	4	3	2	1	0	0	0	0	0	0	0	0	0	0	0	0	0	0	0	0	0	0	0	0	0	0	1	0	0	0	0	0	0	0	0	0	0	0	0	0	0	0	0	0	0	0	0	0	0	0	0	0	0	0	0	0	0	0	0	0	0	0	0	0	0	0	0	0	0	0	0	0	0	0	0	0	0	0	0	0	0	0	0	0	0	0	0	0	0	0	0	0	0	0	0	0	0	0	0	0	0	0	0	0	0	0	0	0	0	0	0	0	0	0	0	0	0	0	0	0	0	0	0	0	0	0	0	0	0	0	0	0	0	0	0	0	0	0	0	0	0	0	0	0	0	0	2	4	6	9	14	18	19	21	21	22	23	25	27	29	32	34	35	36	37	38	39	39	40	42	44	44	42	40	39	40	40	39	39	39	39	39	39	39	38	38	39	39	40	41	42	44	45	47	46	42	41	42	43	43	43	43	43	43	42	41	38	36	34	33	32	32	32	32	33	33	33	34	36	37	37	37
266	267	269	271	274	276	278	280	282	284	286	287	289	290	292	293	295	297	299	301	304	306	307	308	310	313	315	318	320	323	327	330	334	336	337	337	338	337	336	335	335	335	335	334	333	332	331	330	331	332	332	332	332	333	334	336	337	339	341	342	344	344	343	342	341	339	337	337	336	336	336	337	339	341	344	347	347	347	347	348	349	349	350	353	357	360	361	362	363	364	366	367	370	373	373	374	377	379	382	383	384	386	387	388	387	386	386	386	387	390	391	391	392	395	398	399	400	401	403	406	408	410	413	414	416	417	419	420	422	423	423	421	419	417	416	415	415	416	417	418	420	422	425	427	428	428	428	428	428	429	428	427	426	424	423	420	419	417	417	415	413	410	409	410	411	413	416	417	416	415	412	410	408	408	407	404	402	400	398	396	395	394	393	392	390	388	386	385	383	383	382	382	382	382	382	382	382	381	379	377	375	373	370	368	365	363	361	358	353	352	353	352	350	349	351	351	351	351	349	347	346	346	346	342	339	339	339	336	334	332	329	326	323	321	319	316	314	313	312	313	311	308	305	302	299	296	293	291	288	288	287	286	284	283	282	281	280	278	275	272	270	270	270	270	271	271	271	271	271	273	277	280	280	280	281	282	282	281	281	283	285	287	289	292	294	295	296	297	297	296	295	293	292	290	288	287	285	283	281	280	279	276	275	275	276	277	278	278	277	277	276	277	277	277	277	277	276	275	274	273	272	271	270	268	267	265	264	263	262	261	259	258	257	255	253	252	250	249	248	246	243	241	239	237	234	232	229	226	223	219	214	210	207	204	202	199	196	193	191	188	184	181	179	177	175	172	169	165	162	159	155	149	145	143	139	132	126	120	121	126	127	125	120	117	115	114	112	108	104	102	101	100	100	98	96	94	93	92	90	87	85	84	84	85	86	87	88	88	90	92	94	96	96	97	97	98	98	99	100	100	101	103	105	107	109	113	117	118	117	114	115	117	123	129	129	127	126	128	130	129	129	130	131	133	135	136	136	137	138	140	141	141	142	143	145	147	148	148	150	151	153	154	155	155	155	157	159	161	162	164	165	166	168	171	172	171	172	173	174	174	177	179	179	178	176	175	173	171	170	168	167	166	167	168	169	169	169	168	168	168	169	169	168	167	167	168	169	170	170	170	169	168	167	165	163	161	160	160	160	159	158	158	158	158	157	156	156	156	156	156	156	156	156	157	157	156	155	154	154	154	156	157	158	159	160	162	164	167	169	170	171	172	171	171	170	169	168	167	166	165	165	165	164	164	163	162	161	159	158	156	154	152	151	149	148	146	145	143	142	140	139	137	133	130	127	123	120	117	115	112	109	105	101	99	97	95	92	89	86	83	80	78	75	73	70	68	66	63	62	61	61	59	58	58	58	57	55	52	50	48	47	47	46	44	40	37	36	34	32	31	30	28	26	25	24	23	23	23	22	21	21	21	21	21	20	20	20	21	21	21	22	22	23	22	21	21	21	20	20	19	19	18	17	17	17	17	16	14	14	14	14	13	12	11	10	9	9	9	7	5	4	4	4	3	3	2	0	0	0	0	0	0	0	0	0	0	0	0	0	0	0	0	0	0	0	0	0	0	0	0	0	0	0	0	0	0	0	0	0	0	0	0	0	0	0	0	0	0	0	0	0	0	0	0	0	0	0	0	0	0	0	0	0	0	0	0	0	0	0	0	0	0	0	0	0	0	0	0	0	0	0	0	0	0	0	0	0	0	0	0	0	0	0	0	0	0	0	0	0	0	0	0	0	0	0	0	0	0	0	0	0	0	0	0	0	0	0	0	0	0	0	0	0	0	0	0	0	0	0	0	0	0	0	0	0	0	0	0	0	0	0	0	0	0	0	0	0	1	3	6	10	13	16	18	20	22	23	24	25	26	29	31	34	35	37	38	40	41	42	42	43	44	45	45	44	42	41	41	42	40	40	40	40	40	40	39	39	38	38	39	39	39	40	41	42	42	40	38	38	39	40	40	40	40	40	40	39	37	35	33	31	31	31	31	31	31	32	34	35	35	36	37	38	39
266	268	270	272	275	278	279	282	284	287	289	290	291	292	294	295	297	299	301	304	306	308	310	312	314	317	319	321	324	327	330	334	336	339	340	340	340	339	338	338	338	338	338	337	336	335	333	332	333	334	334	334	335	335	336	337	339	341	343	344	346	346	346	345	344	340	338	338	337	337	338	339	341	342	346	348	349	349	350	350	351	352	353	355	360	363	363	364	366	367	368	370	373	375	375	376	378	381	383	385	387	389	390	390	390	391	390	390	390	391	392	391	392	395	397	398	399	400	403	407	409	411	414	416	417	418	420	421	422	423	423	422	420	418	417	416	416	417	417	418	419	421	423	426	427	426	425	425	425	426	426	425	424	423	421	418	416	415	415	414	411	409	407	408	409	412	414	416	415	414	412	409	407	407	406	405	403	400	398	396	394	392	391	390	388	386	384	381	380	379	379	379	379	380	379	379	378	376	375	373	370	368	367	365	363	360	358	356	352	350	349	349	348	347	348	348	349	349	347	345	343	342	342	339	337	337	336	334	331	329	327	324	321	319	316	312	309	308	309	310	309	306	302	299	295	292	290	287	285	284	283	282	281	280	279	278	277	275	272	270	268	267	268	269	269	270	269	269	269	271	274	276	277	278	279	280	280	280	283	285	287	288	290	292	294	295	296	296	296	296	295	293	291	290	288	286	285	283	282	281	279	276	274	273	274	275	276	276	275	274	275	276	276	276	276	275	274	274	273	272	271	270	269	268	266	265	264	263	262	261	260	259	257	255	253	251	249	248	246	244	242	240	238	236	233	230	227	224	221	218	214	210	207	204	201	198	195	193	191	187	182	179	178	176	174	171	168	165	161	158	154	149	145	142	138	131	125	120	119	122	123	122	119	117	116	114	112	107	103	101	101	100	98	96	94	92	90	89	87	85	85	84	84	83	84	86	86	87	89	91	92	93	94	95	95	96	96	96	97	98	100	102	104	106	109	114	116	116	113	113	114	115	120	126	127	126	124	126	129	129	128	129	130	131	132	133	134	136	137	139	140	141	141	141	143	145	146	147	149	151	152	152	153	153	153	155	158	160	162	163	164	164	166	169	170	170	171	173	173	174	176	177	177	176	175	173	172	170	168	167	166	166	166	166	167	167	167	166	166	166	166	166	164	164	164	165	166	168	168	167	166	166	165	163	161	159	159	158	158	157	156	155	155	155	155	153	153	153	154	154	154	153	153	154	154	154	153	152	151	152	153	154	155	156	158	160	162	164	166	167	168	169	168	168	167	166	166	165	164	162	162	162	161	161	160	159	158	157	155	154	152	150	148	147	145	144	142	141	139	138	137	135	132	130	127	123	119	116	114	112	109	104	100	97	95	93	91	88	85	82	80	77	75	73	71	69	66	64	62	60	59	58	56	54	54	54	52	50	48	47	46	46	44	42	38	35	35	33	31	30	29	28	26	25	24	23	22	21	21	21	21	21	21	21	21	20	20	19	20	21	21	22	22	22	22	21	21	20	19	19	19	18	17	17	17	17	17	15	15	15	14	13	13	13	12	11	10	9	8	6	4	3	3	3	3	2	1	0	0	0	0	0	0	0	0	0	0	0	0	0	0	0	0	0	0	0	0	0	0	0	0	0	0	0	0	0	0	0	0	0	0	0	0	0	0	0	0	0	0	0	0	0	0	0	0	0	0	0	0	0	0	0	0	0	0	0	0	0	0	0	0	0	0	0	0	0	0	0	0	0	0	0	0	0	0	0	0	0	0	0	0	0	0	0	0	0	0	0	0	0	0	0	0	0	0	0	0	0	0	0	0	0	0	0	0	0	0	0	0	0	0	0	0	0	0	0	0	0	0	0	0	0	0	0	0	0	0	0	0	0	0	0	0	0	0	0	0	2	3	7	11	15	18	19	21	23	23	24	25	27	30	33	35	36	37	39	41	42	43	44	44	45	45	45	45	43	42	42	42	41	40	41	41	42	41	40	38	38	38	38	37	37	38	38	38	38	36	35	35	36	38	38	37	37	36	35	33	31	30	30	29	29	29	30	30	31	32	35	37	38	38	39	40	41
268	269	271	274	277	279	281	283	285	288	291	292	293	294	296	298	300	302	304	307	310	312	314	316	320	322	323	325	327	330	333	336	338	340	341	341	341	341	340	340	340	340	340	339	338	337	335	335	335	335	336	336	336	337	337	338	340	342	345	347	348	348	348	347	345	342	338	338	338	339	340	341	343	344	347	349	351	352	352	352	353	353	354	356	361	365	366	367	369	370	372	373	376	378	378	378	380	382	386	388	390	391	393	394	394	394	394	392	392	392	392	392	394	396	397	398	398	400	403	407	411	412	414	416	418	419	420	421	422	423	423	422	421	419	417	416	417	417	417	418	419	420	422	424	425	424	422	421	421	422	422	423	422	421	419	416	414	413	413	412	410	407	406	407	409	411	413	414	414	413	411	409	407	405	405	405	403	401	399	396	394	392	389	388	386	385	382	379	377	376	376	375	375	375	375	375	374	373	371	368	367	366	364	362	359	356	355	353	350	348	346	346	346	346	345	346	347	347	346	344	341	340	338	336	334	334	333	330	328	326	324	322	319	316	313	308	305	304	305	306	305	303	300	296	292	288	285	282	280	280	280	279	278	276	275	275	273	271	268	267	266	266	267	268	268	268	268	268	268	269	271	273	275	277	279	279	279	281	284	286	288	289	291	292	293	294	295	295	295	295	294	292	290	289	287	286	284	283	282	280	278	276	274	273	273	274	274	274	274	274	274	275	275	275	274	274	273	272	271	271	270	269	268	267	266	264	263	262	262	261	261	259	257	255	253	251	248	246	244	241	239	238	237	234	231	229	226	223	220	217	213	210	206	203	200	197	195	192	190	186	182	179	178	176	173	169	167	164	161	157	154	149	145	141	137	130	124	119	118	120	119	118	116	115	115	113	110	107	104	101	100	99	97	95	92	90	88	86	84	84	84	84	83	81	82	83	85	86	89	90	90	91	92	93	93	94	93	93	94	96	98	100	102	104	107	113	115	113	110	111	112	113	118	123	125	125	122	123	127	127	126	128	131	131	130	130	131	134	136	137	139	141	141	141	143	144	145	146	148	150	150	150	151	152	152	153	157	159	161	162	163	163	165	167	168	169	170	172	173	174	175	176	176	176	173	171	170	168	167	166	165	165	165	165	166	166	165	165	164	163	163	162	162	161	161	162	163	165	165	165	164	164	163	161	159	157	156	156	155	154	154	152	152	153	152	151	150	150	151	151	151	151	151	151	151	151	151	149	149	150	150	151	152	154	156	158	159	161	162	164	164	165	165	165	164	163	162	162	161	159	159	159	159	158	158	157	156	154	153	152	150	148	146	144	143	142	140	138	137	135	134	133	130	128	125	122	119	116	113	110	107	104	100	97	94	92	89	87	85	82	79	77	75	73	72	70	67	65	62	60	59	57	54	53	52	51	50	49	47	46	45	43	42	39	36	34	33	32	31	30	29	28	27	26	24	23	22	21	21	20	20	21	21	21	21	21	20	19	19	20	21	21	21	21	21	21	21	20	19	19	19	18	18	17	17	18	18	16	16	15	14	14	14	14	13	12	11	9	8	7	5	3	3	3	3	2	1	0	0	0	0	0	0	0	0	0	0	0	0	0	0	0	0	0	0	0	0	0	0	0	0	0	0	0	0	0	0	0	0	0	0	0	0	0	0	0	0	0	0	0	0	0	0	0	0	0	0	0	0	0	0	0	0	0	0	0	0	0	0	0	0	0	0	0	0	0	0	0	0	0	0	0	0	0	0	0	0	0	0	0	0	0	0	0	0	0	0	0	0	0	0	0	0	0	0	0	0	0	0	0	0	0	0	0	0	0	0	0	0	0	0	0	0	0	0	0	0	0	0	0	0	0	0	0	0	0	0	0	0	0	0	0	0	0	0	0	1	3	5	9	13	17	19	20	22	24	24	25	27	29	33	35	35	36	38	39	41	43	44	44	45	45	45	45	44	43	42	42	42	41	41	41	42	42	41	39	38	38	38	37	36	36	36	35	35	34	34	35	33	33	35	36	35	33	32	30	28	27	28	28	28	27	28	29	30	31	34	37	39	41	41	41	42	43
269	270	273	276	279	281	282	284	286	289	292	294	295	297	299	302	303	305	308	310	313	316	318	321	324	326	327	329	331	333	335	338	340	341	342	342	342	342	341	341	341	341	341	340	339	338	337	337	337	336	337	337	338	338	339	340	341	344	346	348	349	350	350	348	347	345	343	342	342	342	344	344	345	346	349	351	352	354	355	355	355	356	357	358	361	365	367	370	371	372	374	376	379	381	382	382	383	386	390	391	392	394	395	397	397	398	397	396	394	394	394	395	396	398	399	400	400	400	403	407	410	412	414	416	417	418	419	420	421	423	423	422	420	419	417	416	416	416	416	417	418	419	421	423	424	423	420	418	418	418	419	420	420	419	417	414	412	411	410	410	409	407	406	406	408	410	412	413	413	412	410	408	406	404	404	404	402	401	399	397	394	391	388	386	385	383	380	376	374	373	372	372	371	370	370	372	372	370	367	365	365	364	362	360	357	354	352	349	347	345	343	344	345	344	343	342	343	344	343	342	340	338	337	335	333	332	330	327	324	323	322	319	316	313	309	306	303	301	302	302	300	298	296	293	288	284	282	279	277	276	276	275	274	273	272	271	269	267	265	264	264	265	266	267	267	268	267	267	268	269	269	271	274	276	277	278	279	282	285	287	288	290	291	292	292	293	294	294	294	293	292	291	289	288	286	285	284	282	280	279	278	276	275	273	272	272	273	273	273	274	274	274	274	274	273	272	271	270	270	269	269	268	267	266	265	264	263	262	262	261	261	259	257	255	253	250	248	245	243	240	238	236	235	233	230	227	225	222	220	216	213	209	205	203	200	196	194	191	188	185	182	179	177	175	171	168	165	163	159	156	152	148	144	141	136	129	123	119	119	121	120	116	114	113	112	111	109	106	104	101	100	98	96	94	91	90	88	85	84	83	83	82	80	79	79	81	82	85	87	88	88	89	90	90	91	91	90	90	91	94	97	99	101	102	106	111	112	110	108	108	110	111	114	118	121	122	122	123	124	124	124	128	131	131	129	128	129	131	134	135	138	140	142	143	144	144	144	145	146	148	148	149	151	152	151	152	156	158	159	160	161	162	164	166	168	169	169	170	171	172	174	175	176	175	172	170	168	167	165	165	165	165	165	164	165	164	164	163	162	161	160	159	159	159	159	159	161	162	162	162	162	162	161	160	158	156	154	153	153	153	152	150	150	150	150	149	148	148	148	148	148	148	148	148	148	148	148	146	146	147	147	148	150	152	154	155	156	157	158	159	160	160	161	161	160	158	158	158	158	156	156	156	156	156	155	154	153	152	151	149	148	146	144	142	141	139	137	136	134	133	132	130	128	126	123	120	118	115	112	109	106	103	100	97	94	90	88	86	84	82	79	76	74	73	73	71	68	65	63	61	59	57	54	53	51	50	49	47	46	45	43	41	39	37	36	33	33	32	30	29	29	28	27	27	26	24	22	22	22	21	21	21	21	21	21	21	20	19	18	20	21	21	20	20	20	20	20	20	20	19	19	19	19	18	18	18	17	16	15	15	15	14	14	14	14	13	11	10	9	7	5	4	3	3	3	2	1	0	0	0	0	0	0	0	0	0	0	0	0	0	0	0	0	0	0	0	0	0	0	0	0	0	0	0	0	0	0	0	0	0	0	0	0	0	0	0	0	0	0	0	0	0	0	0	0	0	0	0	0	0	0	0	0	0	0	0	0	0	0	0	0	0	0	0	0	0	0	0	0	0	0	0	0	0	0	0	0	0	0	0	0	0	0	0	0	0	0	0	0	0	0	0	0	0	0	0	0	0	0	0	0	0	0	0	0	0	0	0	0	0	0	0	0	0	0	0	0	0	0	0	0	0	0	0	0	0	0	0	0	0	0	0	0	0	0	1	3	5	8	11	15	17	19	20	23	26	27	27	29	31	34	35	36	37	38	40	41	43	44	45	45	45	45	44	44	43	42	42	42	41	41	41	41	41	39	38	37	37	36	35	35	35	34	33	32	30	31	32	32	31	31	32	31	29	28	27	27	27	27	27	27	27	28	30	31	34	37	39	40	42	42	43	44	44
270	272	274	277	279	282	284	286	288	292	294	295	297	299	302	304	306	308	311	314	317	319	322	325	327	329	330	332	334	335	337	339	340	342	342	343	342	342	342	342	342	342	342	341	340	339	338	338	338	338	338	338	339	339	340	341	342	345	347	349	350	351	352	350	349	350	349	347	345	346	346	346	346	348	351	353	355	356	358	359	359	361	362	362	363	366	369	371	373	374	376	378	381	382	384	386	388	390	393	394	395	396	398	400	400	400	400	399	397	397	397	398	398	399	400	401	401	402	403	406	408	411	413	415	416	417	417	418	419	421	421	420	419	418	416	415	414	414	414	415	416	418	420	422	423	421	419	417	416	415	415	417	417	417	415	412	410	408	408	408	408	405	405	405	406	408	410	411	412	411	409	408	405	403	401	401	401	399	398	396	394	391	388	386	384	381	378	374	371	369	369	369	368	367	367	368	368	367	365	363	363	362	361	359	356	352	348	345	343	342	341	342	343	342	340	339	340	341	341	339	337	335	335	333	331	330	328	324	322	320	319	316	313	310	307	304	301	298	298	297	296	295	293	289	285	282	279	277	275	274	273	272	271	270	269	267	265	263	261	261	262	263	265	266	267	267	267	267	267	268	269	271	273	274	276	278	280	283	285	287	288	290	291	291	292	292	293	293	292	291	290	289	287	286	285	285	284	281	279	278	277	276	276	274	272	271	271	272	272	272	273	273	273	272	271	270	269	268	268	268	268	266	265	265	264	263	262	262	261	261	260	258	256	254	252	249	247	244	242	239	237	235	233	232	229	226	224	222	219	216	213	209	205	202	199	196	193	190	187	184	181	178	177	174	170	166	164	161	158	154	150	146	143	141	137	129	122	118	119	122	121	117	113	111	111	110	108	105	103	101	99	97	95	92	90	90	88	86	84	82	81	80	78	77	77	78	80	82	85	86	86	87	88	88	88	87	87	87	89	91	94	97	100	102	106	109	109	107	105	107	108	109	111	114	118	119	120	121	122	123	123	126	129	130	129	128	128	129	131	133	136	139	142	145	145	144	144	143	144	145	145	146	150	151	150	152	155	156	157	158	159	161	163	166	168	169	170	171	171	172	173	175	175	175	173	171	169	166	164	164	164	165	165	164	164	163	163	162	161	159	158	157	157	157	157	157	158	159	160	160	160	160	159	158	156	154	152	151	151	151	150	148	148	148	148	146	146	146	145	146	146	146	146	145	146	146	145	143	143	144	145	145	147	149	151	153	154	154	154	155	156	156	157	157	156	154	154	154	154	154	153	153	153	153	153	152	151	150	148	147	146	144	142	140	139	137	135	133	131	130	129	128	126	123	121	119	116	114	111	108	105	102	99	96	93	89	86	84	83	81	78	76	73	72	72	70	68	66	63	61	59	57	55	53	51	50	48	47	45	44	41	39	38	37	35	33	33	32	30	30	29	28	27	27	26	25	23	23	22	21	21	21	22	21	21	21	20	19	19	20	21	20	20	21	21	20	19	19	20	19	19	19	19	18	18	17	16	15	14	14	14	15	14	14	14	13	12	10	10	8	7	5	4	3	3	2	1	0	0	0	0	0	0	0	0	0	0	0	0	0	0	0	0	0	0	0	0	0	0	0	0	0	0	0	0	0	0	0	0	0	0	0	0	0	0	0	0	0	0	0	0	0	0	0	0	0	0	0	0	0	0	0	0	0	0	0	0	0	0	0	0	0	0	0	0	0	0	0	0	0	0	0	0	0	0	0	0	0	0	0	0	0	0	0	0	0	0	0	0	0	0	0	0	0	0	0	0	0	0	0	0	0	0	0	0	0	0	0	0	0	0	0	0	0	0	0	0	0	0	0	0	0	0	0	0	0	0	0	0	0	1	1	1	1	1	3	5	7	10	13	15	17	19	21	23	26	28	29	30	32	34	35	36	37	38	40	41	43	44	44	45	45	44	44	44	43	43	42	41	41	39	39	38	38	37	37	36	36	35	33	33	33	32	31	29	28	28	29	29	28	28	28	28	27	26	27	27	27	26	26	27	28	29	31	33	36	39	40	41	42	43	44	45	45
271	273	275	277	280	283	286	289	292	295	297	297	299	301	303	305	307	311	315	318	320	323	325	328	330	331	332	334	335	337	338	339	340	342	343	343	343	344	343	343	343	343	343	342	341	339	339	339	339	339	339	339	340	340	341	341	343	346	348	349	351	352	353	353	353	353	352	349	348	349	349	348	348	349	352	355	357	359	360	361	363	365	365	365	367	369	370	373	375	376	379	381	382	384	385	388	390	392	395	396	397	399	401	403	403	403	402	401	400	399	400	401	400	400	401	402	403	403	405	407	409	410	412	413	415	415	415	416	417	418	418	418	417	416	414	413	412	412	413	413	415	417	419	421	421	420	418	415	413	411	411	413	415	415	413	410	408	406	406	406	405	404	403	404	405	406	408	409	410	410	408	407	404	401	399	399	399	399	397	396	393	391	388	386	383	381	377	372	369	367	366	366	367	366	365	364	364	364	363	362	360	359	358	357	354	350	346	342	341	340	339	340	340	340	339	338	338	339	338	335	333	332	331	331	330	329	325	322	319	317	315	313	310	307	305	302	298	295	294	293	292	291	288	284	281	279	277	275	272	271	270	269	268	266	265	263	262	260	259	258	259	262	264	265	266	266	265	266	267	268	270	272	273	274	277	279	281	283	285	287	288	289	290	291	291	291	291	291	290	290	288	287	286	285	284	284	282	280	279	277	276	276	275	273	272	271	271	271	270	270	271	271	271	270	269	269	268	267	266	266	266	265	264	264	263	262	261	261	260	259	258	257	255	253	251	248	245	243	241	239	236	234	232	230	229	226	224	222	218	215	212	208	205	202	199	196	193	189	186	184	180	177	176	173	169	165	162	160	158	153	149	145	142	140	136	129	121	117	118	122	121	117	113	112	111	108	105	103	101	99	97	95	93	90	89	89	87	85	82	80	79	78	77	76	76	76	77	80	82	83	83	84	85	85	85	84	85	87	88	90	93	97	101	103	105	106	104	103	103	105	106	107	108	111	115	115	115	117	120	124	124	123	123	124	127	129	129	127	129	131	133	136	141	145	145	143	142	142	142	142	143	144	146	147	148	151	154	155	156	157	159	160	162	165	167	169	171	172	172	173	174	175	175	175	174	174	171	168	165	163	163	163	163	163	162	162	162	161	160	159	157	155	155	155	155	156	156	157	158	158	157	157	157	157	155	153	151	149	149	148	147	146	145	145	145	144	143	143	143	143	144	143	143	143	143	143	141	140	141	142	143	143	144	146	149	151	151	150	151	151	152	152	153	153	153	152	151	151	151	150	150	150	151	151	150	149	148	147	146	145	144	143	141	138	136	134	132	130	129	128	127	125	123	121	119	117	115	112	109	107	105	101	98	95	92	89	86	84	82	80	77	75	73	71	71	69	67	66	63	61	59	57	55	53	52	50	48	47	46	44	41	39	38	38	36	34	33	33	32	31	29	28	27	27	27	25	24	23	22	21	21	22	22	22	21	21	21	20	19	19	20	20	21	21	22	20	19	18	19	19	19	19	18	18	17	16	15	14	14	13	13	13	13	14	14	13	12	11	10	9	8	6	4	3	3	2	2	0	0	0	0	0	0	0	0	0	0	0	0	0	0	0	0	0	0	0	0	0	0	0	0	0	0	0	0	0	0	0	0	0	0	0	0	0	0	0	0	0	0	0	0	0	0	0	0	0	0	0	0	0	0	0	0	0	0	0	0	0	0	0	0	0	0	0	0	0	0	0	0	0	0	0	0	0	0	0	0	0	0	0	0	0	0	0	0	0	0	0	0	0	0	0	0	0	0	0	0	0	0	0	0	0	0	0	0	0	0	0	0	0	0	0	0	0	0	0	0	0	0	0	0	0	0	0	0	0	0	0	0	1	2	2	2	2	3	5	7	10	12	14	15	17	20	23	24	26	27	29	30	31	34	36	37	37	39	40	41	42	43	43	44	44	44	44	43	43	43	42	41	39	37	35	33	33	34	34	34	33	33	32	32	31	31	30	29	28	27	26	26	26	25	25	26	26	26	27	27	27	26	26	28	29	31	33	35	38	40	41	42	43	44	46	47	48
272	273	275	277	280	283	287	291	293	296	298	299	301	304	305	306	309	313	317	321	323	326	328	330	332	333	334	335	337	338	339	340	341	342	344	344	345	345	345	345	345	344	344	343	341	340	340	340	340	340	340	340	341	341	341	342	344	347	349	350	351	353	354	355	355	355	353	352	351	351	351	351	351	351	353	355	358	360	362	364	366	367	367	368	369	371	373	374	376	378	381	383	384	386	388	390	392	394	396	398	400	401	404	406	407	406	406	405	403	402	402	403	402	401	402	403	404	406	408	410	411	411	412	412	413	414	414	414	414	415	415	415	414	413	412	411	410	411	412	413	414	416	418	419	420	419	417	414	411	408	408	409	411	412	411	409	406	404	403	403	403	402	401	401	402	403	405	407	409	409	408	406	404	402	399	398	398	398	397	395	393	391	389	387	385	382	378	372	369	366	364	364	364	362	361	360	361	362	361	359	357	355	355	354	352	349	345	341	339	338	338	338	338	338	337	336	336	336	334	332	330	328	327	328	327	326	322	319	316	314	312	309	306	304	302	299	295	292	291	289	288	287	283	280	278	277	274	272	270	268	267	266	264	262	260	260	259	259	257	255	257	260	263	265	265	264	264	265	266	267	269	272	274	276	278	281	283	284	285	287	288	289	290	290	290	290	290	290	289	288	287	286	285	284	283	281	280	279	278	277	276	275	274	272	271	271	270	270	269	268	269	269	269	269	268	267	266	266	265	265	265	264	263	263	262	261	260	260	259	258	257	255	254	252	249	246	244	242	240	238	236	233	231	229	228	226	224	221	217	214	211	208	204	201	198	195	193	190	187	184	180	176	174	172	168	165	162	160	158	154	149	144	141	139	135	128	120	116	117	120	120	117	114	112	108	104	102	102	100	98	96	94	91	89	88	87	85	82	80	78	77	76	75	74	75	74	74	77	80	80	80	81	82	82	81	82	84	86	89	90	93	100	103	103	104	104	102	100	101	103	105	107	107	108	110	110	110	112	117	121	121	120	118	118	124	128	128	126	128	130	132	134	137	141	141	140	140	140	140	141	142	143	144	145	147	149	152	153	155	157	159	161	163	165	168	170	171	171	172	174	174	175	175	174	174	174	173	170	165	162	161	161	161	161	161	161	161	160	159	158	156	154	153	153	153	154	155	155	156	156	155	155	155	155	154	152	150	148	146	146	145	144	143	142	142	141	140	140	140	141	141	140	140	141	141	140	138	138	139	140	140	141	142	144	146	147	147	147	147	148	148	148	149	149	149	148	148	148	148	147	147	147	148	148	147	147	146	145	144	143	142	141	139	137	134	132	130	128	127	126	125	122	120	119	118	116	113	110	107	106	104	100	96	93	91	88	86	84	82	79	77	75	73	72	71	69	67	65	63	61	58	57	56	54	52	50	49	47	46	45	42	40	39	39	38	36	35	34	33	32	30	29	28	28	27	26	24	23	22	21	21	22	22	22	21	21	21	20	19	18	19	20	21	21	21	19	18	18	18	17	17	17	17	17	16	16	15	15	15	13	12	12	12	12	13	13	12	11	10	9	8	7	5	4	3	3	2	1	0	0	0	0	0	0	0	0	0	0	0	0	0	0	0	0	0	0	0	0	0	0	0	0	0	0	0	0	0	0	0	0	0	0	0	0	0	0	0	0	0	0	0	0	0	0	0	0	0	0	0	0	0	0	0	0	0	0	0	0	0	0	0	0	0	0	0	0	0	0	0	0	0	0	0	0	0	0	0	0	0	0	0	0	0	0	0	0	0	0	0	0	0	0	0	0	0	0	0	0	0	0	0	0	0	0	0	0	0	0	0	0	0	0	0	0	0	0	0	0	0	0	0	0	0	0	0	0	0	0	1	2	2	3	2	3	5	7	10	12	14	15	16	18	21	23	24	25	27	30	31	31	34	37	38	38	39	39	40	41	42	42	42	42	42	43	43	43	42	41	40	36	33	31	29	29	31	31	31	31	30	30	30	31	30	29	28	28	26	24	24	24	24	23	24	25	26	26	27	26	26	28	30	31	32	34	36	39	41	43	45	46	46	48	50	51
273	275	276	278	280	284	287	291	293	295	297	299	303	305	306	308	311	314	318	322	325	327	329	331	333	334	335	336	338	339	340	341	342	343	344	345	346	346	346	346	346	345	344	343	343	342	342	341	341	341	341	341	342	342	343	343	345	348	349	350	352	353	354	355	356	356	355	354	353	352	353	354	354	353	355	357	359	362	364	366	368	369	369	370	372	374	375	377	378	380	383	385	387	389	391	393	395	397	399	402	403	405	407	409	410	410	409	408	407	406	405	405	404	404	404	405	407	408	410	411	412	413	412	412	413	413	412	412	412	412	412	412	411	410	410	409	408	409	411	412	413	414	416	417	418	418	416	413	409	406	405	406	407	409	409	407	404	402	401	400	400	400	399	398	398	400	402	405	407	408	407	407	405	403	400	398	397	396	396	395	393	391	390	389	386	383	378	373	369	366	363	362	361	358	355	355	357	358	358	355	353	352	352	351	349	347	344	340	338	338	337	336	336	335	334	333	332	332	331	330	328	325	324	324	323	321	319	317	314	312	309	306	303	301	299	296	292	290	288	286	283	281	280	278	276	274	271	269	266	264	263	262	260	258	257	257	257	256	254	254	256	259	262	263	263	262	262	263	265	266	269	273	275	277	280	282	285	286	286	287	288	288	289	289	289	289	289	288	287	286	285	284	284	282	281	279	278	277	277	276	276	275	273	272	271	271	270	269	268	267	267	267	267	267	267	266	265	264	264	264	264	263	263	262	261	260	259	259	258	256	255	253	252	250	247	245	242	240	238	237	235	233	230	228	227	225	223	220	216	213	211	207	204	201	199	196	193	190	187	184	179	176	173	171	168	165	163	161	159	155	149	144	141	138	135	128	120	116	116	119	120	116	113	111	106	101	100	100	98	97	95	93	91	88	86	85	83	81	78	77	75	74	73	72	73	72	73	75	77	78	77	78	79	79	79	81	84	86	89	91	93	99	102	102	103	103	100	98	99	100	102	105	105	106	107	108	109	110	112	115	117	117	116	117	121	124	124	124	125	128	131	134	136	137	137	137	138	139	140	141	143	143	143	144	146	148	150	152	155	158	160	162	164	166	168	169	168	168	171	174	174	175	174	173	172	173	172	169	164	161	160	160	160	160	161	161	160	160	158	157	155	153	152	150	150	152	153	154	154	153	153	153	153	153	151	149	148	145	144	143	142	142	141	141	140	139	138	138	138	138	138	137	137	138	139	137	136	136	136	137	138	139	140	141	143	143	143	143	144	144	144	145	145	145	145	145	145	145	145	145	144	144	144	145	144	144	143	142	141	141	140	138	137	135	133	131	128	126	125	124	122	120	118	117	115	113	111	108	106	105	102	98	94	91	89	87	85	83	81	79	77	75	73	72	70	68	67	64	61	59	57	56	56	54	52	50	49	48	47	45	43	41	40	39	38	37	36	35	33	32	31	30	29	28	27	26	25	23	23	22	22	22	22	22	21	21	21	20	19	18	18	19	20	20	19	18	17	17	17	16	16	16	16	17	16	16	16	17	16	14	13	12	12	12	13	13	12	11	10	9	8	8	6	4	4	3	2	1	0	0	0	0	0	0	0	0	0	0	0	0	0	0	0	0	0	0	0	0	0	0	0	0	0	0	0	0	0	0	0	0	0	0	0	0	0	0	0	0	0	0	0	0	0	0	0	0	0	0	0	0	0	0	0	0	0	0	0	0	0	0	0	0	0	0	0	0	0	0	0	0	0	0	0	0	0	0	0	0	0	0	0	0	0	0	0	0	0	0	0	0	0	0	0	0	0	0	0	0	0	0	0	0	0	0	0	0	0	0	0	0	0	0	0	0	0	0	0	0	0	0	0	0	0	0	0	0	0	0	1	2	3	3	3	3	6	10	12	14	16	16	17	18	19	22	23	24	27	31	32	32	34	37	38	38	39	39	40	40	40	41	41	41	41	41	41	41	41	39	37	34	31	28	27	27	29	29	28	28	27	27	29	30	30	28	26	25	23	22	22	22	22	22	23	25	26	26	26	26	27	30	32	33	34	36	38	40	42	45	47	48	48	50	52	53
277	278	279	280	283	285	287	291	293	295	297	300	303	305	307	309	313	316	319	322	326	328	330	331	333	334	336	337	338	340	341	342	343	344	345	346	347	347	347	347	347	346	345	344	344	344	344	343	343	343	342	341	342	343	344	344	345	348	350	351	352	354	355	356	357	357	358	357	355	353	353	354	355	355	357	359	361	363	365	367	369	371	371	372	374	376	378	379	380	382	385	387	390	392	394	397	399	401	403	405	406	408	410	411	412	413	412	411	410	409	408	407	407	407	407	408	409	410	411	412	412	413	413	412	412	412	412	411	410	410	410	409	409	408	407	407	407	408	410	411	411	412	414	415	416	417	416	413	409	405	403	403	404	406	406	405	402	400	399	398	397	397	397	396	396	397	399	402	404	406	407	407	405	403	400	398	396	395	394	394	393	391	390	388	386	383	380	376	372	367	363	361	359	355	353	352	352	353	353	351	349	349	349	347	346	345	343	340	338	337	336	336	335	334	332	330	329	329	328	327	325	323	322	320	319	318	316	314	313	310	306	304	302	300	297	293	291	288	285	281	277	275	275	274	272	269	267	265	263	260	258	258	257	256	255	254	253	252	252	254	255	257	260	261	261	260	259	261	264	266	269	274	276	278	281	284	286	287	287	287	287	288	288	288	288	288	288	287	286	285	284	283	282	281	279	278	276	276	276	276	275	274	274	273	271	271	269	268	267	266	265	265	265	265	265	264	263	263	262	262	262	262	262	261	260	259	258	257	256	255	253	251	250	249	246	243	241	239	237	236	234	232	229	227	225	223	221	218	215	212	209	207	204	202	199	196	193	190	187	184	180	176	173	171	168	166	164	162	160	156	150	145	141	138	136	131	120	116	116	118	119	116	113	110	105	100	99	98	97	95	93	92	90	86	82	81	81	80	78	76	74	72	70	70	70	71	71	73	75	75	75	75	76	77	78	80	83	86	88	90	91	96	100	101	101	99	96	96	97	98	99	102	105	106	107	108	108	109	110	111	113	115	115	116	118	120	121	123	124	127	130	133	135	136	136	136	136	138	140	141	142	142	143	144	146	148	151	153	155	158	161	163	164	166	167	167	167	168	171	174	174	174	174	173	172	172	171	167	163	160	159	158	159	159	160	160	159	158	157	156	155	152	150	148	147	149	151	151	151	150	150	150	150	150	149	147	145	143	141	140	140	140	139	139	139	138	137	136	136	136	135	134	134	135	136	135	134	133	133	134	135	137	138	139	139	140	140	141	141	141	141	142	142	142	142	142	142	143	142	142	141	141	142	142	141	140	140	139	138	138	137	136	135	133	131	129	126	124	123	122	120	118	116	114	112	110	108	107	105	103	100	96	92	90	88	85	83	81	79	78	77	75	73	70	68	66	65	63	59	57	56	55	55	53	52	50	49	48	47	45	43	41	40	38	37	37	37	35	32	31	31	30	28	27	27	25	24	23	23	23	22	22	22	21	20	19	20	20	20	18	17	17	18	19	18	17	17	17	16	16	15	15	16	18	18	18	18	18	17	15	14	13	12	13	13	12	12	11	10	9	9	8	7	5	4	4	3	2	0	0	0	0	0	0	0	0	0	0	0	0	0	0	0	0	0	0	0	0	0	0	0	0	0	0	0	0	0	0	0	0	0	0	0	0	0	0	0	0	0	0	0	0	0	0	0	0	0	0	0	0	0	0	0	0	0	0	0	0	0	0	0	0	0	0	0	0	0	0	0	0	0	0	0	0	0	0	0	0	0	0	0	0	0	0	0	0	0	0	0	0	0	0	0	0	0	0	0	0	0	0	0	0	0	0	0	0	0	0	0	0	0	0	0	0	0	0	0	0	0	0	0	0	0	0	0	0	0	-1	-1	2	3	4	8	7	9	12	14	15	16	17	17	17	18	19	22	23	27	31	32	32	33	35	36	39	40	40	39	39	39	40	40	40	40	40	40	39	39	38	36	33	30	27	25	25	26	27	27	27	26	25	26	28	27	25	23	22	20	19	20	20	21	21	24	28	28	27	26	27	29	31	33	34	36	39	40	42	44	46	48	50	50	51	53	54
281	282	283	284	285	287	289	292	295	297	298	300	302	305	307	310	312	316	320	322	325	328	330	331	332	334	335	336	338	340	341	343	344	344	346	347	348	348	348	348	348	347	346	345	345	345	346	345	345	344	343	342	343	344	344	344	346	347	349	351	353	354	355	357	358	358	359	359	358	355	354	354	355	356	358	360	362	365	367	368	371	372	373	374	376	378	380	381	382	384	387	390	392	394	397	400	402	404	406	408	409	410	412	414	415	416	415	414	412	411	410	409	410	410	410	410	411	411	412	413	413	413	413	413	413	412	411	410	409	409	408	407	407	406	405	404	404	406	408	409	409	410	412	414	415	415	414	412	408	404	401	401	401	402	403	402	400	398	397	396	394	394	393	392	394	395	397	399	401	403	405	406	404	402	400	398	395	394	393	393	392	391	389	388	385	383	381	378	374	369	365	360	357	354	352	351	349	348	348	346	346	346	345	343	343	343	342	340	338	337	335	334	334	333	331	330	329	327	325	324	322	321	319	317	316	316	314	312	310	307	304	302	300	297	294	291	289	286	282	278	274	272	270	269	266	264	262	261	259	256	255	254	254	254	252	251	249	248	249	252	255	256	258	258	258	257	258	260	263	265	269	274	277	278	281	284	286	286	286	287	287	287	287	287	287	287	287	286	285	284	283	283	281	280	279	277	275	275	275	275	275	274	273	273	272	271	269	268	266	264	264	264	264	264	263	262	262	262	261	260	261	261	261	260	259	258	257	256	255	253	251	250	249	247	244	242	240	238	236	235	233	231	229	227	224	222	220	217	215	212	209	207	205	202	199	195	192	189	187	184	180	177	174	172	169	167	164	161	159	156	151	147	141	138	136	132	121	115	115	118	120	118	115	110	106	102	100	99	96	93	92	91	90	86	81	79	79	78	77	75	73	71	68	68	69	69	70	71	72	72	72	72	74	75	76	79	82	84	86	88	88	91	96	100	98	93	93	96	97	97	98	102	104	105	106	106	106	107	108	109	110	112	114	115	117	118	120	123	124	126	129	131	133	135	136	135	135	137	140	142	142	141	142	143	144	147	151	154	156	158	161	162	164	165	166	167	168	170	172	172	172	173	174	173	172	172	170	167	163	160	158	157	157	158	158	158	157	156	155	154	153	151	148	146	145	146	148	148	148	148	147	148	148	147	146	144	142	140	139	137	137	137	136	137	137	136	135	134	134	134	133	132	132	133	134	133	132	131	131	132	134	135	136	136	137	137	138	138	138	138	138	139	139	138	139	139	139	140	139	139	138	138	139	138	137	137	137	137	136	135	134	133	132	131	129	127	125	123	122	120	118	116	114	111	109	108	107	106	104	101	97	94	91	89	87	84	82	80	79	78	76	74	72	70	68	66	64	61	58	55	54	54	53	52	51	50	48	47	46	44	42	41	40	37	36	37	36	34	32	31	31	29	27	27	26	25	23	23	22	22	21	20	20	20	19	18	19	19	20	19	17	17	18	19	18	17	17	17	16	15	15	15	16	18	20	20	19	18	17	16	15	14	14	14	13	12	12	11	10	9	9	9	7	5	5	4	3	2	0	0	0	0	0	0	0	0	0	0	0	0	0	0	0	0	0	0	0	0	0	0	0	0	0	0	0	0	0	0	0	0	0	0	0	0	0	0	0	0	0	0	0	0	0	0	0	0	0	0	0	0	0	0	0	0	0	0	0	0	0	0	0	0	0	0	0	0	0	0	0	0	0	0	0	0	0	0	0	0	0	0	0	0	0	0	0	0	0	0	0	0	0	0	0	0	0	0	0	0	0	0	0	0	0	0	0	0	0	0	0	0	0	0	0	0	0	0	0	0	0	0	0	0	0	0	0	0	0	-1	-1	1	3	7	14	15	15	14	14	16	17	17	17	17	18	18	19	21	24	28	30	30	31	33	34	36	38	37	36	36	37	38	39	39	39	39	39	38	37	36	34	32	30	27	24	23	24	25	26	26	26	24	23	24	24	23	21	20	18	18	19	19	20	22	26	29	28	27	27	28	31	33	33	35	39	41	43	44	45	47	49	51	52	54	55	56
284	285	286	287	289	291	294	295	296	298	299	301	303	306	309	310	312	316	320	323	325	327	329	330	332	333	334	335	337	339	341	342	343	345	346	347	348	348	349	349	349	348	347	347	346	347	347	347	346	345	344	344	344	344	344	345	346	347	349	352	353	355	357	358	360	360	361	361	360	358	356	357	357	358	359	362	364	367	369	371	373	374	375	376	378	380	382	383	385	387	389	392	395	397	400	403	406	408	410	411	412	413	415	417	418	418	418	417	415	413	412	412	413	413	413	413	414	414	414	414	415	415	415	414	413	413	412	410	409	408	407	406	404	403	403	402	402	403	405	406	406	407	409	412	412	413	412	410	406	403	400	399	399	399	399	398	397	396	395	393	391	390	388	389	391	393	394	397	398	401	404	404	402	401	399	397	395	393	392	392	391	390	389	387	385	383	381	379	377	373	367	361	356	352	350	347	345	345	343	341	341	341	340	339	341	342	341	339	338	336	334	332	331	330	329	329	328	326	323	321	319	318	317	315	314	314	312	309	306	303	300	298	296	294	292	289	286	283	278	274	272	269	266	263	260	259	259	258	256	253	252	250	250	250	250	249	247	247	248	250	253	255	256	255	254	255	257	260	262	265	269	273	276	278	281	283	284	285	286	286	286	286	286	286	287	287	287	286	284	283	282	282	281	280	278	276	275	275	275	275	274	274	273	273	272	270	269	267	265	263	262	262	262	263	262	261	260	260	259	259	259	259	259	259	257	256	255	254	253	251	250	248	247	245	243	241	239	237	235	233	231	230	228	226	224	221	219	217	214	211	209	207	205	202	199	195	192	189	187	184	180	178	175	172	170	168	165	162	159	156	152	147	142	138	135	131	121	115	115	118	120	119	115	111	107	104	102	99	96	93	91	90	88	85	81	79	78	77	75	74	71	68	66	65	67	68	69	69	69	69	69	70	71	72	74	77	80	83	85	86	87	89	92	95	92	90	92	96	97	96	99	102	104	103	103	104	106	106	107	107	109	111	113	115	116	117	119	121	123	126	128	130	131	133	134	134	134	136	139	141	141	141	142	143	143	145	150	154	155	157	159	162	164	166	167	168	169	170	170	170	171	171	172	173	172	171	169	166	163	159	157	156	156	156	156	155	154	154	153	152	151	149	147	145	144	143	144	145	145	144	145	145	145	145	143	142	140	138	136	135	135	134	134	134	134	134	133	133	132	132	131	130	130	131	131	131	131	130	129	129	131	132	132	133	133	134	135	135	134	135	135	135	135	135	136	136	136	136	136	135	135	135	135	135	134	134	134	134	133	133	132	130	129	128	127	125	123	121	120	118	116	114	112	110	107	106	105	103	101	97	94	92	91	89	86	84	82	80	80	79	76	73	71	71	69	66	64	61	57	55	54	53	52	51	51	49	48	47	46	44	42	42	41	39	38	36	34	33	31	31	31	29	27	27	27	26	23	22	21	21	20	19	18	20	21	20	19	19	20	20	19	18	19	19	18	18	18	18	17	16	16	16	16	18	19	20	20	19	18	18	17	16	15	14	12	11	11	11	10	9	9	9	7	5	5	4	3	2	1	0	0	0	0	0	0	0	0	0	0	0	0	0	0	0	0	0	0	0	0	0	0	0	0	0	0	0	0	0	0	0	0	0	0	0	0	0	0	0	0	0	0	0	0	0	0	0	0	0	0	0	0	0	0	0	0	0	0	0	0	0	0	0	0	0	0	0	0	0	0	0	0	0	0	0	0	0	0	0	0	0	0	0	0	0	0	0	0	0	0	0	0	0	0	0	0	0	0	0	0	0	0	0	0	0	0	0	0	0	0	0	0	0	0	0	0	0	0	0	0	0	0	0	0	0	0	0	0	0	1	2	3	10	16	18	18	16	15	17	19	18	17	19	20	18	17	18	22	26	26	28	30	31	31	32	33	33	33	33	34	36	37	38	37	37	37	36	35	34	33	31	28	26	24	23	24	24	24	25	25	23	20	20	20	19	18	17	17	18	19	20	21	23	27	28	28	28	28	29	31	33	34	36	39	42	44	45	47	48	50	52	54	56	58	59
286	288	289	291	293	295	296	296	297	299	301	303	305	308	309	309	312	317	320	322	324	327	329	330	331	333	334	336	338	340	341	342	343	345	346	347	348	349	350	350	350	350	349	349	349	349	349	349	348	347	346	345	345	344	344	345	347	348	350	352	354	356	358	360	361	363	363	363	362	360	359	360	360	360	362	365	366	369	372	374	375	376	377	379	382	383	384	386	388	390	392	394	397	400	403	406	409	411	413	414	415	416	418	419	420	421	420	419	418	416	415	415	415	416	416	416	416	416	416	417	417	417	416	415	415	414	413	411	410	408	406	405	403	402	401	400	400	400	402	403	403	404	406	409	409	409	409	407	404	401	398	396	396	395	395	395	394	393	392	389	386	383	382	385	389	389	389	392	395	398	401	402	401	400	398	396	394	392	391	390	389	388	387	386	384	382	380	379	377	374	369	363	358	352	347	345	343	343	340	337	336	336	336	337	339	340	339	338	336	334	332	330	329	328	327	327	326	324	321	319	317	316	314	313	312	311	308	305	302	299	296	294	293	292	289	287	284	280	274	271	270	267	261	257	254	253	255	254	252	250	248	247	247	247	247	246	246	246	247	248	251	252	253	252	252	253	255	259	262	265	268	272	275	277	280	282	283	284	284	285	285	285	286	286	287	287	287	286	284	283	282	281	280	279	278	276	275	275	274	274	274	274	273	273	271	270	268	266	264	262	261	260	260	261	261	260	258	257	257	257	258	258	258	257	256	255	253	252	251	250	248	246	245	243	242	240	238	236	234	232	230	228	227	225	223	221	218	216	214	211	209	206	204	202	199	196	193	190	187	184	181	178	175	172	170	168	166	163	160	157	152	147	142	139	134	127	120	115	114	118	120	118	115	111	108	106	103	99	97	96	94	90	86	84	82	80	79	76	74	71	69	66	63	62	63	65	66	66	66	67	67	68	68	70	72	76	79	81	83	85	86	87	90	90	87	87	90	94	95	96	98	101	102	100	100	102	105	105	106	107	109	111	112	114	115	117	118	120	122	124	126	127	129	130	131	132	132	134	136	138	139	141	142	143	144	146	150	153	155	156	158	161	164	166	167	168	168	168	168	168	168	169	170	170	170	169	166	165	163	159	156	155	154	154	153	152	152	151	151	150	149	147	146	143	142	141	141	141	142	142	142	143	143	143	142	140	138	136	134	133	132	132	131	131	132	132	131	131	131	130	129	129	128	128	129	129	130	129	127	126	127	128	129	129	130	131	132	132	132	132	133	133	133	133	133	133	133	133	133	132	132	132	132	132	132	132	131	131	130	130	129	128	127	126	124	122	121	119	118	115	113	112	110	108	106	103	102	100	97	95	92	90	89	87	84	83	81	81	81	79	76	73	71	70	68	66	64	61	58	57	55	54	52	51	51	49	48	47	46	44	43	42	42	42	40	36	33	32	31	31	30	29	28	27	26	25	23	22	21	21	21	21	21	22	24	23	21	20	20	20	20	20	20	20	19	19	19	20	19	18	17	17	18	19	20	21	21	20	20	20	19	18	17	15	12	10	10	11	10	10	9	8	7	5	4	4	3	2	1	0	0	0	0	0	0	0	0	0	0	0	0	0	0	0	0	0	0	0	0	0	0	0	0	0	0	0	0	0	0	0	0	0	0	0	0	0	0	0	0	0	0	0	0	0	0	0	0	0	0	0	0	0	0	0	0	0	0	0	0	0	0	0	0	0	0	0	0	0	0	0	0	0	0	0	0	0	0	0	0	0	0	0	0	0	0	0	0	0	0	0	0	0	0	0	0	0	0	0	0	0	0	0	0	0	0	0	0	0	0	0	0	0	0	0	0	0	0	0	0	0	0	0	0	0	0	0	0	0	1	2	3	10	17	18	18	16	15	17	19	18	17	18	20	17	16	19	22	24	23	24	27	29	30	30	30	29	29	31	32	33	35	35	35	35	35	34	33	32	31	30	27	25	24	24	25	24	22	23	23	21	18	17	17	16	16	16	17	18	19	20	21	24	27	28	28	29	30	31	32	34	35	37	40	43	44	46	49	50	51	53	56	59	60	62
288	291	293	295	297	298	298	299	300	301	302	304	306	308	309	309	313	318	320	321	323	326	329	331	332	334	336	338	339	342	343	343	344	345	346	348	349	350	351	352	352	352	351	351	351	351	351	351	350	348	348	347	346	345	345	346	348	349	351	353	355	357	359	361	363	365	365	365	364	362	362	361	362	362	365	367	368	370	374	376	377	378	380	382	384	386	387	388	390	392	394	396	399	402	406	409	412	414	416	418	419	419	421	422	423	424	423	422	420	419	418	417	418	418	418	418	418	418	418	419	419	419	418	417	416	415	414	412	410	408	406	404	403	402	400	399	398	398	400	401	401	401	403	405	406	406	405	404	402	398	395	392	392	391	392	392	391	389	387	385	381	378	377	380	385	385	385	388	393	396	398	399	398	398	397	395	393	391	389	387	386	386	385	384	383	381	379	378	376	373	369	365	359	352	347	345	342	340	337	333	332	332	333	334	336	337	337	336	334	331	329	327	326	326	326	324	322	321	319	317	316	315	313	311	309	307	304	301	298	295	292	291	291	289	287	285	282	278	273	269	267	264	259	253	250	249	250	250	248	246	245	244	244	245	245	244	243	243	245	247	249	250	250	249	250	251	253	257	262	265	267	270	273	276	278	280	281	282	283	284	284	285	286	286	287	287	286	285	284	283	282	281	280	278	276	276	276	275	274	274	274	273	272	272	271	269	267	265	263	260	258	257	257	259	259	258	256	254	254	255	256	256	256	255	254	253	252	251	250	248	246	244	243	242	241	239	237	235	233	231	229	227	225	224	222	219	217	215	213	211	209	206	204	201	198	196	193	190	188	185	183	179	176	173	170	168	166	163	159	156	151	147	143	139	134	126	119	114	114	117	120	118	115	112	110	107	103	99	97	98	97	92	87	84	82	81	80	76	72	69	67	64	61	60	59	60	62	64	64	64	65	66	67	69	71	75	77	79	81	85	86	85	87	87	85	86	88	92	95	95	97	99	98	97	98	101	103	103	105	108	111	112	113	114	115	116	118	119	121	122	123	124	126	127	129	129	130	132	134	136	138	140	143	144	144	147	151	153	154	155	157	160	163	165	166	166	166	165	165	165	165	166	167	166	165	165	165	164	164	161	157	154	153	152	151	150	149	149	148	148	146	146	144	141	139	138	139	139	139	139	140	141	142	141	140	138	136	134	131	130	130	130	129	130	130	130	130	130	129	129	128	127	126	126	126	127	128	128	125	124	125	126	126	127	127	129	129	130	130	130	130	131	131	131	130	130	130	130	130	130	129	129	129	129	129	129	129	128	127	127	126	125	125	124	122	120	119	118	116	114	112	109	108	107	105	102	100	98	95	93	91	89	88	85	83	82	81	81	80	79	76	73	71	69	67	65	64	61	59	58	56	55	54	53	52	50	49	48	47	46	44	43	42	43	42	39	36	34	33	32	30	29	28	27	26	25	24	23	22	22	23	24	24	25	26	26	23	22	21	21	21	21	22	21	21	20	20	21	21	20	19	20	20	21	22	23	22	21	21	21	20	19	18	16	13	10	10	10	10	10	10	9	6	4	4	4	3	2	1	0	0	0	0	0	0	0	0	0	0	0	0	0	0	0	0	0	0	0	0	0	0	0	0	0	0	0	0	0	0	0	0	0	0	0	0	0	0	0	0	0	0	0	0	0	0	0	0	0	0	0	0	0	0	0	0	0	0	0	0	0	0	0	0	0	0	0	0	0	0	0	0	0	0	0	0	0	0	0	0	0	0	0	0	0	0	0	0	0	0	0	0	0	0	0	0	0	0	0	0	0	0	0	0	0	0	0	0	0	0	0	0	0	0	0	0	0	0	0	0	0	0	0	0	0	0	0	0	0	1	2	3	8	15	18	18	16	15	17	21	18	16	16	16	14	15	19	21	21	20	21	24	26	27	27	25	24	25	28	30	32	32	32	32	33	33	32	31	30	30	28	26	24	24	24	24	23	21	20	20	18	16	15	15	15	15	16	17	18	19	20	22	24	27	27	27	29	32	34	34	34	36	39	42	45	46	48	50	52	53	55	58	61	62	63
292	294	297	299	300	302	303	304	304	304	304	304	306	308	308	309	313	318	320	321	322	325	329	332	334	336	338	339	341	343	344	345	345	346	348	349	351	352	353	354	354	354	353	353	353	354	353	353	351	350	349	349	348	346	346	348	349	350	352	353	355	358	360	363	365	366	367	367	366	365	364	364	364	365	366	367	369	371	374	376	378	380	382	384	386	388	389	391	393	394	396	398	401	405	408	411	414	417	419	420	421	422	424	425	426	426	426	424	423	421	420	419	420	420	420	420	420	421	421	421	421	420	419	418	417	416	415	413	411	408	406	404	402	401	399	397	396	396	397	398	398	399	399	401	402	402	401	401	398	395	392	388	386	386	388	389	387	384	382	380	378	375	375	377	381	382	383	387	392	395	397	396	396	396	395	393	391	389	387	385	384	384	383	382	381	379	378	376	374	371	368	365	360	354	348	345	342	338	334	331	329	329	329	331	333	335	335	334	331	329	326	324	323	324	323	321	319	318	317	316	315	313	311	309	307	304	300	298	295	292	290	289	287	285	283	281	279	276	273	269	265	261	257	253	249	248	248	246	244	243	242	241	241	243	243	242	241	241	243	246	247	246	246	246	247	249	252	256	261	264	266	269	271	274	276	278	279	280	281	282	283	284	285	286	286	286	286	285	284	282	281	280	279	277	276	275	275	275	274	273	274	273	271	271	270	268	266	264	262	259	257	256	255	256	256	256	255	253	252	253	254	254	254	254	253	252	251	250	248	246	244	242	241	240	239	237	235	233	231	229	227	225	224	222	220	218	216	215	213	210	208	205	203	200	198	196	193	190	187	185	183	180	176	173	169	167	165	161	158	155	151	146	143	139	134	126	119	114	113	117	119	118	115	113	111	108	104	99	97	96	96	92	88	84	82	81	80	76	72	68	67	64	61	60	59	59	60	61	62	62	63	64	67	69	71	73	75	76	79	83	85	83	82	83	83	85	87	91	93	94	95	96	96	95	97	99	100	102	104	107	110	111	113	114	115	116	117	118	120	121	122	123	124	125	127	127	128	130	132	135	137	139	141	144	144	146	150	152	153	155	158	160	162	163	163	164	163	163	163	163	163	164	163	163	163	163	164	164	163	161	157	155	152	150	150	149	148	146	145	145	144	143	142	139	138	137	137	137	137	136	137	139	140	140	138	136	134	132	130	129	129	128	128	128	129	128	128	128	128	127	126	125	125	125	125	126	127	126	123	121	122	123	124	124	125	126	127	127	127	127	127	127	128	128	127	127	127	128	128	128	127	127	127	126	125	125	125	125	124	124	123	123	122	121	120	118	117	116	114	111	109	107	106	105	103	101	98	96	94	92	90	88	87	85	83	83	82	81	80	78	75	72	70	68	66	65	63	61	59	58	57	56	55	55	54	51	50	49	48	47	46	44	43	43	43	40	38	36	34	33	32	31	31	29	28	26	26	25	24	24	26	27	28	28	27	26	25	24	24	23	23	23	23	23	22	22	22	21	21	20	20	22	23	25	25	25	23	22	22	22	22	21	20	18	15	12	11	11	11	10	10	8	6	4	4	4	3	3	2	1	0	0	0	0	0	0	0	0	0	0	0	0	0	0	0	0	0	0	0	0	0	0	0	0	0	0	0	0	0	0	0	0	0	0	0	0	0	0	0	0	0	0	0	0	0	0	0	0	0	0	0	0	0	0	0	0	0	0	0	0	0	0	0	0	0	0	0	0	0	0	0	0	0	0	0	0	0	0	0	0	0	0	0	0	0	0	0	0	0	0	0	0	0	0	0	0	0	0	0	0	0	0	0	0	0	0	0	0	0	0	0	0	0	0	0	0	0	0	0	0	0	0	0	0	0	0	0	0	1	2	3	5	11	16	17	16	16	18	20	18	15	14	13	11	12	17	18	18	17	17	20	22	22	22	21	20	22	26	28	30	30	29	29	30	31	30	29	28	28	26	25	24	24	23	22	20	18	17	17	16	15	14	14	15	16	17	18	18	18	20	22	24	26	26	27	30	34	36	36	36	38	40	43	47	49	50	51	52	54	57	59	61	63	64
296	298	300	302	304	306	308	309	309	308	307	306	308	309	309	310	313	317	321	322	322	325	329	331	334	336	339	341	343	344	346	347	348	349	350	352	354	354	355	356	356	356	355	355	355	356	355	354	353	352	351	350	349	348	348	349	350	351	353	354	357	359	362	364	366	368	369	369	368	367	367	367	367	368	368	369	371	372	374	377	379	382	385	386	388	390	392	394	396	398	399	401	404	407	410	413	416	418	421	422	424	425	426	428	429	429	428	427	425	423	423	422	422	423	423	423	423	423	423	423	423	422	421	419	418	417	415	413	410	408	406	404	401	400	398	396	395	394	395	395	395	395	396	397	398	398	398	397	395	392	389	385	382	380	382	381	379	379	378	376	374	373	373	374	377	379	382	386	390	394	395	395	395	394	393	391	390	388	386	384	383	382	380	379	379	378	376	374	372	369	367	364	360	355	349	346	342	337	332	329	327	326	326	328	331	333	332	331	329	326	324	322	321	321	320	317	315	315	314	314	313	312	309	306	304	301	298	296	293	290	287	286	284	281	279	277	275	273	270	268	265	261	257	252	248	247	245	243	242	241	240	239	239	240	241	240	239	238	241	243	244	243	243	244	246	248	251	255	261	263	265	267	269	271	274	276	277	278	278	279	281	283	284	284	285	285	284	284	283	282	280	279	278	277	275	274	274	274	273	273	273	272	271	270	268	267	264	263	261	258	256	254	253	252	253	253	253	251	250	250	251	252	252	252	252	251	250	249	247	244	242	240	239	238	237	236	234	232	230	228	226	224	222	220	218	216	215	213	211	208	205	203	201	199	197	195	192	190	187	184	182	179	175	172	168	165	163	160	157	153	149	146	142	138	133	127	119	114	113	117	119	118	116	114	112	110	106	101	97	96	95	93	89	84	82	81	80	77	73	69	67	65	62	60	59	58	58	59	60	61	61	62	65	68	71	73	73	75	77	79	80	78	80	81	82	84	86	88	91	93	93	93	94	94	95	97	98	100	103	106	108	109	112	114	115	115	116	117	119	119	121	122	123	123	124	124	125	127	130	133	134	136	138	140	140	142	147	152	154	156	158	160	160	161	161	161	161	160	161	162	162	161	160	160	161	161	161	161	160	159	157	155	152	150	149	148	146	144	143	143	142	141	139	138	136	135	135	134	134	133	133	136	138	137	136	135	134	132	129	128	128	128	128	128	128	127	127	127	127	125	124	124	124	124	124	125	125	123	121	119	120	121	122	122	122	123	124	124	124	123	122	123	124	124	124	124	125	125	125	125	125	125	125	123	123	123	123	122	122	122	122	121	120	119	117	116	115	113	111	109	107	105	104	103	101	99	96	95	93	91	89	88	87	86	85	84	83	81	80	78	75	73	72	69	67	65	63	61	59	58	57	57	56	56	55	52	50	49	48	47	46	44	43	42	41	40	39	37	35	35	36	36	36	34	31	29	28	27	26	27	29	31	31	30	29	28	28	28	27	26	25	25	25	24	24	23	23	22	21	20	22	24	26	27	28	27	26	25	24	24	23	23	22	20	17	14	12	11	10	10	9	8	6	5	4	4	3	3	3	1	0	0	0	0	0	0	0	0	0	0	0	0	0	0	0	0	0	0	0	0	0	0	0	0	0	0	0	0	0	0	0	0	0	0	0	0	0	0	0	0	0	0	0	0	0	0	0	0	0	0	0	0	0	0	0	0	0	0	0	0	0	0	0	0	0	0	0	0	0	0	0	0	0	0	0	0	0	0	0	0	0	0	0	0	0	0	0	0	0	0	0	0	0	0	0	0	0	0	0	0	0	0	0	0	0	0	0	0	0	0	0	0	0	0	0	0	0	0	0	0	0	0	0	0	0	0	0	0	1	2	2	4	8	13	15	15	15	17	19	17	14	12	11	10	9	13	16	16	15	16	18	18	19	19	19	19	21	24	26	27	27	27	27	28	28	27	27	27	26	25	24	24	24	23	19	16	14	13	14	14	14	14	14	15	16	18	19	18	18	20	22	24	25	26	28	31	35	37	38	39	40	42	44	47	50	50	51	53	56	59	60	62	64	66
299	301	302	304	307	309	311	312	313	312	311	310	310	310	311	312	313	317	320	321	321	324	329	331	333	336	339	341	344	346	347	349	351	352	353	354	356	357	358	358	358	358	357	357	357	357	356	355	354	353	353	351	350	350	350	350	351	353	354	356	358	361	363	365	368	369	370	371	371	370	370	370	369	369	370	372	373	374	377	379	381	384	387	388	390	392	395	397	399	401	402	404	407	410	412	415	418	420	422	424	426	427	429	430	431	431	430	429	427	426	425	425	425	425	426	426	425	425	425	425	424	423	421	420	418	416	414	412	409	407	405	403	401	399	397	395	393	392	392	392	392	392	393	394	395	395	395	394	393	391	387	383	379	377	376	374	374	375	374	373	372	372	370	370	374	377	382	386	389	391	393	393	392	391	390	389	388	386	384	383	382	380	377	377	377	376	374	372	370	367	365	362	359	354	349	345	341	336	332	329	326	324	322	324	327	328	328	328	326	324	322	319	317	317	316	314	313	312	312	312	312	310	306	304	302	299	298	296	291	286	285	283	281	278	276	274	271	269	267	266	264	259	255	251	247	245	243	241	240	239	238	237	237	238	238	237	236	237	238	240	241	241	241	242	245	248	250	254	260	263	264	266	268	270	272	274	275	276	277	278	279	281	282	283	284	284	283	282	281	280	279	278	277	276	274	273	273	273	273	272	272	271	270	269	267	265	263	261	260	257	254	252	251	250	249	249	249	249	248	248	248	248	249	250	250	249	248	247	245	243	241	239	238	236	235	233	232	230	228	226	224	221	219	217	216	215	213	211	208	206	203	202	200	197	195	193	191	189	186	183	180	177	174	170	166	163	161	159	156	152	148	145	141	136	131	126	118	113	112	116	119	119	117	114	111	109	107	102	98	97	96	93	89	86	84	82	80	78	74	70	67	65	63	60	59	57	56	56	58	60	61	62	65	67	69	71	72	74	75	76	75	76	79	80	80	82	85	87	90	92	91	91	92	93	95	95	96	99	102	105	108	109	110	113	114	114	114	116	117	117	118	119	120	120	120	121	122	124	127	130	132	133	134	135	137	140	147	152	154	156	157	158	159	159	159	159	157	156	157	159	159	159	158	157	158	158	158	158	157	156	155	154	152	151	149	147	145	143	141	141	140	139	137	136	134	133	132	132	131	131	129	131	135	136	135	135	134	132	129	128	127	127	127	126	125	125	126	126	125	124	123	123	123	123	122	123	122	121	119	117	118	119	119	120	120	121	122	122	121	120	120	120	120	120	120	121	122	122	122	122	123	123	122	120	121	121	120	120	119	120	120	119	118	117	115	114	113	111	109	107	106	104	102	100	98	96	95	93	92	91	89	88	87	86	85	84	82	80	80	79	76	74	73	71	68	66	64	62	61	60	59	58	57	57	55	52	50	49	48	47	45	43	42	41	41	40	40	39	37	37	39	40	39	37	34	32	31	29	28	29	32	34	33	33	32	31	30	30	30	29	28	27	28	27	26	24	24	24	22	22	23	26	27	28	29	29	29	28	26	26	26	26	24	22	19	16	14	12	10	9	9	8	7	6	5	3	3	3	3	1	0	0	0	0	0	0	0	0	0	0	0	0	0	0	0	0	0	0	0	0	0	0	0	0	0	0	0	0	0	0	0	0	0	0	0	0	0	0	0	0	0	0	0	0	0	0	0	0	0	0	0	0	0	0	0	0	0	0	0	0	0	0	0	0	0	0	0	0	0	0	0	0	0	0	0	0	0	0	0	0	0	0	0	0	0	0	0	0	0	0	0	0	0	0	0	0	0	0	0	0	0	0	0	0	0	0	0	0	0	0	0	0	0	0	0	0	0	0	0	0	0	0	0	0	0	0	0	0	0	1	2	3	6	10	12	13	14	16	18	17	14	11	10	8	6	8	12	14	15	15	15	16	17	19	19	19	19	22	25	25	25	24	24	25	25	25	24	24	24	23	23	23	24	22	18	14	11	11	11	12	13	13	14	15	17	19	19	19	19	20	23	25	26	26	27	30	34	36	38	40	42	43	45	47	49	50	52	54	58	61	62	63	65	68
302	303	304	306	309	311	313	315	316	316	315	312	311	312	313	313	314	316	317	319	320	324	329	332	333	336	340	343	345	347	349	351	353	354	355	356	358	359	360	360	360	360	359	359	358	358	357	356	354	354	354	353	352	352	352	352	353	354	355	358	360	362	364	367	369	370	372	373	373	372	372	371	370	370	372	373	375	377	379	381	383	385	388	390	392	395	397	399	401	403	405	407	410	412	414	416	419	421	423	426	428	430	431	432	433	433	432	431	429	428	427	427	428	428	428	428	428	428	428	427	426	424	422	420	417	415	413	411	408	406	405	402	400	398	396	393	391	390	389	389	389	389	390	391	392	392	391	391	390	388	385	381	378	374	372	370	369	371	371	370	370	369	368	368	371	376	381	385	387	389	390	391	390	389	388	387	385	384	382	381	380	377	374	374	374	373	371	369	367	364	362	359	356	353	348	345	341	336	332	329	326	322	320	320	321	323	324	325	324	322	319	317	314	313	313	312	311	310	310	311	310	308	305	303	301	299	297	295	290	286	284	283	280	276	275	272	269	266	264	263	260	255	252	248	245	243	241	238	236	236	235	235	235	235	235	234	233	235	236	238	238	239	240	242	244	247	249	252	258	260	262	264	267	269	271	272	274	274	275	276	277	278	280	282	282	282	281	281	280	279	278	277	276	274	273	272	272	272	271	271	271	270	269	268	266	265	262	260	258	256	253	251	249	248	247	246	245	245	246	246	246	245	246	247	248	247	246	244	243	241	239	238	236	234	232	231	229	227	225	223	221	219	217	215	214	212	210	208	206	204	202	200	198	196	193	191	189	187	185	182	179	176	172	168	165	161	159	158	155	151	147	144	140	135	129	124	118	113	111	114	117	118	117	114	111	108	106	103	98	96	95	92	89	87	85	83	80	77	74	70	67	63	62	61	60	58	55	54	55	57	60	62	64	65	66	67	69	73	75	73	72	74	77	78	78	80	85	87	90	92	91	90	91	93	94	95	96	98	102	106	109	109	110	112	113	113	113	115	115	115	116	116	116	117	118	118	119	120	124	127	129	130	130	132	135	140	146	151	152	154	156	157	157	157	156	156	154	152	153	155	155	155	156	156	155	156	156	156	155	154	153	153	152	151	149	146	144	142	140	138	137	137	135	133	132	131	130	129	130	129	127	127	131	134	134	134	133	132	130	127	126	125	124	123	123	124	124	124	124	123	122	122	121	121	120	120	119	118	117	116	116	116	117	117	118	118	119	119	119	118	118	118	117	116	117	119	119	119	119	120	120	120	118	117	118	119	118	117	117	117	117	117	116	115	114	112	111	109	107	106	104	103	101	98	95	93	93	92	91	90	88	87	86	85	85	84	82	80	80	79	76	74	73	72	70	68	66	64	63	62	61	59	57	57	55	52	51	50	49	48	45	43	41	41	41	41	41	41	40	40	41	41	40	38	36	34	32	30	29	30	33	34	34	34	34	33	33	32	32	31	30	30	30	29	28	26	26	26	25	24	26	27	29	29	30	30	31	30	28	28	28	28	27	24	20	16	14	13	11	10	9	8	8	6	5	3	3	3	2	1	0	0	0	0	0	0	0	0	0	0	0	0	0	0	0	0	0	0	0	0	0	0	0	0	0	0	0	0	0	0	0	0	0	0	0	0	0	0	0	0	0	0	0	0	0	0	0	0	0	0	0	0	0	0	0	0	0	0	0	0	0	0	0	0	0	0	0	0	0	0	0	0	0	0	0	0	0	0	0	0	0	0	0	0	0	0	0	0	0	0	0	0	0	0	0	0	0	0	0	0	0	0	0	0	0	0	0	0	0	0	0	0	0	0	0	0	0	0	0	0	0	0	0	0	0	0	0	0	0	0	0	2	4	7	9	10	12	14	15	15	14	12	9	6	5	5	7	10	12	12	12	13	17	19	18	18	17	19	23	23	22	21	21	22	23	23	23	23	22	22	22	22	22	20	16	13	11	10	11	11	12	13	14	16	18	20	20	20	20	21	24	27	29	28	28	30	33	35	37	39	42	44	45	47	48	50	53	55	58	61	63	65	67	70
305	305	306	308	311	313	315	317	320	320	318	316	314	314	314	315	315	316	316	318	321	324	329	332	334	338	341	344	346	349	351	353	355	356	357	358	359	361	362	362	362	362	361	360	360	359	358	356	355	355	355	355	354	354	353	354	355	356	357	360	362	364	366	368	370	371	373	374	374	374	373	372	372	372	374	375	377	379	381	383	384	387	389	392	394	396	398	401	404	406	408	411	412	414	416	419	421	423	425	428	430	432	433	434	435	435	434	432	431	430	430	430	430	430	430	430	430	430	430	429	427	424	422	419	417	415	413	411	409	407	405	403	400	398	395	392	390	388	387	387	387	386	387	388	389	389	388	388	386	385	382	379	375	372	368	365	364	365	366	366	366	367	368	368	368	372	379	383	385	387	388	389	388	387	385	384	383	382	381	379	377	375	372	371	370	370	368	365	363	361	358	356	353	350	346	344	340	337	333	330	327	323	321	318	317	318	319	320	320	318	317	315	312	310	309	308	307	307	308	309	309	307	305	303	300	298	297	295	291	288	286	284	280	277	275	273	269	266	262	259	256	252	248	245	242	240	238	235	232	231	231	231	232	232	231	231	231	233	234	235	236	237	239	241	243	246	248	250	255	258	260	263	265	267	269	271	272	273	273	274	275	276	278	279	279	279	278	278	278	277	276	275	274	272	271	270	270	270	270	269	269	269	268	267	265	264	262	259	257	255	253	250	248	247	245	243	242	242	243	244	243	243	245	246	245	244	243	242	240	239	237	235	233	231	229	228	226	225	223	221	219	217	215	213	211	209	207	206	203	201	199	198	195	193	191	188	186	185	183	181	178	174	170	166	162	160	157	156	153	150	146	143	140	136	131	125	118	112	111	113	116	117	115	113	110	108	105	102	98	95	93	89	88	87	85	83	80	76	74	70	66	62	61	62	62	59	55	53	53	54	57	60	62	62	63	65	67	70	72	69	69	73	74	75	76	79	84	86	88	90	90	90	91	93	94	94	96	99	103	106	108	108	109	111	111	111	112	113	114	114	114	115	115	115	116	116	117	118	120	123	125	127	128	130	134	139	145	149	151	152	153	154	155	154	154	153	152	151	151	152	152	153	154	154	153	153	153	153	152	152	151	151	150	149	148	146	143	141	138	136	135	135	134	131	129	129	128	128	129	128	126	126	129	132	132	132	131	130	128	126	124	122	121	121	122	123	123	122	122	122	121	120	119	118	118	118	117	116	115	114	113	114	114	115	116	116	117	117	117	116	116	117	115	114	115	117	118	118	118	118	118	116	115	115	115	116	115	115	114	114	114	114	114	113	113	111	109	108	107	105	103	102	100	97	95	92	91	91	90	89	88	87	86	85	85	84	82	80	79	78	77	75	73	71	70	69	68	66	65	64	62	60	58	56	55	53	51	51	50	49	46	44	42	43	43	44	44	44	43	42	41	41	41	40	37	35	34	32	31	32	34	35	35	35	35	34	34	34	33	33	32	31	31	30	29	28	28	28	27	27	28	29	30	31	31	31	31	31	30	30	30	29	28	27	22	16	14	14	13	11	10	8	7	5	4	3	3	3	2	1	0	0	0	0	0	0	0	0	0	0	0	0	0	0	0	0	0	0	0	0	0	0	0	0	0	0	0	0	0	0	0	0	0	0	0	0	0	0	0	0	0	0	0	0	0	0	0	0	0	0	0	0	0	0	0	0	0	0	0	0	0	0	0	0	0	0	0	0	0	0	0	0	0	0	0	0	0	0	0	0	0	0	0	0	0	0	0	0	0	0	0	0	0	0	0	0	0	0	0	0	0	0	0	0	0	0	0	0	0	0	0	0	0	0	0	0	0	0	0	0	0	0	0	0	0	0	0	0	0	0	0	1	3	4	6	8	10	12	13	13	14	12	9	6	5	5	4	5	6	7	8	11	15	17	16	15	14	16	20	21	19	18	18	19	21	21	22	22	21	21	21	20	19	17	15	13	11	10	10	11	11	12	14	16	18	20	20	20	20	22	24	28	30	30	30	30	33	35	37	40	42	44	45	47	49	51	54	56	59	62	65	67	69	72
308	309	309	310	313	315	317	320	322	323	322	320	318	317	317	317	318	318	318	320	323	326	330	333	335	339	342	344	347	350	352	354	356	357	358	359	361	362	363	363	363	363	362	361	361	360	359	358	357	357	357	357	356	355	355	355	356	357	359	361	363	366	367	369	370	372	374	376	376	375	374	373	374	376	377	378	379	381	383	385	386	388	390	393	395	397	400	403	405	408	411	413	415	417	419	421	423	425	427	430	432	433	435	436	437	437	436	435	433	432	432	432	432	432	432	432	432	432	431	429	427	424	422	419	417	415	414	412	411	409	406	404	401	398	395	392	389	386	385	385	384	383	383	384	385	386	385	384	383	381	379	377	373	369	365	361	359	360	361	362	362	365	368	368	367	371	378	383	384	385	386	386	385	385	384	382	381	380	379	377	375	372	368	367	367	366	364	362	359	357	354	352	349	347	344	342	339	337	334	331	328	325	322	317	314	314	315	316	316	315	315	313	311	308	306	304	303	305	306	307	307	306	304	303	300	298	297	296	292	289	287	285	281	277	275	273	270	266	262	258	254	250	246	241	238	237	235	232	230	228	228	228	229	228	227	227	229	231	232	234	234	236	238	240	243	245	247	249	253	256	258	261	263	265	267	269	270	270	270	271	272	273	275	276	276	275	275	275	275	275	274	273	271	270	269	269	268	268	268	267	267	266	266	265	264	262	260	259	257	255	252	250	247	245	243	242	240	240	240	241	241	242	243	244	243	242	241	239	238	236	235	233	231	229	227	226	224	223	221	219	217	215	213	211	209	206	204	202	200	198	196	194	193	191	189	186	184	183	181	179	176	171	167	163	160	158	156	154	151	148	145	142	140	137	134	128	118	112	110	112	115	116	115	112	110	106	104	101	97	95	91	88	86	86	84	82	79	76	73	71	67	64	62	62	61	58	54	53	53	53	56	58	59	60	62	65	66	67	68	67	68	71	71	71	73	76	81	84	85	87	88	89	90	92	93	94	97	100	102	104	106	107	108	110	110	110	111	112	112	112	113	114	114	114	114	115	116	117	118	120	123	125	128	129	132	137	142	146	149	150	149	151	152	153	153	153	151	150	150	150	150	150	151	151	151	151	151	150	150	149	149	148	147	146	145	144	142	139	137	135	134	133	132	129	127	126	126	126	128	127	125	125	127	130	130	129	128	126	124	123	121	119	119	119	121	121	121	120	120	120	119	117	116	116	117	117	116	115	114	112	111	111	112	113	114	115	116	116	115	113	113	114	113	112	113	115	115	116	116	116	115	114	113	113	113	113	113	113	113	112	112	112	111	111	110	109	108	107	105	104	102	101	100	98	96	93	91	91	90	89	88	88	87	86	85	83	82	79	78	79	79	78	74	71	70	70	69	67	66	64	63	61	59	58	56	54	53	52	51	49	47	45	44	44	45	46	46	47	46	45	43	42	43	42	39	36	35	34	33	35	36	36	37	38	37	37	36	36	35	35	35	33	32	31	30	29	30	31	29	28	29	30	31	32	32	31	31	31	32	32	32	31	30	28	24	18	15	14	14	12	11	9	7	4	3	3	3	3	2	1	0	0	0	0	0	0	0	0	0	0	0	0	0	0	0	0	0	0	0	0	0	0	0	0	0	0	0	0	0	0	0	0	0	0	0	0	0	0	0	0	0	0	0	0	0	0	0	0	0	0	0	0	0	0	0	0	0	0	0	0	0	0	0	0	0	0	0	0	0	0	0	0	0	0	0	0	0	0	0	0	0	0	0	0	0	0	0	0	0	0	0	0	0	0	0	0	0	0	0	0	0	0	0	0	0	0	0	0	0	0	0	0	0	0	0	0	0	0	0	0	0	0	0	0	0	0	0	0	0	0	0	1	2	4	4	5	6	9	10	10	11	11	10	11	12	6	4	4	4	4	5	8	11	13	13	13	12	15	18	19	17	16	16	16	18	19	19	20	20	20	19	18	17	15	13	11	10	9	9	9	10	12	14	15	18	19	20	20	20	21	24	27	29	30	31	32	34	36	38	41	43	44	46	48	51	53	56	58	60	63	67	69	71	74
311	312	313	314	315	317	319	322	325	325	325	324	322	320	320	320	320	321	323	325	326	328	331	333	336	339	342	344	347	350	352	354	357	358	359	360	362	363	364	364	364	364	363	363	362	361	360	359	358	358	358	358	358	357	356	355	356	358	360	361	364	366	368	369	371	373	375	377	377	376	375	375	377	380	380	381	381	383	385	386	388	390	392	394	396	399	402	404	406	409	412	414	417	418	421	423	425	427	429	432	433	435	436	437	438	438	438	437	436	435	434	434	434	434	434	434	434	433	431	429	427	425	423	421	419	417	416	415	413	410	407	404	401	398	394	391	387	384	383	382	381	381	381	381	381	381	381	381	379	378	377	375	371	367	363	358	356	355	356	358	358	361	363	366	366	370	376	380	382	382	383	383	383	382	382	381	379	378	376	374	372	367	364	363	362	360	359	356	354	352	350	348	345	343	341	340	338	335	333	330	328	325	320	315	311	310	311	313	313	312	312	311	309	307	304	302	301	301	303	304	304	303	303	302	299	297	296	294	291	289	286	283	280	276	275	273	270	265	261	258	253	249	244	239	236	234	232	229	227	225	225	226	227	226	225	224	226	228	230	231	233	234	235	238	241	244	246	248	251	254	257	259	261	262	263	265	267	268	268	268	269	271	271	272	272	272	272	272	272	272	271	270	269	268	268	267	266	266	266	265	265	264	263	262	261	260	258	257	256	254	252	249	246	244	242	240	239	238	238	238	238	239	240	241	241	240	239	237	236	234	233	231	229	227	226	224	223	220	218	216	215	214	212	209	206	203	201	199	196	194	192	191	190	189	187	184	182	180	177	174	171	167	164	161	159	156	155	152	149	146	144	141	139	137	134	128	118	112	110	111	115	115	114	112	108	105	102	100	98	95	91	88	86	85	84	82	79	76	73	71	69	66	63	61	58	56	53	52	52	53	55	57	58	58	61	64	66	67	67	67	70	70	69	69	71	73	79	81	83	84	85	86	88	91	94	95	97	99	101	102	103	106	107	109	109	109	110	110	109	109	111	112	113	113	113	113	115	116	117	119	121	124	127	129	130	133	136	140	144	146	146	148	150	151	152	152	151	150	149	148	147	148	149	149	149	149	149	148	148	146	145	144	144	143	143	141	139	137	135	133	131	130	130	127	125	124	124	124	126	126	125	124	126	128	128	128	127	125	123	121	120	119	118	119	119	119	118	118	118	117	116	115	115	115	115	115	114	113	111	110	109	109	110	112	113	113	113	113	113	111	111	111	111	110	111	112	112	113	114	114	113	112	112	112	110	110	110	111	111	111	110	109	108	108	107	106	105	105	104	103	102	101	100	98	97	95	93	91	91	90	89	89	88	86	85	84	82	78	77	78	80	80	77	73	72	71	70	68	66	65	64	63	61	60	58	56	55	54	52	50	47	45	45	46	47	47	48	48	48	47	45	44	44	42	39	36	35	36	38	39	40	40	41	42	42	41	40	38	37	37	37	36	34	32	31	31	32	33	31	30	30	31	31	32	32	32	32	33	34	34	33	32	31	29	26	22	17	15	14	12	11	10	8	5	3	3	3	3	2	1	0	0	0	0	0	0	0	0	0	0	0	0	0	0	0	0	0	0	0	0	0	0	0	0	0	0	0	0	0	0	0	0	0	0	0	0	0	0	0	0	0	0	0	0	0	0	0	0	0	0	0	0	0	0	0	0	0	0	0	0	0	0	0	0	0	0	0	0	0	0	0	0	0	0	0	0	0	0	0	0	0	0	0	0	0	0	0	0	0	0	0	0	0	0	0	0	0	0	0	0	0	0	0	0	0	0	0	0	0	0	0	0	0	0	0	0	0	0	0	0	0	0	0	0	0	0	0	0	0	1	1	2	3	4	4	3	3	4	5	5	5	6	12	19	20	10	5	4	4	4	4	6	6	7	8	10	11	14	16	17	16	14	14	14	14	15	15	16	17	17	16	16	16	14	11	10	9	8	8	7	9	11	13	14	17	18	19	20	20	22	25	27	29	30	32	33	36	38	40	42	44	45	47	50	53	55	57	60	62	66	69	71	72	75
314	315	316	317	318	319	321	324	326	328	328	327	325	323	322	322	322	323	325	327	328	331	333	335	337	339	342	344	347	350	352	354	356	358	360	361	362	364	364	364	364	364	364	363	363	362	361	360	360	360	360	360	359	358	357	356	357	359	361	362	364	367	368	369	371	373	375	377	377	377	377	378	380	382	383	383	384	385	386	388	390	392	393	395	397	400	403	406	408	411	413	415	418	420	422	424	427	429	431	433	435	437	438	438	439	439	439	439	438	437	436	436	435	435	435	435	435	433	432	430	428	426	425	424	422	421	419	417	415	412	408	405	401	397	393	389	385	382	380	379	379	379	380	379	379	378	379	378	376	375	374	372	369	365	360	356	354	353	353	354	354	356	358	361	363	367	373	377	377	377	378	379	380	380	380	379	377	375	373	371	367	360	357	357	353	351	353	351	349	347	345	343	340	339	338	337	336	334	331	328	325	322	318	314	310	308	308	309	309	308	307	305	304	303	301	299	296	295	297	299	300	300	300	299	297	295	293	291	289	287	284	281	278	275	273	272	268	263	259	256	252	247	242	238	235	232	229	225	223	222	222	223	223	223	222	222	223	225	227	229	231	232	234	236	239	241	243	246	249	251	254	256	259	261	261	262	263	264	265	265	266	267	268	269	269	269	269	269	269	269	268	267	267	267	266	265	265	264	263	263	262	262	261	259	258	257	256	255	254	252	250	248	244	242	240	238	237	235	235	235	236	236	237	238	239	238	236	235	233	232	230	229	227	225	223	222	220	218	216	214	213	211	209	206	203	200	198	196	193	190	189	188	188	186	184	181	178	175	172	169	167	165	162	160	157	155	153	150	147	146	144	141	138	136	134	127	118	112	110	110	113	115	113	110	107	104	102	100	98	94	90	88	88	86	84	81	79	76	73	71	69	66	63	59	57	55	53	52	52	52	54	56	56	57	59	62	65	65	64	66	69	70	70	70	70	73	78	80	81	82	83	84	86	90	94	95	96	97	99	100	102	104	106	107	108	108	108	107	107	108	109	110	111	112	112	113	114	115	117	119	121	124	126	128	130	132	134	136	139	141	142	145	148	149	150	149	149	149	148	146	146	146	147	148	147	146	146	145	144	142	141	141	140	140	139	138	137	135	133	130	129	128	127	126	123	122	122	122	123	124	124	124	125	126	127	128	127	125	122	120	119	118	118	118	118	117	117	116	116	115	114	113	114	114	113	112	111	109	108	106	107	107	108	109	111	110	110	110	111	110	110	110	110	109	109	109	109	111	112	112	111	111	111	110	108	107	107	108	109	109	108	107	105	105	104	104	103	103	103	102	101	100	99	98	97	96	94	93	92	91	90	89	87	86	86	86	84	80	78	79	80	80	79	76	74	73	71	69	67	66	65	64	63	62	61	59	57	55	52	49	47	46	46	48	48	49	49	48	48	47	46	46	45	43	40	36	35	37	41	43	43	44	45	45	45	44	42	41	39	38	38	37	35	34	34	34	34	34	33	32	31	31	32	32	33	34	34	34	34	33	32	31	31	29	27	25	20	16	14	12	11	10	9	6	4	3	3	3	2	1	0	0	0	0	0	0	0	0	0	0	0	0	0	0	0	0	0	0	0	0	0	0	0	0	0	0	0	0	0	0	0	0	0	0	0	0	0	0	0	0	0	0	0	0	0	0	0	0	0	0	0	0	0	0	0	0	0	0	0	0	0	0	0	0	0	0	0	0	0	0	0	0	0	0	0	0	0	0	0	0	0	0	0	0	0	0	0	0	0	0	0	0	0	0	0	0	0	0	0	0	0	0	0	0	0	0	0	0	0	0	0	0	0	0	0	0	0	0	0	0	0	0	0	0	0	1	1	0	1	2	3	4	3	3	2	2	1	1	2	2	3	3	5	13	15	8	5	4	4	4	4	3	3	3	4	7	10	12	13	13	12	12	11	12	12	11	11	12	14	15	15	15	14	11	8	7	7	6	6	5	7	11	13	14	16	18	19	20	21	24	27	28	28	30	32	34	36	39	41	43	44	46	49	52	54	56	58	62	65	69	72	72	74	76
317	318	319	320	321	323	324	326	329	330	331	330	328	326	325	323	323	324	326	328	330	332	335	336	338	340	342	344	347	350	352	354	356	359	360	362	363	363	364	364	364	365	365	364	363	363	362	361	361	361	361	361	361	360	359	359	360	361	362	363	365	367	369	370	371	373	374	376	378	379	380	381	383	385	385	386	386	386	387	389	391	393	395	396	399	402	405	407	409	412	414	416	419	421	423	425	428	430	432	434	436	438	439	440	440	441	441	440	440	439	438	437	437	437	437	436	436	435	433	432	430	428	427	426	424	423	421	419	416	412	408	405	401	396	392	388	384	380	378	376	376	376	377	377	377	376	376	376	374	372	371	370	367	363	357	353	351	350	350	351	349	349	353	358	361	365	369	372	373	374	374	375	375	376	376	375	374	372	370	367	361	353	351	350	346	343	346	347	345	343	340	337	335	334	333	333	333	330	328	325	321	318	315	312	308	305	304	303	303	302	302	300	299	298	297	294	291	290	292	294	295	296	295	294	293	292	290	288	286	284	281	278	276	273	271	269	265	261	257	254	250	246	242	237	233	230	227	223	221	219	218	217	217	218	218	219	220	222	224	227	228	230	232	235	237	239	242	245	247	249	250	252	255	257	257	258	260	261	261	262	263	264	265	266	266	266	266	267	267	266	265	264	264	265	265	264	263	262	261	261	260	259	258	257	255	254	253	253	252	250	249	246	243	240	238	237	235	234	233	232	233	233	234	235	236	235	234	232	230	228	227	225	224	222	221	220	217	215	213	211	210	208	206	203	200	197	195	192	190	188	186	185	184	183	181	178	175	172	169	167	165	163	160	158	156	154	152	149	146	144	142	140	138	136	132	125	118	112	109	109	112	114	113	111	108	105	102	100	97	94	90	88	87	85	83	81	79	76	73	70	69	66	62	58	55	53	52	51	50	50	51	53	54	54	56	58	61	62	61	62	66	68	70	70	71	73	78	79	79	80	80	82	84	89	93	94	94	95	97	98	100	102	104	105	106	106	106	106	106	107	108	109	110	111	112	112	114	115	117	119	121	123	126	128	129	131	132	134	136	137	137	140	142	144	145	146	147	148	147	146	145	146	147	146	145	144	143	142	140	139	138	138	138	137	136	135	134	132	130	128	127	126	125	124	122	120	119	119	119	120	122	123	124	125	126	126	126	124	122	119	118	117	116	116	116	115	114	113	114	114	113	112	111	111	110	109	108	106	104	104	105	105	105	106	107	107	107	108	109	109	109	109	109	108	108	107	107	109	110	109	109	109	108	107	106	106	106	106	106	107	106	105	104	103	102	102	101	101	101	101	100	99	98	97	97	96	96	95	94	93	92	89	88	87	87	87	85	82	80	81	81	81	80	78	76	75	73	71	69	68	66	65	64	63	61	59	57	55	52	48	47	47	48	49	51	51	49	48	47	48	48	48	47	46	42	38	37	39	43	45	46	47	48	48	47	46	45	43	41	39	39	38	37	36	36	36	35	35	34	33	32	32	32	34	35	36	36	35	33	32	31	31	31	30	28	26	22	18	14	13	12	11	9	6	4	3	3	3	2	1	0	0	0	0	0	0	0	0	0	0	0	0	0	0	0	0	0	0	0	0	0	0	0	0	0	0	0	0	0	0	0	0	0	0	0	0	0	0	0	0	0	0	0	0	0	0	0	0	0	0	0	0	0	0	0	0	0	0	0	0	0	0	0	0	0	0	0	0	0	0	0	0	0	0	0	0	0	0	0	0	0	0	0	0	0	0	0	0	0	0	0	0	0	0	0	0	0	0	0	0	0	0	0	0	0	0	0	0	0	0	0	0	0	0	0	0	0	0	0	0	0	0	0	1	2	2	2	2	2	3	4	3	2	2	1	1	0	0	0	1	2	2	2	4	4	4	4	4	4	4	4	2	2	2	3	4	6	8	9	8	8	8	8	9	9	9	9	10	12	14	14	12	9	6	4	4	4	3	3	3	6	10	12	14	16	17	18	20	21	24	27	28	28	29	31	34	36	40	42	43	45	48	50	53	55	57	59	63	69	72	72	73	74	76
320	321	323	325	326	327	328	330	332	333	333	332	330	328	326	325	325	326	328	329	331	334	337	338	340	341	343	344	347	350	352	355	357	359	361	362	363	363	364	364	365	365	365	365	364	364	363	363	362	362	362	362	362	362	362	363	363	363	363	364	366	369	370	371	372	373	374	375	378	380	381	383	385	387	388	388	387	387	388	389	392	394	396	398	400	403	406	408	410	412	415	417	419	421	423	426	428	430	432	434	436	438	439	440	441	442	442	442	441	441	440	439	438	438	438	437	437	437	436	434	432	431	429	427	425	424	421	419	415	412	408	404	400	396	391	387	383	380	376	374	374	374	374	374	374	374	373	372	370	369	368	367	365	360	354	350	348	346	345	345	345	345	348	354	358	362	366	368	370	371	371	370	370	372	373	372	370	369	366	360	353	349	348	347	343	340	341	342	340	338	336	334	332	331	330	330	329	327	324	321	317	314	312	309	306	302	300	299	299	300	299	297	296	295	293	291	289	288	288	289	290	291	292	291	289	288	286	284	281	279	277	275	272	270	269	267	263	259	255	253	249	245	241	237	233	229	225	222	219	216	214	213	212	213	214	215	218	220	221	222	224	227	231	234	235	237	239	242	244	245	246	248	251	252	253	255	256	257	258	258	259	260	261	262	263	263	264	265	264	263	262	262	262	263	263	262	261	259	258	257	257	256	255	254	253	252	251	250	250	249	247	245	242	239	237	236	234	232	230	229	230	230	231	233	233	232	231	229	227	225	224	223	222	220	219	217	214	212	210	209	207	204	202	200	197	194	191	189	187	185	183	182	181	180	178	176	173	170	166	164	163	161	158	156	155	154	151	148	144	142	139	138	137	134	131	124	118	112	109	108	110	113	113	112	109	106	104	100	97	94	91	89	86	84	82	80	79	77	74	71	69	65	61	57	55	53	52	51	49	48	50	51	51	52	54	57	59	60	59	60	63	66	68	70	71	74	76	76	77	78	79	81	84	88	92	92	92	93	95	97	99	101	102	104	105	105	105	105	105	106	108	109	109	110	111	112	114	115	118	120	121	123	125	127	128	130	131	132	133	134	134	135	136	136	139	143	145	146	146	146	145	145	145	144	144	143	142	140	138	136	135	135	135	134	133	132	131	129	128	126	125	123	122	122	121	118	116	116	116	117	120	122	123	124	124	125	124	123	121	118	116	115	115	115	114	113	111	110	111	112	111	109	108	108	108	107	105	103	102	102	103	104	103	103	104	105	106	106	107	108	108	107	107	107	107	105	106	107	107	106	106	106	106	104	104	105	105	104	104	105	104	103	102	102	101	100	100	100	100	99	99	98	98	97	96	96	96	95	95	94	93	91	89	89	89	88	86	84	83	84	83	82	81	79	78	76	74	72	71	70	68	66	64	62	60	58	56	54	53	51	50	49	49	51	53	53	51	48	48	50	51	50	49	48	44	39	38	40	45	48	49	50	51	50	50	49	47	45	43	41	40	40	39	38	38	37	36	36	35	34	33	32	33	36	38	38	37	35	34	33	32	33	33	32	29	27	24	21	16	13	13	11	9	7	5	4	3	3	2	1	0	0	0	0	0	0	0	0	0	0	0	0	0	0	0	0	0	0	0	0	0	0	0	0	0	0	0	0	0	0	0	0	0	0	0	0	0	0	0	0	0	0	0	0	0	0	0	0	0	0	0	0	0	0	0	0	0	0	0	0	0	0	0	0	0	0	0	0	0	0	0	0	0	0	0	0	0	0	0	0	0	0	0	0	0	0	0	0	0	0	0	0	0	0	0	0	0	0	0	0	0	0	0	0	0	0	0	0	0	0	0	0	0	0	0	0	0	0	0	0	0	0	1	2	4	4	4	3	3	3	3	2	1	0	0	0	0	0	0	0	0	0	1	4	2	2	2	3	3	3	3	2	2	2	2	2	3	3	4	4	4	4	5	6	6	6	6	6	8	10	10	7	4	2	2	2	2	2	2	3	6	10	12	13	14	15	17	19	21	23	26	26	27	29	32	34	37	40	43	45	47	49	52	54	56	58	60	63	69	72	72	72	74	77
324	325	327	328	330	331	333	334	336	336	335	334	333	331	329	327	327	328	330	332	333	335	337	339	341	343	344	346	348	351	354	356	358	360	361	362	363	363	364	365	365	365	365	366	366	365	364	364	364	363	363	363	363	363	364	366	365	364	364	366	368	370	370	371	372	373	374	376	379	381	383	385	387	389	389	389	389	389	389	391	393	395	397	399	401	404	407	409	411	413	415	417	419	421	423	425	428	430	432	434	436	438	439	440	441	442	443	443	443	442	441	440	440	440	440	440	440	440	439	437	435	433	431	429	426	424	421	418	414	411	408	404	399	395	390	386	383	379	375	372	372	372	371	371	371	370	369	369	367	366	366	364	361	357	352	348	346	343	342	342	345	345	347	350	354	359	363	365	367	368	366	364	366	368	368	367	364	361	356	351	348	346	345	344	340	337	337	337	334	333	331	330	329	328	327	327	326	324	320	317	313	311	308	305	301	297	296	296	297	298	297	294	292	291	290	287	286	285	283	283	285	286	287	287	285	284	282	279	277	276	274	272	269	267	266	264	261	257	254	250	247	243	240	237	232	227	224	221	218	215	213	211	209	210	211	213	214	216	217	218	221	225	228	231	233	235	236	237	239	240	242	244	246	247	249	251	251	252	253	253	254	256	256	257	259	261	261	261	261	260	259	259	260	260	260	260	258	257	255	254	254	253	252	251	250	249	249	248	248	247	245	243	241	238	236	234	232	230	228	227	227	227	228	230	231	230	228	227	225	223	221	220	220	219	217	214	211	209	208	207	204	201	199	197	194	191	189	187	186	183	180	179	178	177	176	174	171	167	164	162	160	158	156	155	154	152	150	147	143	140	138	137	135	133	131	125	118	112	109	108	109	112	113	111	109	106	104	101	97	94	92	90	87	84	83	80	78	76	74	71	68	64	60	58	56	54	52	50	48	47	50	51	51	51	53	56	58	58	58	59	62	64	65	68	70	72	72	71	74	77	79	80	82	86	90	91	91	93	95	96	98	99	101	102	104	104	103	103	102	103	106	107	108	108	109	112	114	115	117	119	120	122	124	125	127	128	129	130	131	132	132	132	133	133	135	139	143	144	145	145	144	143	142	140	140	141	140	138	136	135	133	132	131	131	130	129	128	127	126	124	121	119	119	119	119	119	117	115	115	116	118	120	121	122	123	123	123	122	121	118	115	114	114	114	113	112	109	108	109	110	109	108	106	106	105	104	103	101	101	101	102	103	103	102	102	103	104	105	106	107	106	104	104	105	105	104	104	105	104	103	103	103	103	102	102	102	102	101	101	102	101	101	100	100	99	98	98	98	98	97	97	97	96	96	95	95	95	95	95	94	94	92	90	89	89	88	87	86	85	86	85	83	81	80	79	78	76	74	72	70	68	66	64	61	58	57	56	55	55	54	53	53	53	54	55	55	54	52	51	52	52	51	49	48	46	43	42	44	48	50	51	52	53	53	53	52	50	48	46	44	43	43	42	41	40	39	38	38	37	35	33	33	35	38	39	39	37	35	35	34	34	34	34	32	30	27	25	22	17	13	12	11	10	8	6	4	3	3	2	1	0	0	0	0	0	0	0	0	0	0	0	0	0	0	0	0	0	0	0	0	0	0	0	0	0	0	0	0	0	0	0	0	0	0	0	0	0	0	0	0	0	0	0	0	0	0	0	0	0	0	0	0	0	0	0	0	0	0	0	0	0	0	0	0	0	0	0	0	0	0	0	0	0	0	0	0	0	0	0	0	0	0	0	0	0	0	0	0	0	0	0	0	0	0	0	0	0	0	0	0	0	0	0	0	0	0	0	0	0	0	0	0	0	0	0	0	0	0	0	0	0	0	1	3	5	5	4	4	3	2	1	1	0	0	0	0	0	0	0	0	0	0	0	1	0	0	1	1	1	1	1	1	1	1	1	2	2	2	2	3	2	2	2	3	3	3	3	4	4	4	4	4	3	2	1	1	1	2	2	3	7	11	12	12	13	14	16	19	21	23	24	26	28	30	33	36	39	41	43	46	48	51	53	55	57	60	61	64	68	71	72	73	75	80
329	329	330	332	334	336	338	339	339	339	338	336	335	334	332	330	330	330	332	334	336	337	338	340	342	343	345	347	349	352	355	357	358	360	361	362	363	363	364	365	365	366	366	367	367	366	366	365	365	364	364	364	364	364	364	365	366	365	366	367	369	370	371	372	373	374	375	377	380	382	384	387	389	390	391	391	391	390	391	392	393	395	398	400	403	405	407	409	412	414	416	418	419	421	423	425	428	430	432	433	436	437	438	440	441	443	443	444	444	443	442	442	441	442	442	443	443	443	442	440	438	435	433	430	427	423	420	416	413	409	406	402	398	394	390	386	382	378	374	371	370	370	369	367	366	365	365	365	365	364	363	361	358	355	351	347	344	343	341	340	343	346	346	347	351	356	360	363	364	364	361	359	360	362	357	354	353	352	350	347	344	341	339	338	336	334	332	329	327	326	325	325	325	324	324	324	323	321	318	314	310	307	304	300	296	293	292	291	291	292	291	289	288	288	286	284	281	279	278	279	280	281	281	280	280	279	277	275	274	274	271	268	265	264	263	261	259	256	252	248	244	241	238	235	230	226	223	220	217	214	211	208	205	206	208	210	211	213	213	215	219	222	226	229	231	233	234	234	235	236	237	239	240	241	244	246	246	247	248	248	250	251	251	252	255	257	258	258	257	256	256	257	257	258	258	257	256	254	252	251	250	250	250	249	247	247	246	245	245	244	242	240	239	236	234	232	230	228	226	225	224	225	226	227	227	227	226	225	223	221	219	218	217	216	213	210	208	206	205	204	202	199	197	195	192	189	187	186	184	180	178	176	175	175	175	172	168	164	161	159	157	155	154	153	152	150	148	145	142	140	138	137	135	133	131	127	119	113	108	107	108	111	112	111	109	106	103	100	97	95	93	90	88	85	83	81	78	76	73	70	67	63	60	58	56	55	52	49	46	47	50	52	52	52	52	55	57	57	56	58	61	62	63	66	69	70	70	70	73	77	79	80	81	84	88	89	90	92	94	96	97	98	99	101	102	102	101	100	100	101	103	105	106	106	107	110	113	114	116	118	119	121	123	124	126	127	127	128	129	129	129	130	131	132	133	136	139	139	141	143	143	140	138	137	137	139	140	138	135	133	132	130	129	128	127	127	126	125	124	122	118	116	116	116	118	120	118	115	115	115	117	118	119	120	121	122	122	122	121	118	116	114	114	113	112	111	109	107	107	108	108	106	104	104	103	102	101	100	99	100	101	101	101	101	101	101	101	102	104	104	103	102	101	102	102	101	101	101	101	100	100	100	100	99	99	99	99	99	99	99	99	99	99	98	97	96	95	95	96	95	95	95	95	94	94	95	95	94	94	94	94	92	90	89	89	89	89	88	87	87	85	84	82	81	80	79	77	75	73	71	69	67	64	60	58	57	57	56	57	57	56	56	57	57	57	58	57	54	53	54	53	51	49	49	48	48	48	48	50	51	52	54	55	55	54	54	52	50	49	47	46	46	46	44	43	42	41	40	39	36	34	34	36	38	40	39	38	37	36	36	35	34	33	32	30	27	24	22	17	13	12	11	10	9	7	5	4	3	3	1	0	0	0	0	0	0	0	0	0	0	0	0	0	0	0	0	0	0	0	0	0	0	0	0	0	0	0	0	0	0	0	0	0	0	0	0	0	0	0	0	0	0	0	0	0	0	0	0	0	0	0	0	0	0	0	0	0	0	0	0	0	0	0	0	0	0	0	0	0	0	0	0	0	0	0	0	0	0	0	0	0	0	0	0	0	0	0	0	0	0	0	0	0	0	0	0	0	0	0	0	0	0	0	0	0	0	0	0	0	0	0	0	0	0	0	0	0	0	0	0	0	0	1	3	4	4	4	3	2	1	0	0	0	0	0	0	0	0	0	0	0	0	0	0	0	0	0	0	0	0	0	0	0	0	1	1	1	1	2	2	2	1	1	1	2	2	2	2	2	3	3	2	2	1	0	0	0	1	2	3	7	12	13	13	13	15	16	19	21	23	24	26	29	31	34	37	40	42	44	46	50	53	55	57	59	61	63	65	67	70	72	74	77	81
332	333	334	336	339	341	342	343	343	341	339	337	336	335	335	334	334	334	335	337	338	338	339	340	342	344	346	348	351	353	355	357	358	360	360	361	362	363	363	364	365	366	367	368	367	367	367	366	366	366	366	365	365	364	364	364	365	365	367	368	369	371	372	373	374	375	376	378	380	382	385	387	389	391	392	393	392	392	392	393	394	396	398	401	403	405	407	410	413	414	416	418	419	421	423	426	428	430	431	433	436	438	439	440	442	444	445	445	445	445	444	444	443	443	443	445	445	445	443	441	438	435	432	430	426	423	419	416	412	408	404	400	396	393	389	385	381	377	372	369	368	368	367	365	362	361	361	362	361	360	359	358	356	353	350	347	345	344	340	336	338	342	346	347	349	353	357	359	360	360	357	354	353	353	351	349	348	349	347	343	340	337	335	334	333	331	329	327	325	322	321	321	321	321	321	320	320	318	314	310	306	302	298	295	291	289	288	285	285	286	286	286	286	286	283	279	277	274	273	275	277	277	276	275	275	274	273	272	272	271	267	264	262	261	259	257	256	254	250	245	241	238	235	233	228	223	220	217	215	211	208	204	203	203	204	207	209	210	212	215	217	220	222	226	228	231	233	233	233	232	233	234	236	237	239	242	243	244	244	244	245	247	248	249	251	254	255	254	253	253	253	254	255	256	255	255	253	252	250	249	247	247	247	246	245	244	243	242	242	241	239	238	236	234	232	230	228	226	224	223	222	222	223	224	224	224	224	222	221	219	216	214	213	211	210	208	206	204	203	201	199	197	195	192	190	188	186	185	181	177	175	174	174	173	172	169	165	161	159	157	155	153	152	152	151	149	147	144	142	141	139	136	134	133	131	128	121	114	109	107	107	110	112	111	108	105	102	99	97	95	93	91	88	85	83	81	78	75	72	69	66	62	60	57	56	54	52	48	45	45	48	50	51	52	51	53	56	56	56	57	60	61	62	65	67	68	69	71	73	76	79	79	80	82	85	87	88	91	93	95	95	96	98	100	100	99	98	97	98	100	102	103	104	105	106	108	111	114	115	117	118	120	121	123	124	124	125	126	126	127	127	127	129	130	131	132	133	133	136	139	139	136	135	134	134	136	138	136	134	132	130	128	127	126	125	125	124	123	123	120	117	115	114	114	115	117	115	112	113	113	114	116	117	118	120	120	120	120	120	119	117	115	113	111	111	109	107	106	105	107	107	105	102	101	101	101	101	99	97	98	100	100	99	99	99	99	99	99	100	101	101	100	99	99	99	99	98	98	97	97	97	97	97	97	97	96	96	96	97	97	97	97	97	96	96	95	93	93	93	93	93	93	93	93	93	94	95	94	94	94	93	92	90	89	89	91	90	89	88	87	86	85	83	82	81	80	78	76	74	72	71	68	65	61	59	59	58	58	59	60	59	59	59	59	59	59	58	55	55	57	56	53	51	50	49	50	51	51	51	51	53	56	58	58	57	56	55	53	52	50	49	49	48	46	45	44	43	42	40	37	35	35	37	39	40	39	38	38	38	37	35	34	33	31	29	27	24	21	16	13	12	11	10	10	8	5	4	3	3	1	0	0	0	0	0	0	0	0	0	0	0	0	0	0	0	0	0	0	0	0	0	0	0	0	0	0	0	0	0	0	0	0	0	0	0	0	0	0	0	0	0	0	0	0	0	0	0	0	0	0	0	0	0	0	0	0	0	0	0	0	0	0	0	0	0	0	0	0	0	0	0	0	0	0	0	0	0	0	0	0	0	0	0	0	0	0	0	0	0	0	0	0	0	0	0	0	0	0	0	0	0	0	0	0	0	0	0	0	0	0	0	0	0	0	0	0	0	0	0	0	0	0	0	2	3	3	2	1	0	0	0	0	0	0	0	0	0	0	0	0	0	0	0	0	0	0	0	0	0	0	0	0	0	0	0	0	0	0	0	1	0	0	0	0	1	1	1	1	1	2	2	2	1	0	0	0	0	0	1	3	7	12	13	14	14	16	18	20	22	23	25	28	32	33	34	37	40	43	45	47	51	54	56	59	62	64	65	66	68	71	74	76	79	82
335	336	338	340	342	344	346	346	345	344	341	339	337	337	337	337	338	339	339	340	340	339	340	341	342	344	346	349	351	353	355	356	358	359	360	360	361	362	363	364	365	366	367	367	368	368	367	367	366	366	366	366	366	366	366	366	365	366	367	368	370	371	372	373	375	376	377	379	381	383	385	388	390	392	393	394	394	393	393	394	395	396	398	401	403	405	407	410	413	414	416	417	419	421	423	426	428	429	431	434	436	439	440	441	443	445	446	447	447	447	446	445	444	444	444	446	446	445	443	440	437	433	431	428	425	422	419	415	412	408	404	400	396	393	389	385	381	377	372	368	366	365	364	362	360	358	358	358	358	357	356	355	353	350	348	346	344	342	338	335	335	337	342	344	346	350	353	354	356	356	353	350	348	347	346	346	345	344	341	338	335	333	331	330	329	328	327	325	322	319	318	318	318	317	316	316	316	314	310	305	301	298	294	290	286	284	283	280	281	284	284	284	284	282	279	275	272	270	268	271	273	273	274	274	272	269	268	268	268	266	264	261	260	258	256	255	254	253	247	242	237	234	232	229	225	221	217	215	212	209	205	202	201	201	202	204	206	208	211	214	215	217	219	221	224	228	231	230	229	229	230	232	233	234	236	238	240	240	240	240	241	243	244	246	248	250	251	250	250	250	250	251	252	252	252	252	250	249	247	246	244	243	243	242	241	240	239	239	238	238	237	236	234	231	229	228	226	224	222	221	220	220	220	221	221	221	220	219	217	216	213	211	208	207	207	205	203	201	199	198	196	194	192	189	187	186	184	182	177	173	172	171	171	171	168	165	161	159	157	155	152	151	150	150	149	147	145	143	142	140	138	136	134	133	131	128	123	115	109	106	107	109	111	110	108	105	102	99	97	95	92	90	87	85	83	81	78	75	72	68	65	61	59	57	55	53	50	47	46	45	46	48	50	51	51	52	55	56	55	55	57	58	61	63	64	65	67	70	72	74	76	77	78	80	82	84	86	88	91	93	93	94	95	96	97	96	96	97	98	100	101	101	103	104	105	107	110	113	114	115	117	118	119	120	121	122	122	123	124	124	125	125	127	128	129	130	131	132	133	134	134	133	132	131	130	131	132	132	131	130	129	127	125	125	124	123	122	121	121	119	117	114	113	112	112	112	111	109	110	111	111	113	114	116	117	118	118	118	117	117	116	114	112	111	110	108	106	104	104	105	105	103	101	100	99	100	99	97	96	96	97	97	97	97	98	98	97	96	97	98	99	98	97	97	97	97	96	95	95	95	95	95	96	96	95	94	94	94	94	95	95	95	94	94	95	94	91	91	92	92	91	91	91	91	92	93	94	94	94	94	93	93	91	91	91	92	91	90	89	89	87	86	86	84	83	81	80	78	76	73	72	70	67	64	62	62	60	60	62	62	62	62	61	60	60	60	59	57	59	60	60	58	55	52	51	51	52	53	53	53	55	57	59	59	59	59	58	56	55	53	51	50	49	48	46	45	44	43	41	38	36	36	38	39	39	39	38	38	38	37	35	34	33	30	28	27	24	20	15	13	12	10	10	10	8	6	4	3	3	2	1	0	0	0	0	0	0	0	0	0	0	0	0	0	0	0	0	0	0	0	0	0	0	0	0	0	0	0	0	0	0	0	0	0	0	0	0	0	0	0	0	0	0	0	0	0	0	0	0	0	0	0	0	0	0	0	0	0	0	0	0	0	0	0	0	0	0	0	0	0	0	0	0	0	0	0	0	0	0	0	0	0	0	0	0	0	0	0	0	0	0	0	0	0	0	0	0	0	0	0	0	0	0	0	0	0	0	0	0	0	0	0	0	0	0	0	0	0	0	0	0	0	0	1	1	1	1	0	0	0	0	0	0	0	0	0	0	0	0	0	0	0	0	0	0	0	0	0	0	0	0	0	0	0	0	0	0	0	0	0	0	0	0	0	0	0	0	0	0	1	1	1	0	0	0	0	0	0	1	3	7	12	14	15	16	17	20	22	24	26	29	32	34	34	36	38	41	44	47	49	52	55	57	61	64	66	66	67	69	73	75	78	80	82
338	340	342	344	345	347	348	348	347	345	342	340	339	339	339	340	341	342	342	341	341	340	341	342	344	345	347	349	351	352	354	355	356	357	358	360	361	362	363	364	366	366	367	367	367	367	367	366	366	367	368	368	368	368	368	368	368	368	369	370	371	371	371	373	376	378	379	380	382	384	386	389	391	393	394	395	395	395	395	395	396	397	398	401	404	406	407	410	412	414	416	417	419	421	424	426	428	429	432	435	437	440	441	443	445	447	448	449	449	449	448	447	446	445	445	446	446	445	442	438	435	432	429	427	424	421	419	416	412	408	404	401	397	393	389	385	381	378	373	368	364	362	361	359	357	355	354	355	355	355	353	351	349	347	345	344	342	340	337	335	333	333	337	342	345	348	349	350	352	352	349	346	345	343	342	342	341	340	336	333	330	328	327	326	324	323	322	321	318	316	315	315	314	313	312	312	311	309	305	301	297	294	291	287	282	282	281	278	279	281	282	282	281	280	277	274	271	269	269	270	270	270	271	271	268	265	264	264	264	263	262	260	258	255	254	253	252	249	244	238	234	231	228	225	221	217	215	212	210	207	205	202	200	200	200	201	203	205	208	211	212	213	215	217	220	223	224	224	225	227	228	230	231	232	233	234	236	237	237	237	237	239	241	243	245	246	247	247	247	247	248	249	249	249	249	248	247	246	244	242	240	239	238	238	236	236	235	235	234	234	233	233	231	229	227	225	223	221	220	218	217	217	217	218	217	217	216	215	214	212	210	207	204	203	203	202	200	198	196	195	194	192	189	187	185	184	182	179	174	171	169	168	168	167	164	160	158	157	155	152	150	149	148	148	147	145	144	142	140	139	137	135	133	132	130	128	123	115	109	106	106	108	111	110	108	106	102	99	96	94	91	89	87	84	82	79	77	75	72	68	64	61	58	55	54	52	49	47	47	46	46	48	50	50	50	51	53	54	52	52	54	56	58	60	61	62	64	67	69	71	72	74	76	78	80	81	83	85	88	90	90	90	91	93	94	94	95	97	97	98	98	98	100	103	104	106	109	111	112	113	115	115	117	117	118	119	119	120	121	122	122	123	125	126	127	128	130	130	131	132	132	131	130	129	128	128	128	129	128	127	126	125	124	123	122	121	120	120	119	118	116	114	112	111	110	110	110	109	109	109	110	111	112	113	114	115	115	115	114	114	113	112	111	110	109	108	105	103	102	102	101	100	99	98	98	98	97	95	94	95	94	93	94	95	95	96	95	94	94	95	96	96	95	95	95	95	94	94	93	93	93	94	94	94	93	92	91	91	91	92	92	92	92	92	93	92	90	89	90	90	90	90	90	90	91	92	92	92	92	93	93	93	93	93	94	94	93	92	91	91	90	89	89	87	85	83	81	80	77	74	73	71	68	66	65	64	63	63	65	65	65	64	62	60	60	61	61	61	62	62	62	60	57	55	54	53	54	56	56	56	57	58	60	60	60	60	59	58	56	54	52	51	51	50	48	47	45	43	41	39	38	38	39	39	39	38	37	37	37	36	35	32	30	28	27	26	24	20	16	14	13	10	10	10	9	6	4	3	3	2	2	1	0	0	0	0	0	0	0	0	0	0	0	0	0	0	0	0	0	0	0	0	0	0	0	0	0	0	0	0	0	0	0	0	0	0	0	0	0	0	0	0	0	0	0	0	0	0	0	0	0	0	0	0	0	0	0	0	0	0	0	0	0	0	0	0	0	0	0	0	0	0	0	0	0	0	0	0	0	0	0	0	0	0	0	0	0	0	0	0	0	0	0	0	0	0	0	0	0	0	0	0	0	0	0	0	0	0	0	0	0	0	0	0	0	0	0	0	0	0	0	0	0	0	0	0	0	0	0	0	0	0	0	0	0	0	0	0	0	0	0	0	0	0	0	0	0	0	0	0	0	0	0	0	0	0	0	0	0	0	0	0	0	0	0	0	0	0	0	0	0	0	0	0	0	0	0	0	1	4	8	12	14	16	17	19	20	22	25	28	31	33	34	35	38	41	43	46	48	50	52	55	57	60	64	66	67	67	70	73	76	79	80	81
