9	9	9	9	9	9	9	9	9	9	9	9	9	9	9	9	9	9	9	9	9	9	9	9	9	9	10	10	10	10	10	10	10	10	10	10	10	10	10	10	10	10	10	10	10	10	10	10	10	10	10	10	10	10	10	10	10	10	11	11	11	11	11	11	11	11	11	12	12	12	12	12	12	12	12	12	12	12	12	12	12	12	12	12	12	12	12	12	12	13	13	13	13	14	14	14	14	14	14	14	14	14	14	14	14	15	14	14	14	14	14	14	14	14	14	14	14	14	14	14	13	13	13	13	13	13	13	13	13	13	13	13	14	14	14	14	14	14	14	14	14	14	14	14	14	14	14	14	14	14	14	14	14	14	14	14	14	14	14	14	14	14	14	14	14	15	15	15	15	15	15	15	15	15	15	15	15	15	15	15	15	15	15	15	15	15	15	15	15	15	15	15	15	15	15	15	15	15	15	14	14	15	15	15	15	15	15	15	16	16	15	15	15	15	15	15	15	15	15	15	15	15	15	15	15	15	15	15	15	15	14	14	15	15	16	16	16	16	16	16	16	16	16	16	16	15	15	15	15	15	15	15	15	16	16	16	16	16	16	16	16	16	16	16	16	16	17	17	17	16	16	15	14	13	14	15	16	16	16	16	16	17	17	17	17	17	17	18	18	18	18	18	19	19	19	19	19	19	19	20	20	20	20	20	20	20	20	20	20	20	20	20	20	20	20	20	20	20	20	20	20	20	20	20	20	20	20	20	20	20	20	20	20	20	20	20	20	20	20	20	20	20	20	20	20	20	20	20	20	20	20	20	20	20	20	20	20	20	20	20	20	20	20	20	20	20	20	20	20	20	20	20	20	20	20	20	20	20	20	21	21	21	21	21	21	21	21	21	21	21	21	21	21	21	21	21	21	21	21	21	21	21	22	22	22	22	22	22	22	22	22	22	23	23	23	23	23	23	23	23	23	23	24	24	24	24	24	24	24	24	24	24	24	25	25	25	25	25	25	25	25	25	25	25	25	25	25	26	26	26	26	26	26	26	26	26	26	26	26	26	26	26	25	25	26	26	26	26	26	26	26	26	26	26	26	26	26	26	27	27	27	27	27	27	27	27	27	27	28	28	28	28	28	28	28	28	28	28	28	28	28	28	28	28	28	28	29	29	29	29	30	30	30	30	30	30	30	30	30	30	30	30	30	30	30	30	30	30	30	31	31	31	31	31	32	32	32	32	32	32	32	32	32	32	32	32	32	32	33	33	33	33	33	33	33	33	33	33	33	33	33	33	34	34	34	34	34	34	34	34	34	34	34	34	34	34	34	34	35	35	35	35	35	36	37	39	40	41	42	41	41	40	38	37	37	37	36	36	36	36	36	36	36	36	36	36	36	36	36	36	36	36	36	36	36	36	36	36	36	36	37	37	37	37	37	38	38	38	38	38	38	39	39	40	40	39	40	40	40	40	41	41	41	41	41	41	41	41	42	42	43	43	43	43	44	44	44	44	44	44	44	44	44	44	44	44	44	44	45	45	45	45	45	45	46	46	47	46	46	46	46	46	45	45	45	45	45	45	45	45	45	44	44	45	45	45	45	45	45	46	48	51	52	54	55	57	59	60	61	61	60	60	60	59	58	57	57	57	57	57	57	57	57	57	57	57	58	58	58	59	58	58	56	56	57	58	59	60	60	60	61	62	63	63	63	63	63	64	65	66	66	66	67	67	67	67	67	67	67	68	69	70	70	71	71	72	72	72	72	72	72	72	72	72	73	74	76	75	75	76	78	80	81	81	82	82	83	83	83	84	83	83	84	85	86	87	87	87	87	87	87	88	88	87	88	88	89	89	90	91	93	94	96	97	99	100	101	101	101	101	101	102	102	102	105	108	109	109	109	110	110	110	110	110	110	110	110	110	110	110	110	110	110	110	110	110	111	112	114	114	114	114	114	114	113	113	111	110	109	109	111	113	116	119	122	125	128	131	134	136	139	141	141	142	143	143	144	144	144	144	144	144	143	142	142	142	142	143	144	145	146	148	149	151	152	154	156	157	159
9	9	9	9	9	9	9	9	9	9	9	9	9	9	9	9	9	9	9	9	9	9	9	9	9	9	9	10	10	10	10	10	10	10	10	10	10	10	10	10	10	10	10	10	10	10	10	10	10	10	10	10	10	10	10	10	10	10	10	11	11	11	11	11	11	11	11	11	12	12	12	12	12	12	12	11	11	11	11	11	11	11	11	11	11	11	12	12	12	12	13	13	13	13	14	14	14	14	14	14	14	14	14	14	14	14	15	14	14	14	14	14	15	14	14	14	14	14	14	13	13	13	13	13	13	13	13	13	13	13	13	13	14	14	14	14	14	14	14	14	14	14	14	14	14	14	14	14	14	14	14	14	14	14	14	14	14	14	14	14	14	14	14	14	14	14	15	15	15	15	15	15	15	15	15	15	15	15	15	15	15	15	15	15	15	15	15	15	15	15	15	15	15	15	15	15	15	14	14	14	14	15	15	15	15	15	15	16	16	15	15	15	15	15	15	15	15	15	15	15	15	15	15	15	15	15	15	15	15	15	15	15	16	16	16	16	16	15	15	15	15	15	16	16	15	15	15	15	14	15	15	15	15	15	16	16	16	16	16	16	16	16	16	16	17	17	17	17	16	15	14	13	13	14	15	16	16	16	16	16	16	16	17	17	17	17	17	18	18	18	18	18	19	19	19	19	19	19	19	20	20	20	20	20	20	20	20	20	20	20	20	20	20	20	20	20	20	20	20	20	20	20	20	20	20	20	20	20	20	20	20	20	20	20	20	20	20	20	20	20	20	20	20	20	20	20	20	20	20	20	20	20	20	20	20	20	20	20	20	20	20	20	20	20	20	20	20	20	20	20	20	20	20	20	20	20	20	20	20	20	21	21	21	21	21	21	21	21	21	21	21	21	21	21	21	21	21	21	21	21	21	22	22	22	22	22	22	22	22	22	22	22	23	23	23	23	23	23	23	23	23	23	23	24	24	24	24	24	24	24	24	24	24	25	25	25	25	25	25	25	25	25	25	25	25	25	25	26	26	26	26	26	26	26	26	26	26	26	26	26	26	26	25	25	26	26	26	26	26	26	26	26	26	26	26	26	26	26	26	27	27	27	27	27	27	27	27	28	28	28	28	28	28	28	28	28	28	28	28	28	28	28	28	28	29	29	29	29	29	29	30	30	30	30	30	30	30	30	30	30	30	30	30	30	30	30	30	31	31	31	31	31	31	32	32	32	32	32	32	32	32	32	32	32	32	32	32	32	32	33	33	33	33	33	33	33	33	33	33	33	33	33	34	34	34	34	34	34	34	34	34	34	34	34	34	34	34	35	35	35	35	35	35	35	36	36	37	38	38	38	38	38	37	37	37	37	36	36	36	36	36	35	35	36	36	36	36	36	36	36	36	36	36	36	36	36	36	36	36	36	37	37	37	37	37	37	38	38	38	38	39	39	40	40	40	39	40	40	40	40	40	41	41	41	41	41	41	42	42	42	43	43	43	43	43	44	44	44	44	44	44	44	44	44	44	44	44	44	44	44	44	44	45	45	46	46	46	46	46	45	45	45	45	45	45	45	45	45	45	45	45	44	44	45	45	45	45	45	46	47	49	51	53	54	55	57	59	62	63	62	61	60	60	60	58	57	57	57	57	57	57	57	57	57	57	57	58	58	58	58	57	56	55	56	57	58	59	59	60	60	60	61	62	63	63	63	64	65	65	66	66	66	66	66	67	67	67	67	67	67	68	70	70	71	71	71	72	72	72	72	73	73	73	73	74	75	76	76	76	76	78	80	80	81	81	82	82	83	83	83	83	83	84	85	86	86	87	87	87	87	87	88	88	87	88	88	89	90	90	92	93	95	97	98	100	101	101	101	101	101	101	102	102	103	106	108	109	109	109	110	110	110	110	110	110	110	110	110	110	110	110	110	110	110	110	110	110	111	111	111	111	111	111	111	111	110	109	109	110	111	113	116	118	120	122	125	127	130	133	135	138	140	141	142	142	143	143	143	142	142	142	142	141	141	140	141	142	143	144	146	147	148	150	152	154	156	157	159	160
9	9	9	9	9	9	9	9	9	9	9	9	9	9	9	9	9	9	9	9	9	9	9	9	9	9	9	9	10	10	10	10	10	10	10	10	10	10	10	10	10	10	10	10	10	10	10	10	10	10	10	10	10	10	10	10	10	10	10	11	11	11	11	11	11	11	11	11	11	12	12	12	12	12	11	11	11	11	11	11	11	11	11	11	11	11	12	12	12	12	13	13	13	13	14	14	14	14	14	14	14	14	14	14	14	14	15	14	14	14	14	15	15	14	14	14	14	14	13	13	13	13	13	13	13	13	13	13	13	13	13	13	13	14	14	14	14	14	14	14	14	14	14	14	14	14	14	14	14	14	14	14	14	14	14	14	14	14	14	14	14	14	14	14	14	14	15	15	15	15	15	15	15	15	15	15	15	15	15	15	15	15	15	15	15	15	15	15	15	15	15	15	15	15	15	14	14	14	14	14	14	15	15	15	15	16	16	16	16	15	15	15	15	15	14	14	14	15	15	15	15	15	15	15	15	15	15	14	15	15	15	16	16	16	16	16	16	15	15	15	15	15	15	15	15	15	15	15	14	15	15	15	15	15	16	16	16	16	16	16	16	17	17	17	16	16	16	15	14	13	13	14	15	16	16	17	17	16	16	17	16	16	17	17	17	17	17	18	18	18	18	18	19	19	19	19	19	19	19	20	20	20	20	20	20	20	20	20	20	20	20	20	21	21	21	20	20	20	20	20	20	20	20	20	20	20	20	20	20	20	20	20	20	20	20	20	20	20	20	20	20	20	20	20	20	20	20	20	20	20	20	20	20	20	20	20	20	20	20	20	20	20	20	20	20	20	20	20	20	20	20	20	20	20	20	20	20	20	20	20	20	21	21	21	21	21	21	21	21	21	21	21	21	21	21	21	21	21	21	21	21	22	22	22	22	22	22	22	22	22	22	22	23	23	23	23	23	23	23	23	23	23	23	24	24	24	24	24	24	24	24	24	24	25	25	25	25	25	25	25	25	25	25	25	25	25	25	26	26	26	26	26	26	26	26	26	26	26	26	26	26	26	25	25	25	26	26	26	26	26	26	26	26	26	26	26	26	26	26	26	27	27	27	27	27	27	27	28	28	28	28	28	28	28	28	28	28	28	28	28	28	28	28	29	29	29	29	29	29	29	30	30	30	30	30	30	30	30	30	30	30	30	30	30	30	30	30	31	31	31	31	31	31	32	32	32	32	32	32	32	32	32	32	32	32	32	32	32	32	32	32	32	33	33	33	33	33	33	33	33	33	33	34	34	34	34	34	34	34	34	34	34	34	34	34	34	34	34	35	35	35	35	35	35	36	36	36	36	36	37	37	37	37	37	37	37	36	36	36	35	36	36	36	36	36	36	36	36	36	36	36	35	35	36	36	36	36	36	36	36	37	37	37	37	37	37	38	37	38	38	39	40	40	40	39	39	39	40	40	40	40	41	41	41	41	41	41	42	42	42	43	43	43	43	43	43	44	44	44	44	44	44	44	44	44	44	44	44	44	44	44	44	44	45	45	45	46	45	45	45	45	45	45	45	45	45	45	45	45	45	45	44	44	45	45	45	45	45	46	47	49	51	53	54	55	57	59	62	63	62	61	61	60	59	58	57	57	57	57	57	57	57	56	56	56	57	58	58	58	57	55	54	55	56	57	58	58	59	59	59	60	61	62	62	63	64	65	65	65	65	66	66	66	66	66	66	67	67	67	67	68	69	70	71	71	71	72	72	72	72	73	73	74	74	75	76	76	76	76	76	78	79	80	80	81	81	82	83	83	83	83	83	84	85	86	86	86	87	87	87	87	87	87	87	88	89	89	90	91	92	94	96	98	99	101	101	101	101	101	101	102	102	102	103	106	108	109	109	109	110	110	110	110	110	110	110	110	110	110	110	110	110	110	109	109	109	108	108	108	108	108	108	108	108	108	108	109	110	112	114	116	118	119	121	122	125	127	129	132	134	137	139	141	141	142	142	142	142	142	141	141	140	140	139	140	141	142	144	145	147	148	150	151	153	155	157	159	160	161
9	9	9	9	9	9	9	9	9	9	9	9	9	9	9	9	9	9	9	9	9	9	9	9	9	9	9	9	10	10	10	10	10	10	10	10	10	10	10	10	10	10	10	10	10	10	10	10	10	10	10	10	10	10	10	10	10	10	10	10	11	11	11	11	11	11	11	11	11	12	12	12	12	11	11	11	11	11	11	11	11	11	11	11	11	11	12	12	12	12	12	13	13	13	14	14	14	14	14	14	14	14	14	14	14	14	14	15	14	14	15	14	14	14	14	14	14	13	13	13	13	13	13	13	13	13	13	13	13	13	13	13	13	14	14	14	14	14	14	14	14	14	14	14	14	14	14	14	14	14	14	14	14	14	14	14	14	14	14	14	14	14	14	14	14	14	15	15	15	15	15	15	15	15	15	15	15	15	15	15	15	15	15	15	15	15	15	15	15	15	15	15	15	15	14	14	15	14	14	14	15	15	15	16	16	16	16	16	16	15	14	14	14	15	15	15	15	14	14	14	15	15	15	15	15	15	15	15	15	16	16	16	16	16	16	16	15	15	15	15	15	15	15	15	15	15	15	15	15	15	15	15	16	16	16	15	16	16	16	16	16	16	16	16	15	14	14	13	13	14	14	15	16	16	17	16	16	16	16	16	16	17	17	17	17	17	17	18	18	18	18	18	18	18	19	19	19	19	19	19	20	20	20	20	20	20	20	20	20	20	20	20	21	21	21	21	20	20	20	20	20	20	20	20	20	20	20	20	20	20	20	20	20	20	20	20	20	20	20	20	20	20	20	20	20	20	20	20	20	20	20	20	20	20	20	20	20	20	20	20	20	20	20	20	20	20	20	20	20	20	20	20	20	20	20	20	20	20	20	20	20	20	21	21	21	21	21	21	21	21	20	20	20	21	21	21	21	21	21	22	22	22	22	22	22	22	22	22	22	22	22	23	23	23	23	23	23	23	23	23	23	23	24	24	24	24	24	24	24	24	24	24	24	25	25	25	25	25	25	25	25	25	25	25	25	25	25	26	26	26	26	26	26	26	26	26	26	26	26	26	26	25	25	25	25	26	26	26	26	26	26	26	26	26	26	26	26	26	26	26	27	27	27	27	27	27	27	28	28	28	28	28	28	28	28	28	28	28	28	28	28	28	28	29	29	29	29	29	29	29	30	30	30	30	30	30	30	30	30	30	30	30	30	30	30	30	30	31	31	31	31	31	31	31	32	32	32	32	32	32	32	32	32	32	32	32	32	32	32	32	32	32	32	32	32	33	33	33	33	33	33	33	34	34	34	34	34	34	34	34	34	34	34	34	34	34	34	34	34	34	35	35	35	35	36	36	36	36	36	36	37	37	37	37	37	37	36	36	36	36	36	36	36	36	36	36	36	36	36	36	36	36	36	36	36	36	36	36	36	36	37	37	37	37	37	37	37	38	37	38	38	39	40	40	39	39	39	40	40	40	40	40	41	41	41	41	41	42	42	42	43	43	43	43	43	43	43	43	44	44	44	44	43	43	43	43	43	43	44	44	44	44	44	45	45	45	45	45	45	45	45	45	44	44	44	44	44	44	44	44	44	44	44	45	45	45	45	45	46	47	49	51	52	53	55	56	58	60	62	62	62	61	60	59	58	57	57	57	57	57	57	56	56	56	56	56	57	57	56	55	54	54	55	56	57	57	58	58	59	59	60	60	61	62	63	64	65	65	65	65	66	66	66	66	66	66	66	66	67	67	68	69	70	70	71	71	71	72	72	72	73	73	74	74	75	76	76	76	76	76	77	79	80	80	80	81	82	83	83	83	83	84	84	85	86	86	86	86	86	87	87	87	87	87	88	89	89	90	91	93	95	97	99	100	101	101	101	101	101	102	102	102	103	105	107	108	108	109	109	110	110	110	110	110	110	110	110	110	110	110	109	109	108	107	107	106	106	105	105	105	105	105	106	106	107	108	110	112	114	116	117	119	120	121	122	125	127	128	131	133	135	137	139	140	141	141	141	141	141	140	140	139	139	139	140	142	143	145	146	148	149	151	153	155	157	159	160	161	163
8	8	8	9	9	9	9	9	9	9	9	9	9	9	9	9	9	9	9	9	9	9	9	9	9	9	9	9	9	10	10	10	10	10	10	10	10	10	10	10	10	10	10	10	10	10	10	10	10	10	10	10	10	10	10	10	10	10	10	10	10	11	11	11	10	11	11	11	11	11	12	12	11	11	11	11	11	11	11	11	11	11	11	11	11	12	12	12	12	12	12	13	13	13	13	14	14	14	14	14	14	14	14	14	14	14	14	15	14	15	14	14	14	14	14	14	14	13	13	13	13	13	13	13	13	13	13	13	13	13	13	13	13	14	14	14	14	14	14	14	14	14	14	14	14	14	14	14	14	14	14	14	14	14	14	14	14	14	14	14	14	14	14	14	14	15	15	15	15	15	15	15	15	15	15	15	15	15	15	15	15	15	15	15	15	15	16	16	15	15	15	15	15	15	15	14	14	14	15	15	15	16	16	16	16	16	16	16	16	15	14	14	14	14	14	14	14	14	14	14	15	15	15	15	15	15	15	15	15	16	15	15	15	15	15	15	15	15	15	15	15	15	15	15	15	15	15	15	15	16	16	16	15	15	15	15	15	15	15	15	15	15	14	13	13	13	13	13	14	15	16	16	15	15	15	15	15	15	15	15	15	16	17	17	17	17	17	18	18	18	18	18	18	18	19	19	19	19	19	19	19	20	20	20	20	20	20	20	20	20	20	20	21	21	21	21	20	20	20	20	20	20	20	20	20	20	20	20	20	20	20	20	20	21	21	21	21	21	21	21	20	20	20	20	20	20	20	20	20	20	20	20	20	20	20	20	20	20	20	20	20	20	20	20	20	20	20	20	20	20	20	20	20	20	20	20	20	20	20	20	20	20	20	20	21	21	21	21	21	20	20	20	21	21	21	21	21	21	21	22	22	22	22	22	22	22	22	22	22	22	22	23	23	23	23	23	23	23	23	23	24	24	24	24	24	24	24	24	24	24	24	24	24	24	25	25	25	25	25	25	25	25	25	25	25	25	25	26	26	26	26	26	26	26	26	26	26	26	26	26	26	25	25	25	25	26	26	26	26	26	26	26	26	26	26	26	26	26	26	26	26	27	27	27	27	27	27	28	28	28	28	28	28	28	28	28	28	28	28	28	28	28	28	29	29	29	29	29	29	29	29	30	30	30	30	30	30	30	30	30	30	30	30	30	30	30	30	31	31	31	31	31	31	31	32	32	32	32	32	32	32	32	32	32	32	32	32	32	32	32	32	32	32	32	32	32	33	33	33	33	33	33	34	34	34	34	33	33	34	34	34	34	34	34	34	34	34	34	34	34	34	35	35	35	35	36	36	36	36	36	36	36	36	36	36	36	36	36	36	36	36	36	36	36	36	36	36	36	36	36	36	36	36	36	36	36	36	36	37	37	37	37	37	37	37	37	37	38	37	37	38	39	40	40	40	39	39	40	40	40	40	40	41	41	41	41	41	42	42	43	43	43	43	43	43	43	43	43	43	43	43	43	43	43	43	43	43	43	44	44	43	44	44	44	44	44	44	44	44	44	44	44	44	44	44	44	44	44	44	44	44	44	44	45	45	45	45	45	46	47	49	51	52	53	55	56	58	59	61	62	62	62	61	59	58	57	57	57	57	57	56	56	56	56	56	56	56	56	55	54	54	55	56	56	56	57	57	58	58	59	59	60	61	62	64	64	65	65	65	65	65	66	66	66	66	66	66	66	67	67	68	68	69	70	71	71	71	72	72	72	73	73	74	74	75	76	76	76	76	76	77	78	79	80	80	81	82	82	83	83	83	84	84	85	85	85	85	86	86	86	86	86	86	87	88	88	89	90	92	94	96	98	100	101	101	101	101	102	102	102	102	102	104	106	107	108	108	109	110	110	110	110	110	110	110	110	110	110	109	109	108	107	106	105	104	103	103	102	102	102	103	104	105	107	109	110	112	114	116	117	118	119	119	120	122	124	126	127	129	132	134	136	137	139	140	140	140	140	140	139	139	138	138	139	141	142	144	146	147	149	150	153	155	157	158	160	161	163	164
8	8	8	8	9	9	9	9	9	9	9	9	9	9	9	9	9	9	9	9	9	9	9	9	9	9	9	9	9	10	10	10	10	10	10	10	10	10	10	10	10	10	10	10	10	10	10	10	10	10	10	10	10	10	10	10	10	10	10	10	10	10	11	11	11	10	11	11	11	11	11	11	11	11	11	11	11	11	11	11	11	11	11	11	11	12	12	12	12	12	12	13	13	13	13	14	14	14	14	14	14	14	14	14	14	14	14	15	15	14	14	14	14	14	14	14	14	13	13	13	13	13	13	13	13	13	13	13	13	13	13	13	13	14	14	14	14	14	14	14	14	14	14	14	14	14	14	14	14	14	14	14	14	14	14	14	14	14	14	14	14	14	14	15	14	15	15	15	15	15	15	15	15	15	15	15	15	15	15	15	15	15	15	15	15	15	16	16	15	15	15	15	15	15	15	14	14	14	15	15	16	16	16	16	16	15	16	16	16	15	14	13	14	14	14	14	14	14	14	14	15	15	15	15	15	15	15	15	15	15	15	15	15	15	15	15	15	15	15	15	15	15	15	15	15	15	16	16	16	15	15	15	14	14	14	14	14	14	14	14	13	13	12	13	13	14	14	15	16	16	16	15	15	14	14	14	15	15	15	15	15	15	17	17	17	17	17	18	18	18	18	18	18	18	18	19	19	19	19	19	19	19	19	20	20	20	20	20	20	20	20	20	20	20	20	20	20	20	20	20	20	20	20	20	20	20	20	20	20	20	21	21	21	21	21	21	21	21	21	21	21	21	21	21	20	20	20	20	20	20	20	20	20	20	20	20	20	20	20	20	20	20	20	20	20	20	20	20	20	20	20	20	20	20	20	20	20	20	20	20	20	20	20	20	20	21	21	20	20	20	21	21	21	21	21	21	21	21	22	22	22	22	22	22	22	22	22	22	22	22	23	23	23	23	23	23	23	23	24	24	24	24	24	24	24	24	24	24	24	24	24	24	24	24	25	25	25	25	25	25	25	25	25	25	25	25	25	26	26	26	26	26	26	26	26	26	26	26	26	26	26	25	25	25	25	25	26	26	26	26	26	26	26	26	26	26	26	26	26	26	26	26	27	27	27	27	27	28	28	28	28	28	28	28	28	28	28	28	28	28	28	28	29	29	29	29	29	29	29	29	29	30	30	30	30	30	30	30	30	30	30	30	30	30	30	30	30	31	31	31	31	31	31	31	31	32	32	32	32	32	32	32	32	32	32	32	32	32	32	32	32	32	32	32	32	32	32	33	33	33	33	33	34	34	33	33	33	33	33	34	34	34	34	34	34	34	34	34	34	34	34	34	35	35	35	35	36	36	36	36	36	36	36	36	36	36	36	36	36	36	36	36	36	36	36	36	36	36	36	36	36	36	36	36	36	36	36	37	37	37	37	37	37	37	37	37	37	38	38	37	38	38	39	40	40	40	39	40	40	40	40	40	40	40	40	40	41	41	42	42	43	43	43	43	43	43	43	43	43	43	43	43	43	43	43	43	44	44	44	44	43	43	44	44	44	44	44	44	44	44	44	44	44	44	44	44	44	44	44	44	44	44	43	44	45	45	45	45	45	46	48	50	52	53	54	55	57	59	60	61	61	61	61	60	59	59	58	58	57	57	56	56	56	56	56	56	55	54	54	54	55	55	55	56	56	56	57	58	58	58	59	60	61	62	64	64	64	64	65	65	65	65	66	66	66	66	66	66	67	67	68	69	69	70	70	71	71	71	72	72	73	73	74	74	75	76	76	76	77	77	77	77	78	79	80	81	82	82	83	83	83	84	84	85	85	85	85	85	85	85	86	86	86	87	87	88	89	91	93	95	98	99	100	101	101	101	102	102	102	102	102	104	105	106	107	108	109	110	110	110	110	110	110	110	110	110	109	108	107	106	105	104	103	102	101	100	100	99	100	101	103	105	107	109	111	112	114	115	117	117	118	119	119	120	121	123	124	126	128	130	132	134	136	137	138	138	138	139	138	138	137	137	137	140	142	143	145	147	148	150	152	154	156	158	160	161	163	164	166
8	8	8	8	9	9	9	9	9	9	9	9	9	9	9	9	9	9	9	9	9	9	9	9	9	9	9	9	10	10	10	10	10	10	10	10	10	10	10	10	10	10	10	10	10	10	10	10	10	10	10	10	10	10	10	10	10	10	10	10	10	10	10	10	10	11	11	11	11	11	11	11	11	11	11	11	11	11	11	11	11	11	11	11	12	12	12	12	12	12	12	13	13	13	14	14	14	14	14	14	14	14	14	14	14	14	14	15	14	14	14	14	14	13	13	13	13	13	13	13	13	13	13	13	13	13	13	13	13	13	13	13	13	14	14	14	14	14	14	14	14	14	14	14	14	14	14	14	14	14	14	14	14	14	14	14	14	14	14	14	14	15	15	15	14	15	15	15	15	15	15	15	15	15	15	15	15	15	15	15	15	15	15	15	15	15	16	16	15	15	15	15	15	15	15	14	14	14	14	15	16	16	15	15	15	15	15	16	15	14	13	13	13	14	14	14	14	14	14	15	15	15	15	15	15	15	15	15	15	15	15	15	15	15	15	15	15	15	15	15	15	15	15	15	15	15	15	15	14	14	13	13	12	12	13	13	13	12	12	12	12	13	13	14	15	15	16	16	16	17	16	16	15	15	15	15	16	16	16	16	15	15	16	17	17	17	17	18	18	18	18	18	18	18	18	18	19	19	19	19	19	19	19	19	20	20	20	20	20	20	20	20	20	20	20	20	20	20	20	20	20	20	20	20	20	20	20	20	20	20	21	21	21	21	21	21	21	21	21	21	21	21	21	21	21	21	20	20	20	20	20	20	20	20	21	21	21	21	21	20	21	21	21	21	21	20	20	20	20	20	20	20	20	20	20	20	20	20	20	20	20	20	20	20	20	20	20	20	20	21	21	21	21	21	21	21	21	22	22	22	22	22	22	22	22	22	22	22	22	23	23	23	23	23	23	23	23	24	24	24	24	24	24	24	24	24	24	24	24	24	24	24	24	24	25	25	25	25	25	25	25	25	25	25	25	25	25	26	26	26	26	26	26	26	26	26	26	26	26	26	26	25	25	25	25	25	26	26	26	26	26	26	26	26	26	26	26	26	26	26	26	26	27	27	27	27	27	28	28	28	28	28	28	28	28	28	28	28	28	28	28	29	29	29	29	29	29	29	29	29	29	29	30	30	30	30	30	30	30	30	30	30	30	30	30	30	30	31	31	31	31	31	31	31	31	32	32	32	32	32	32	32	32	32	32	32	32	32	32	32	32	32	32	32	32	32	32	33	33	33	33	33	34	33	33	33	33	33	33	34	34	34	34	34	34	34	34	34	34	34	34	34	35	35	35	35	35	35	36	36	36	36	36	36	36	36	36	36	36	36	36	36	36	36	36	36	36	36	36	36	36	36	36	36	36	36	36	37	37	37	37	37	37	37	37	37	37	38	38	37	37	38	38	39	39	39	40	40	40	40	39	39	40	40	40	40	40	40	41	41	42	42	42	42	42	43	43	43	43	43	43	43	43	43	43	43	44	44	44	44	43	43	43	43	44	43	43	43	44	44	44	44	44	44	44	44	44	44	44	44	44	44	43	44	45	45	45	45	45	46	47	49	52	53	54	55	57	58	59	60	60	60	60	60	59	59	58	58	57	57	56	56	56	56	56	55	54	54	54	55	55	55	55	55	56	56	57	57	58	58	59	60	61	63	64	65	64	65	65	65	65	65	66	66	66	66	66	66	67	67	68	69	69	70	70	70	71	71	72	72	73	73	74	74	75	77	77	77	77	77	77	77	78	79	80	81	82	82	82	83	83	84	84	84	84	84	84	84	85	85	85	85	86	86	87	88	89	91	94	96	98	100	101	101	101	101	102	102	102	103	104	105	106	106	106	107	109	110	110	110	110	110	110	109	109	108	107	106	105	103	102	101	99	98	97	97	98	99	101	103	105	107	109	110	112	113	114	115	116	117	118	119	119	120	120	122	123	125	127	129	131	132	134	135	136	136	137	137	137	137	136	136	138	141	143	144	146	148	149	151	153	155	158	160	161	163	164	165	167
8	8	8	8	9	9	9	9	9	9	9	9	9	9	9	9	9	9	9	9	9	9	9	9	9	9	10	10	10	10	10	10	10	10	10	10	10	10	10	10	10	10	10	10	10	10	10	10	10	10	10	10	10	10	10	10	10	10	10	10	10	10	10	10	10	11	11	11	11	11	11	11	11	11	11	11	11	11	11	11	11	11	11	12	12	12	12	12	12	12	13	13	13	13	14	14	14	14	14	14	14	14	14	14	14	15	15	14	14	14	14	14	13	13	13	13	13	13	13	13	13	13	13	13	13	13	13	13	13	13	13	13	13	13	14	14	14	14	14	14	14	14	14	14	14	14	14	14	14	14	14	14	14	14	14	14	14	14	14	14	14	15	14	14	14	14	15	15	15	15	15	15	15	15	15	15	15	15	15	15	15	15	15	15	15	15	15	15	15	15	15	15	15	15	15	15	14	14	14	15	15	15	15	15	15	15	15	15	14	13	13	13	14	14	14	15	15	15	15	15	15	15	15	15	15	14	14	14	14	14	14	14	14	14	14	14	14	14	14	14	14	13	13	13	13	13	13	12	12	12	11	11	12	12	12	12	12	12	13	13	14	15	15	16	16	16	16	17	16	16	16	16	16	16	16	16	17	17	17	17	16	15	16	17	17	17	17	18	18	18	18	18	18	18	18	18	18	19	19	19	19	19	19	19	19	20	20	20	20	20	20	20	20	20	20	20	20	20	20	20	20	20	20	20	20	20	20	20	20	20	21	21	21	21	21	21	21	21	21	21	21	21	21	21	21	21	21	21	20	20	20	20	20	21	21	21	21	21	21	21	21	21	21	21	21	21	21	20	20	20	20	20	20	20	20	20	20	20	20	20	20	20	20	20	20	20	20	20	21	21	21	21	21	21	21	21	22	22	22	22	22	22	22	22	22	22	22	22	22	23	23	23	23	23	23	23	23	24	24	24	24	24	24	24	24	24	24	24	24	24	24	25	25	25	25	25	25	25	25	25	25	25	25	25	25	25	25	26	26	26	26	26	26	26	26	26	26	26	26	25	25	25	25	25	25	26	26	26	26	26	26	26	26	26	26	26	26	26	26	26	26	26	27	27	27	27	27	28	28	28	28	28	28	28	28	28	28	28	28	28	28	29	29	29	29	29	29	29	29	29	29	29	29	30	30	30	30	30	30	30	30	30	30	30	30	30	30	31	31	31	31	31	31	31	31	32	32	32	32	32	32	32	32	32	32	32	32	32	32	32	32	32	32	32	32	32	32	33	33	33	33	33	34	33	33	33	33	33	34	34	34	34	34	34	34	34	34	34	34	34	34	34	34	35	35	35	35	36	36	36	36	36	36	36	36	35	36	36	36	36	36	36	36	36	36	36	36	36	36	36	35	36	36	36	36	36	36	37	37	37	37	37	37	37	37	37	37	38	38	38	37	37	38	38	38	39	39	39	39	38	38	39	39	39	39	39	39	39	39	40	40	40	41	41	41	42	42	42	42	42	42	42	42	42	42	42	43	43	43	43	43	43	43	43	43	43	43	43	43	43	43	43	44	44	44	44	44	44	44	44	44	43	43	44	45	46	45	45	45	45	46	48	50	52	53	55	56	57	58	59	58	58	57	57	57	57	56	56	56	56	56	56	56	55	54	54	54	54	55	55	55	55	55	55	56	56	57	57	58	58	59	60	61	63	64	65	64	65	65	65	65	65	66	66	66	66	66	67	67	67	68	69	69	70	70	70	71	71	72	72	73	73	74	74	76	77	77	77	77	77	77	77	77	78	79	81	82	82	82	83	83	83	84	84	84	84	84	84	84	84	84	85	85	86	87	87	89	92	94	97	99	100	101	101	101	102	102	102	103	104	105	105	105	105	104	106	108	110	110	110	109	109	108	108	107	106	104	103	102	100	99	97	96	95	96	97	99	101	103	105	107	108	110	111	112	113	114	115	116	117	118	118	119	119	119	120	121	123	125	127	129	131	132	133	134	134	135	135	135	135	135	137	140	142	144	145	147	149	151	153	155	157	159	161	162	164	165	166	168
8	8	8	8	9	9	9	9	9	9	9	9	9	9	9	9	9	9	9	9	9	9	9	9	9	10	10	10	10	10	10	10	10	10	10	10	10	10	10	10	10	10	10	10	10	10	10	10	10	10	9	9	10	10	10	10	10	10	10	10	10	10	10	10	10	11	11	11	11	11	11	11	11	11	11	11	11	11	11	11	11	11	12	12	12	12	12	12	12	12	13	13	13	13	14	14	14	14	14	14	13	13	13	14	14	14	15	14	14	14	13	13	13	13	13	13	13	13	13	13	13	13	13	13	13	13	13	13	13	13	13	13	13	13	14	14	14	14	14	14	14	14	14	14	14	14	14	14	14	14	14	14	14	14	14	14	14	14	14	14	14	15	14	14	14	14	15	15	15	15	15	15	15	15	15	15	15	15	15	15	15	15	15	15	15	15	15	15	15	15	15	15	15	15	14	15	14	14	14	14	14	15	15	15	14	14	13	13	13	13	14	14	15	15	15	16	15	15	15	14	14	13	13	13	13	12	12	12	12	12	12	12	12	12	12	12	12	12	12	12	12	12	12	12	12	12	12	12	12	12	12	12	12	13	13	13	13	14	15	15	16	16	16	16	16	16	16	16	16	16	16	16	17	17	16	16	16	16	16	17	16	15	16	17	17	17	18	18	18	18	18	18	18	18	18	18	18	18	18	19	19	19	19	19	19	19	19	19	19	20	20	20	20	20	20	20	20	20	20	20	20	20	20	20	20	20	20	20	20	20	21	21	21	21	21	21	21	21	21	21	21	21	21	21	22	22	21	21	21	21	20	20	21	21	22	21	21	21	21	21	21	21	21	21	21	21	21	21	20	20	20	20	20	20	20	20	20	20	20	20	20	20	20	20	20	20	20	20	21	21	21	21	21	21	21	22	22	22	22	22	22	22	22	22	22	22	22	22	22	23	23	23	23	23	23	23	23	24	24	24	24	24	24	24	24	24	24	24	24	24	25	25	25	25	25	25	25	25	25	25	25	25	25	25	25	25	25	26	26	26	26	26	26	26	26	26	26	26	25	25	25	25	25	26	26	26	26	26	26	26	26	26	26	26	26	26	26	26	26	26	26	26	27	27	27	27	27	28	28	28	28	28	28	28	28	28	28	28	28	28	28	29	29	29	29	29	29	29	29	29	29	29	29	30	30	30	30	30	30	30	30	30	30	30	30	30	30	30	31	31	31	31	31	31	31	32	32	32	32	32	32	32	32	32	32	32	32	32	32	32	32	32	32	32	32	32	32	33	33	33	33	33	34	33	33	33	33	33	34	34	34	34	34	34	34	34	34	34	34	34	34	34	34	35	35	35	35	36	36	36	36	36	36	36	36	36	36	36	36	36	36	36	36	36	36	36	36	36	35	35	36	36	36	36	36	36	37	37	37	37	37	37	37	37	37	37	38	38	38	38	38	37	37	37	38	38	38	38	38	38	38	38	39	39	39	38	38	38	39	39	39	39	40	40	41	41	41	41	41	41	41	41	41	41	41	41	42	42	42	43	43	43	43	43	43	43	43	43	43	43	43	43	43	43	43	44	44	44	44	44	44	44	43	44	45	45	44	44	44	44	44	46	49	51	53	54	55	56	57	57	57	56	55	55	55	55	55	55	55	55	55	55	55	54	53	53	54	55	55	55	55	55	55	55	56	56	57	57	58	58	58	60	61	63	64	65	64	65	65	65	65	66	66	66	66	66	66	67	67	67	68	69	69	70	70	71	71	71	72	73	73	73	74	74	75	76	76	77	77	77	77	77	77	78	79	81	81	82	82	82	82	83	83	83	83	83	83	83	83	83	83	84	84	85	85	87	90	93	95	98	100	101	101	101	102	102	102	102	103	104	105	105	105	104	103	104	107	109	109	108	108	107	106	105	104	103	102	100	99	97	95	94	94	95	98	100	102	104	106	107	108	109	110	111	111	112	113	114	115	116	117	117	118	118	119	119	120	121	123	125	127	129	130	131	132	133	133	134	134	134	135	138	141	143	145	147	148	150	152	154	156	158	160	161	163	164	166	167	168
8	8	8	8	8	9	9	9	9	9	9	9	9	9	9	9	9	9	9	9	9	9	9	9	10	10	10	10	10	10	10	10	10	10	10	10	10	10	10	10	9	9	9	9	9	10	10	9	9	9	9	9	9	9	10	10	10	10	10	10	10	10	10	10	10	10	11	11	11	11	11	11	11	11	11	11	11	11	11	11	11	11	12	12	12	12	12	12	12	13	13	13	13	13	13	13	13	13	13	13	13	13	13	13	14	14	14	14	14	13	13	13	13	13	13	13	13	13	13	13	13	13	13	13	13	13	13	13	13	13	13	13	13	13	14	14	14	14	14	14	14	14	14	14	14	14	14	14	14	14	14	14	14	14	14	14	14	14	14	14	15	15	14	14	14	14	15	15	15	15	15	15	15	15	15	15	15	15	15	15	15	15	15	15	15	15	15	15	15	15	15	15	15	14	14	15	15	14	14	14	14	14	14	14	13	13	13	14	14	15	15	15	15	15	15	14	14	13	13	12	12	12	12	13	12	12	11	11	11	11	12	12	12	12	12	12	12	13	13	13	13	13	13	13	13	13	13	13	13	13	14	14	14	15	15	15	15	15	16	16	16	16	16	16	16	16	16	16	16	16	16	16	16	16	16	16	16	17	17	17	16	16	16	17	17	17	18	18	18	18	18	18	18	18	18	18	18	18	18	18	19	19	19	19	19	19	19	19	19	19	19	19	19	19	20	20	20	19	19	19	20	20	20	20	20	20	20	20	20	20	20	21	21	21	21	21	21	21	21	21	21	21	21	22	22	22	22	22	22	21	21	21	21	22	22	22	22	22	22	22	21	21	21	21	21	21	21	21	21	21	20	20	20	20	20	20	20	20	20	20	20	20	20	20	20	20	20	21	21	21	21	21	21	21	22	22	22	22	22	22	22	22	22	22	22	22	22	22	23	23	23	23	23	23	23	23	24	24	24	24	24	24	24	24	24	24	24	24	24	24	25	25	25	25	25	25	25	25	25	25	25	25	25	25	25	25	25	25	26	26	26	26	26	26	26	26	26	26	25	25	25	25	25	26	26	26	26	26	26	26	26	26	26	26	26	26	26	26	26	26	26	26	27	27	27	27	27	28	28	28	28	28	28	28	28	28	28	28	28	28	28	29	29	29	29	29	29	29	29	29	29	29	29	30	30	30	30	30	30	30	30	30	30	30	30	30	30	30	31	31	31	31	31	31	31	32	32	32	32	32	32	32	32	32	32	32	32	32	32	32	32	32	32	32	32	32	32	33	33	33	33	33	34	33	33	33	33	34	34	34	34	34	34	34	34	34	34	34	34	34	34	34	34	35	35	35	35	35	36	36	36	36	36	36	35	36	36	36	36	36	36	36	36	36	36	36	36	36	36	36	36	36	36	36	36	36	37	37	37	37	37	37	37	37	37	38	38	37	38	38	38	38	38	38	37	38	38	38	38	38	38	38	38	38	38	38	38	38	39	39	39	39	39	40	40	41	41	41	41	41	41	41	42	42	42	42	42	42	42	42	43	43	43	43	43	43	43	43	43	43	43	43	43	43	43	43	43	44	44	44	44	44	43	43	43	43	43	43	43	43	44	45	47	50	52	53	54	56	56	56	56	55	55	55	55	55	55	55	55	54	54	54	53	53	53	54	54	55	55	55	55	55	56	56	56	56	57	57	58	58	59	60	62	63	64	64	64	64	65	65	65	65	66	66	66	67	67	67	67	68	68	69	69	70	70	71	71	71	72	73	73	74	74	74	74	75	75	76	77	78	77	77	77	78	79	80	81	81	81	82	82	82	82	83	83	83	83	83	82	82	83	83	84	84	85	87	90	93	96	99	100	101	101	101	102	102	102	103	104	104	104	104	104	103	102	102	105	107	107	106	105	105	104	103	102	100	99	97	95	94	93	93	96	98	101	103	105	106	107	108	109	110	111	111	111	112	113	114	115	116	116	116	117	117	117	118	119	120	121	123	126	127	129	129	130	131	131	132	133	134	136	139	142	144	145	147	149	151	153	155	157	159	160	162	163	165	167	167	168
8	8	8	8	8	9	9	9	9	9	9	9	9	9	9	9	9	9	9	9	9	9	9	10	10	10	10	10	10	10	10	10	10	10	10	10	10	10	10	10	9	9	9	9	9	9	9	9	9	9	9	9	9	9	9	9	9	10	10	10	10	10	10	10	10	10	11	11	11	11	11	11	11	11	11	11	11	11	11	11	11	12	12	12	12	12	12	12	13	13	12	13	13	13	13	13	13	13	13	13	13	13	13	13	13	14	14	14	14	13	13	13	13	13	13	13	13	13	13	13	13	13	13	13	13	13	13	13	13	13	13	13	13	13	13	14	14	14	14	14	14	14	14	14	14	14	14	14	14	14	14	14	14	14	14	14	14	14	14	14	15	14	14	14	14	14	15	15	15	15	15	15	15	15	15	15	15	15	15	15	15	15	15	15	15	15	15	15	15	15	15	14	14	14	14	14	15	14	14	14	14	14	13	13	13	14	15	15	15	15	15	14	14	13	12	12	12	12	12	12	13	13	13	14	13	13	13	13	13	13	14	14	14	14	14	14	14	15	15	15	15	15	15	15	15	15	15	15	15	15	15	15	15	15	15	15	15	15	16	16	16	16	16	16	16	16	16	16	16	16	16	16	16	16	16	16	17	17	17	17	16	16	16	17	17	17	17	18	18	18	18	18	18	18	18	18	18	18	18	18	18	19	19	19	19	19	19	19	19	19	19	19	19	19	19	19	19	19	19	19	19	20	20	20	20	20	20	20	20	20	20	21	21	21	21	21	21	21	21	21	21	21	21	22	22	22	22	22	22	22	22	22	22	22	22	22	22	22	22	22	22	22	22	22	22	21	21	21	21	21	21	21	20	20	20	20	20	20	20	20	20	20	20	20	20	20	21	21	21	21	21	21	22	22	22	22	22	22	22	22	22	22	22	22	22	22	22	22	23	23	23	23	23	23	23	23	24	24	24	24	24	24	24	24	24	24	24	24	24	24	25	25	25	25	25	25	25	25	25	25	25	25	25	25	25	25	25	25	26	26	26	26	26	26	26	26	26	25	25	25	25	25	25	26	26	26	26	26	26	26	26	26	26	26	26	26	26	26	26	26	26	27	27	27	27	27	27	27	28	28	28	28	28	28	28	28	28	28	28	28	28	29	29	29	29	29	29	29	29	29	29	29	29	30	30	30	30	30	30	30	30	30	30	30	30	30	30	30	30	30	31	31	31	31	31	32	32	32	32	32	32	32	32	32	32	32	32	32	32	32	32	32	32	32	32	32	33	33	33	33	33	33	34	34	34	34	34	34	34	34	34	34	34	34	34	34	34	34	34	34	34	34	34	35	35	35	35	35	36	36	36	36	36	36	36	36	36	36	36	36	35	35	36	35	35	35	35	36	36	36	36	36	36	36	36	37	37	37	37	37	37	37	37	37	37	38	37	37	38	38	38	38	38	38	38	37	38	38	38	38	38	38	38	38	38	38	38	38	38	39	39	39	39	40	40	41	41	41	41	41	41	41	42	42	42	42	42	42	42	42	42	43	43	43	43	43	43	43	43	43	43	43	43	43	43	43	43	43	43	44	44	44	43	42	42	42	43	43	43	43	44	44	46	48	51	52	54	55	55	55	55	55	55	55	55	54	54	54	54	54	54	53	53	52	53	54	55	55	55	55	55	56	56	56	56	57	57	57	58	59	60	61	61	62	63	64	64	64	65	65	65	65	65	66	66	67	67	67	67	68	68	69	69	70	70	71	71	72	73	73	74	74	74	74	74	74	74	75	77	78	78	78	78	78	79	80	80	81	81	81	82	82	82	82	82	82	82	82	82	82	82	83	83	84	85	88	91	94	97	100	101	101	101	102	102	102	102	103	104	104	104	103	103	102	102	102	102	104	104	104	103	103	102	101	99	97	95	94	92	92	94	96	98	101	103	105	107	107	108	108	109	110	110	111	111	112	113	114	115	115	116	116	117	117	117	118	119	119	121	122	124	126	127	128	129	130	130	131	132	135	137	140	142	144	146	148	150	152	154	156	158	160	161	161	163	164	166	168	168
8	8	8	8	8	8	9	9	9	9	9	9	9	9	9	9	9	9	9	9	9	9	9	10	10	10	10	10	10	10	10	10	10	10	10	10	10	10	10	9	9	9	9	9	9	9	9	9	9	9	9	9	9	9	9	9	9	9	9	10	10	10	10	10	10	10	11	11	11	11	11	11	11	11	11	11	11	11	11	11	11	12	12	12	12	12	12	13	13	13	12	13	13	13	13	13	13	13	13	13	13	13	13	13	13	13	13	13	13	13	13	13	13	13	13	13	13	13	13	13	13	13	13	13	13	13	13	13	13	13	13	13	13	13	13	13	13	13	13	14	14	14	14	14	14	14	14	14	14	14	14	14	14	14	14	14	14	14	14	14	15	14	14	14	14	14	14	15	15	15	15	15	15	15	15	15	15	15	15	15	15	15	15	15	15	15	15	15	15	14	14	14	15	15	15	15	15	14	14	14	14	14	14	14	15	15	15	15	14	14	13	12	12	11	11	11	12	13	14	14	14	15	15	15	15	15	15	15	15	15	15	15	16	16	16	16	16	16	16	16	16	16	15	15	15	15	15	15	15	15	15	15	15	15	15	15	15	15	16	16	16	16	16	16	16	16	16	16	16	16	16	16	16	16	16	16	17	17	17	17	16	15	16	17	17	17	17	18	18	18	18	18	18	18	18	18	18	18	18	18	18	18	18	19	19	19	19	19	19	19	19	19	19	19	19	19	19	19	19	19	19	20	20	20	20	20	20	20	20	20	20	20	20	21	21	21	21	21	21	21	21	21	21	21	21	22	22	22	22	22	22	22	22	22	22	22	22	22	22	22	22	22	22	22	22	22	22	21	21	21	21	21	21	20	20	20	20	20	20	20	20	20	20	20	20	20	21	21	21	21	21	21	22	22	22	22	22	22	22	22	22	22	22	22	22	22	22	22	23	23	23	23	23	23	23	23	24	24	24	24	24	24	24	24	24	24	24	24	24	24	25	25	25	25	25	25	25	25	25	25	25	25	25	25	25	25	25	25	26	26	26	26	26	26	26	25	25	25	25	25	25	25	25	26	26	26	26	26	26	26	26	26	26	26	26	26	26	26	26	26	26	27	27	27	27	27	27	27	28	28	28	28	28	28	28	28	28	28	28	28	28	28	29	29	29	29	29	29	29	29	29	29	30	30	30	30	30	30	30	30	30	30	30	30	30	30	30	30	30	30	30	31	31	31	31	31	32	31	31	31	32	32	32	32	32	32	32	32	32	32	32	32	32	32	32	32	33	33	33	33	33	33	34	34	34	34	34	34	34	34	34	34	34	34	34	34	34	34	34	34	34	34	34	35	35	35	35	35	36	36	36	36	36	35	35	35	35	35	35	35	35	35	35	35	35	35	35	36	36	36	36	36	36	36	36	36	37	37	37	37	37	37	37	37	37	38	38	38	37	38	38	38	38	38	38	38	37	38	38	38	38	38	38	38	38	38	38	38	38	39	39	39	39	40	40	40	41	41	41	41	41	41	41	42	42	42	42	42	42	42	42	42	42	42	42	43	43	43	43	43	43	43	43	43	43	43	43	43	43	43	44	44	43	42	42	43	43	43	43	44	44	44	45	47	49	51	53	54	55	55	55	55	55	55	54	54	54	54	54	53	53	53	52	53	54	54	55	55	55	55	55	56	56	56	57	57	57	58	58	59	60	61	61	61	62	63	64	65	65	65	65	65	65	66	66	67	67	67	67	68	68	69	69	70	70	71	71	72	73	73	74	74	74	74	74	74	74	75	76	78	78	78	78	78	78	79	80	80	81	81	81	81	82	82	82	82	82	82	82	82	82	83	83	84	86	89	92	96	99	100	101	101	101	102	102	102	103	103	103	103	103	102	102	102	102	102	102	102	102	101	101	100	99	98	96	94	92	91	92	94	96	98	100	102	104	105	106	107	108	108	109	109	110	110	110	111	112	113	114	115	116	117	118	118	119	119	120	121	122	123	124	126	127	128	129	129	130	131	133	136	138	141	143	144	146	148	150	152	155	157	159	160	161	162	162	164	165	167	167
8	8	8	8	8	8	9	9	9	9	9	9	9	9	9	9	9	9	9	9	9	9	9	10	10	10	10	10	10	10	10	10	10	10	10	10	10	10	9	9	9	9	9	9	9	9	9	9	9	9	9	9	9	9	9	9	9	9	9	9	10	10	10	10	10	10	11	11	11	11	11	11	11	11	11	11	11	11	11	11	11	12	12	12	12	12	12	12	13	13	13	12	13	13	13	13	13	13	13	13	13	13	13	13	13	13	13	13	13	13	13	13	13	13	13	13	13	13	13	13	13	13	13	13	13	13	13	13	13	13	12	12	13	13	13	13	13	13	13	13	13	14	14	14	14	14	14	14	14	14	14	14	14	14	14	14	14	14	14	14	15	14	14	14	14	14	14	15	15	15	15	15	15	15	15	15	15	15	15	15	15	15	15	15	15	14	14	14	15	15	14	14	14	14	14	14	15	14	14	14	14	14	15	15	15	14	13	13	12	11	11	11	11	12	12	13	13	14	15	15	15	15	15	15	15	15	15	15	15	15	15	15	15	16	16	16	16	16	16	16	16	16	16	15	15	15	15	15	15	15	15	15	15	15	16	16	16	16	16	16	16	16	16	16	16	16	16	16	16	16	16	16	16	16	16	16	17	17	17	17	17	16	16	17	17	17	17	17	18	18	18	18	18	18	18	18	18	18	18	18	18	18	18	18	19	19	19	19	19	19	19	19	19	19	19	19	19	19	19	19	19	19	20	20	20	20	20	20	20	20	20	20	20	20	20	21	21	21	21	21	21	21	21	21	21	21	22	22	22	22	22	21	21	21	22	22	22	22	22	22	22	22	22	22	22	22	22	22	22	22	21	21	21	21	21	20	20	20	20	20	20	20	20	21	21	21	21	21	21	21	22	22	22	22	22	22	22	22	22	22	22	22	22	22	22	22	22	23	23	23	23	23	23	23	23	23	24	24	24	24	24	24	24	24	24	24	24	24	24	24	25	25	25	25	25	25	25	25	25	25	25	25	25	25	25	25	25	25	26	26	26	26	26	26	26	25	25	25	25	25	25	25	25	26	26	26	26	26	26	26	26	26	26	26	26	26	26	26	26	26	27	27	27	27	27	27	27	27	28	28	28	28	28	28	28	28	28	28	28	28	28	28	28	28	29	29	29	29	29	29	29	30	30	30	30	30	30	30	30	30	30	30	30	30	30	30	30	30	30	30	31	31	31	31	31	31	31	31	31	31	31	32	32	32	32	32	32	32	32	32	32	32	32	32	32	32	33	33	33	33	33	34	34	34	34	34	34	34	34	34	34	34	34	34	34	34	34	34	34	34	34	34	34	35	35	35	35	35	35	35	35	35	35	35	35	35	35	35	35	35	35	35	35	35	35	35	35	35	36	36	36	36	36	36	36	36	36	36	37	37	37	37	37	37	37	37	38	38	38	38	38	38	38	38	38	38	37	37	38	38	38	38	38	38	38	38	38	38	38	39	39	39	39	40	40	40	41	41	41	41	41	41	41	41	41	42	42	42	42	42	42	42	42	42	42	42	42	43	43	43	43	43	43	43	43	43	43	43	43	43	44	44	43	42	42	43	43	43	44	44	44	44	45	45	47	50	52	53	54	55	54	55	54	54	54	54	54	53	53	53	53	52	52	53	54	54	55	55	55	55	55	56	56	57	57	57	58	58	58	60	61	61	61	61	61	62	64	64	64	65	65	65	65	65	66	67	67	67	67	68	68	69	69	70	70	71	71	72	73	73	73	74	74	74	74	74	74	74	76	77	78	78	78	78	78	79	79	80	80	81	81	81	81	81	82	82	82	82	82	82	83	83	83	85	88	91	94	97	100	101	101	101	101	102	102	102	103	103	103	103	102	102	102	102	102	102	101	100	99	99	98	97	96	94	92	91	90	91	93	95	97	99	101	103	104	105	105	106	107	108	108	109	109	109	110	111	112	113	114	115	116	117	119	120	121	121	122	123	124	125	126	127	128	129	129	129	130	132	134	137	139	141	143	145	147	148	150	153	156	158	159	160	161	162	162	163	165	166	167
8	8	8	8	8	8	8	8	8	8	8	8	9	9	9	9	9	9	9	9	9	9	10	10	10	10	10	10	10	10	10	10	10	10	10	10	10	9	9	9	9	9	9	9	9	9	9	9	9	9	9	9	9	9	9	9	9	9	9	9	9	10	10	10	10	10	11	11	11	11	11	11	11	10	11	11	11	11	11	11	11	12	12	12	12	12	12	12	12	13	13	12	13	13	13	13	13	13	13	13	13	13	13	13	13	13	13	13	13	13	13	13	13	13	13	13	13	13	13	13	13	13	13	13	13	13	13	13	13	13	12	12	13	13	13	13	13	13	13	13	13	13	14	14	14	14	14	14	14	14	14	14	14	14	14	14	14	14	14	14	15	15	14	14	14	14	15	15	15	15	15	15	15	15	15	15	15	15	15	15	15	15	15	15	15	14	15	15	14	14	14	14	14	14	14	14	14	14	15	15	15	14	14	13	13	12	11	11	11	12	12	13	13	14	14	15	15	15	15	15	15	15	15	15	15	15	15	15	15	15	15	15	16	16	16	16	16	16	16	16	16	16	16	16	16	15	15	15	15	15	15	15	15	16	16	16	16	16	16	16	16	16	16	16	16	16	16	17	16	16	16	16	16	16	16	16	17	17	17	17	17	17	17	17	17	17	17	17	18	18	18	18	18	18	18	18	18	18	18	18	18	18	18	18	18	18	18	18	18	18	19	19	19	19	19	19	19	19	19	19	19	19	20	20	20	20	20	20	20	20	20	20	20	20	20	20	20	21	21	21	21	21	21	21	21	21	21	21	21	21	21	21	21	21	22	22	22	22	22	22	22	22	22	22	22	22	22	22	22	22	22	22	21	21	21	21	21	20	21	21	21	21	21	21	21	21	21	21	21	22	22	22	22	22	22	22	22	22	22	22	22	22	22	22	22	22	23	23	23	23	23	23	23	23	23	23	24	24	24	24	24	24	24	24	24	24	24	24	24	24	24	25	25	25	25	25	25	25	25	25	25	25	25	25	25	25	25	25	26	26	26	26	26	26	25	25	25	25	25	25	25	25	25	26	26	26	26	26	26	26	26	26	26	26	26	26	26	26	26	26	27	27	27	27	27	27	27	27	28	28	28	28	28	28	28	28	28	28	28	28	28	28	28	28	28	28	28	28	28	29	29	30	30	30	30	30	30	30	30	30	30	30	30	30	30	30	30	30	30	30	31	30	31	31	31	31	31	31	31	31	31	32	32	32	32	32	32	32	32	32	32	32	32	32	32	32	32	33	33	33	33	34	34	34	34	34	34	34	34	34	34	34	34	34	34	34	34	34	34	34	34	34	34	35	35	35	35	35	35	35	35	35	35	35	35	35	35	35	35	35	35	35	35	35	35	35	35	35	36	35	35	35	36	36	36	36	36	36	36	37	37	37	37	37	37	37	37	38	38	37	37	38	38	38	38	38	38	37	38	38	38	38	38	38	37	37	38	38	38	39	39	39	40	40	40	40	41	41	41	41	41	41	41	41	41	42	42	42	42	42	42	42	42	42	42	42	42	42	43	43	43	43	43	43	43	42	42	43	43	43	43	43	42	42	43	43	43	44	44	44	44	44	45	45	46	48	50	52	53	54	54	54	54	54	54	54	53	53	53	52	52	52	52	53	54	54	55	55	55	55	55	56	57	57	58	58	58	58	59	60	61	61	61	61	61	62	63	64	64	64	65	65	65	65	66	67	67	67	67	68	68	69	69	70	70	71	71	72	73	73	73	74	74	74	74	74	74	74	75	76	78	78	78	78	79	79	79	80	80	80	80	81	81	81	82	82	82	82	82	82	83	83	85	87	90	93	96	99	100	101	101	101	101	102	102	102	102	102	103	103	102	102	102	102	102	101	99	98	97	96	95	94	92	90	90	90	91	93	94	96	98	100	101	102	103	104	104	105	106	107	108	108	109	109	109	110	111	112	113	115	116	118	119	120	121	122	123	124	125	126	127	128	129	130	130	131	132	134	136	138	140	142	143	145	147	149	151	153	156	159	160	161	161	162	162	163	164	166	167
8	8	8	8	8	8	8	8	8	8	7	8	8	9	9	9	9	9	9	9	9	9	10	10	10	10	10	10	10	10	10	10	10	10	10	10	10	9	9	9	9	9	9	9	9	9	9	9	9	9	9	9	9	9	9	9	9	9	9	9	9	9	10	10	10	10	11	11	11	11	11	11	11	10	11	11	11	11	11	11	12	12	12	12	12	12	12	12	12	13	13	13	12	13	13	13	13	13	13	13	13	13	13	13	13	13	13	13	13	13	13	13	13	13	13	13	13	13	13	13	13	13	13	13	13	13	13	13	13	12	13	13	12	12	12	13	13	13	13	13	13	13	13	14	14	14	14	14	14	14	14	14	14	14	14	14	14	14	14	14	14	15	15	14	14	14	15	15	15	15	15	15	15	15	15	15	15	15	15	15	15	15	15	15	15	15	14	14	14	14	14	14	14	14	14	14	15	15	14	14	14	13	12	11	11	11	11	12	13	13	14	14	15	15	15	15	15	15	15	15	15	15	15	15	15	15	15	16	16	16	16	16	16	16	16	16	16	16	16	16	16	16	16	16	16	16	16	16	16	15	15	16	16	16	16	16	16	16	16	16	16	16	16	16	16	16	16	17	16	16	16	16	16	16	16	16	17	17	17	17	17	17	17	17	17	17	17	17	17	18	18	18	18	18	18	18	18	18	18	18	18	18	18	18	18	18	18	18	18	18	18	18	18	19	19	19	19	19	19	19	19	19	19	20	20	20	20	20	20	20	20	20	20	20	20	20	20	20	20	20	21	21	21	21	21	21	21	21	21	21	21	21	21	21	21	22	22	22	22	22	22	22	22	22	22	22	22	22	22	22	22	22	22	22	21	21	21	21	21	21	21	21	21	21	21	21	21	21	22	22	22	22	22	22	22	22	22	22	22	22	22	22	22	22	22	23	23	23	23	23	23	23	23	23	23	23	24	24	24	24	24	24	24	24	24	24	24	24	24	24	24	25	25	25	25	25	25	25	25	25	25	25	25	25	25	25	25	25	25	26	26	26	26	25	25	25	25	25	25	25	25	25	25	26	26	26	26	26	26	26	26	26	26	26	26	26	26	26	26	26	26	27	27	27	27	27	27	27	28	28	28	28	28	28	28	28	28	28	28	28	28	28	28	28	28	28	28	28	29	29	29	30	30	30	30	30	30	30	30	30	30	30	30	30	30	30	30	30	30	30	30	30	31	31	31	31	31	31	31	31	32	32	32	32	32	32	32	32	32	32	32	32	32	32	32	32	32	33	33	33	33	34	34	34	34	34	34	34	34	34	34	34	34	34	34	34	34	34	34	34	34	34	34	35	35	35	35	35	35	35	35	35	35	35	35	35	35	35	35	35	35	35	35	35	35	35	35	35	35	35	35	35	35	36	36	36	36	36	36	36	37	37	37	37	37	37	37	37	38	38	38	37	38	38	38	38	38	38	38	38	38	38	38	38	37	37	37	38	39	39	39	39	40	40	40	40	41	41	41	41	41	41	41	41	41	41	42	42	42	42	42	42	42	42	42	42	42	42	42	43	43	43	42	42	42	42	42	43	43	43	43	42	42	42	43	43	44	44	44	44	44	45	45	45	46	47	49	51	53	53	54	54	54	54	54	53	53	52	52	51	51	52	52	53	54	54	55	55	55	55	55	56	57	57	58	58	58	59	60	61	61	61	61	61	61	61	62	64	65	64	64	65	65	65	65	66	67	67	67	68	68	69	69	70	70	71	71	72	73	73	73	74	74	74	74	74	74	74	75	76	77	78	78	78	79	79	79	79	80	80	80	81	81	81	82	82	82	82	82	83	83	84	86	89	92	95	98	101	101	101	101	101	101	102	102	102	102	102	102	103	103	103	102	102	101	100	98	96	94	93	92	90	89	89	89	91	92	94	95	97	99	100	100	101	102	103	104	104	106	107	108	108	109	109	109	110	110	111	113	114	116	117	119	120	121	122	124	125	126	127	128	130	131	132	132	133	134	135	137	139	140	142	144	146	147	149	151	154	157	159	160	161	161	162	162	163	163	165	167
8	8	8	8	8	8	8	7	7	7	7	8	8	9	9	9	9	9	9	9	9	9	10	10	10	10	10	10	10	10	10	10	10	10	10	10	9	9	9	9	9	9	9	9	9	9	9	9	9	9	9	9	9	9	9	9	9	9	9	9	9	9	9	10	10	10	11	11	11	11	11	11	11	11	11	11	11	11	11	11	12	12	12	12	12	12	12	12	12	12	13	13	13	12	12	13	13	13	13	13	13	13	13	13	13	13	13	13	13	13	13	13	13	13	13	13	13	13	13	13	13	13	13	13	13	13	13	12	12	13	13	13	13	13	13	13	13	13	12	13	13	13	13	14	14	14	14	14	14	14	14	14	14	14	14	14	14	14	14	14	14	14	15	15	14	14	14	15	15	15	15	15	15	15	15	15	15	15	15	15	15	15	15	15	14	14	14	14	14	14	14	14	14	15	15	15	14	14	13	12	12	11	11	11	12	12	13	14	14	15	15	15	15	15	15	15	15	15	15	15	15	15	15	15	15	15	16	16	16	16	16	16	16	16	16	16	16	16	16	16	16	16	16	16	16	16	16	16	16	16	16	16	16	16	16	16	16	16	16	16	16	16	16	16	16	16	16	16	16	16	16	16	16	16	16	16	17	17	17	17	17	17	17	17	17	17	17	17	17	18	18	18	18	18	18	18	18	18	18	18	18	18	18	18	18	18	18	18	18	18	18	18	18	18	19	19	19	19	19	19	19	19	19	20	20	20	20	20	20	20	20	20	20	20	20	20	20	20	20	20	20	20	20	20	21	21	21	21	21	21	21	21	21	21	21	21	22	22	22	22	22	22	22	22	22	22	22	22	22	22	22	22	22	22	22	22	22	21	21	21	21	22	22	21	21	22	22	22	22	22	22	22	22	22	22	22	22	22	22	22	22	22	22	22	22	23	23	23	23	23	23	23	23	23	23	23	24	24	24	24	24	24	24	24	24	24	24	24	24	24	24	24	25	25	25	25	25	25	25	25	25	25	25	25	25	25	25	25	25	26	26	25	25	25	25	25	25	25	25	25	25	25	25	26	26	26	26	26	26	26	26	26	26	26	26	26	26	26	26	26	26	27	27	27	27	27	27	27	28	28	28	28	28	28	28	28	28	28	28	28	28	28	28	28	28	28	28	28	29	29	29	29	30	30	30	30	30	30	30	30	30	30	30	30	30	30	30	30	30	30	30	30	31	31	31	31	31	31	31	31	32	31	31	31	32	32	32	32	32	32	32	32	32	32	32	32	32	33	33	33	33	33	33	34	34	34	34	34	34	34	34	34	34	34	34	33	34	34	34	34	34	34	34	34	35	35	35	35	35	35	35	35	35	34	34	34	34	34	34	34	35	35	35	35	35	35	35	35	35	35	35	35	35	35	35	36	36	36	36	36	36	37	37	37	37	37	37	37	37	38	38	37	38	38	38	38	38	38	37	37	37	38	38	37	37	37	37	39	39	40	40	39	40	40	40	40	41	41	41	41	41	41	41	41	41	41	41	42	42	42	42	42	42	42	42	42	42	42	42	43	43	43	42	42	42	42	43	43	43	43	43	42	42	42	43	44	44	44	44	44	44	45	45	45	46	47	48	50	52	53	53	53	53	53	52	52	52	51	51	51	51	51	52	53	54	54	55	55	55	55	55	56	57	58	58	58	59	59	60	61	61	61	61	61	61	61	62	63	64	64	64	64	64	65	65	65	65	65	66	67	68	69	69	70	70	71	71	72	73	73	73	73	74	74	74	74	74	74	74	76	77	78	78	78	78	79	79	79	79	80	80	81	81	81	81	82	82	82	83	83	84	85	88	91	94	97	100	101	101	101	101	101	101	101	102	102	102	102	102	103	103	102	102	101	100	98	96	94	92	91	89	88	88	89	90	91	92	94	96	97	98	99	100	100	101	102	103	104	105	106	107	108	108	109	109	109	110	111	112	114	116	118	119	120	122	123	125	126	127	129	130	131	132	133	134	135	136	137	139	140	142	143	144	146	148	150	152	155	157	159	160	161	161	162	162	163	163	164	166
8	8	8	8	8	8	8	7	7	7	7	8	8	9	9	9	9	9	9	9	9	10	10	10	10	10	10	10	10	10	10	10	10	10	9	9	9	9	9	9	9	9	9	9	9	9	9	9	9	9	9	9	9	9	9	9	9	9	9	9	9	9	9	9	10	10	10	11	11	11	11	11	11	11	11	11	11	11	11	11	12	12	12	12	12	12	12	12	12	12	13	13	13	13	13	12	12	12	13	13	13	13	13	13	13	13	13	13	13	13	13	13	13	13	13	13	13	13	13	13	13	13	13	13	13	13	12	12	13	13	13	13	13	13	13	13	13	13	13	13	13	13	13	13	14	14	14	14	14	14	14	14	14	14	14	14	14	14	14	14	14	14	14	15	15	14	14	15	15	15	15	15	15	15	15	15	15	15	15	15	15	15	15	14	14	14	14	14	14	14	14	14	15	15	14	14	13	12	11	11	11	11	12	13	14	14	15	15	15	15	15	15	15	15	15	15	15	15	15	15	15	15	15	15	15	15	16	16	16	16	16	16	16	16	16	16	16	16	16	16	16	16	16	16	16	16	16	16	16	16	16	16	16	16	16	16	16	16	16	16	16	16	16	16	16	16	16	16	16	16	16	16	16	16	16	17	17	17	17	17	17	17	17	17	17	17	17	17	17	17	18	18	18	18	18	18	18	18	18	18	18	18	18	18	18	18	18	18	18	18	18	18	18	19	19	19	19	19	19	19	19	19	19	19	20	20	20	20	20	20	20	20	20	20	20	20	20	20	20	20	20	20	20	20	20	20	21	21	21	21	21	21	21	21	20	21	21	22	22	22	22	22	22	22	22	22	22	22	22	22	22	22	22	22	22	22	22	22	22	22	22	22	22	22	22	22	22	22	22	22	22	22	22	22	22	22	22	22	22	22	22	22	22	22	23	23	23	23	23	23	23	23	23	23	23	23	23	24	24	24	24	24	24	24	24	24	24	24	24	24	24	24	25	25	25	25	25	25	25	25	25	25	25	25	25	25	25	25	26	26	25	25	25	25	25	25	25	25	25	25	25	25	25	26	26	26	26	26	26	26	26	26	26	26	26	26	26	26	26	26	26	26	27	27	27	27	27	27	27	28	28	28	28	28	28	28	28	28	28	28	28	28	28	28	28	28	28	28	29	29	29	29	30	30	30	30	30	30	30	30	30	30	30	30	30	30	30	30	30	30	30	30	30	31	31	31	31	31	31	31	31	31	31	31	31	32	32	32	32	32	32	32	32	32	32	32	32	33	33	33	33	33	33	33	34	34	34	34	34	34	34	34	34	34	34	34	34	34	34	34	34	34	34	34	35	35	35	35	35	35	35	35	35	34	34	34	34	34	34	34	34	35	35	35	35	35	35	35	35	35	35	35	35	35	35	35	36	36	36	36	36	36	37	37	37	37	37	37	37	37	38	38	37	38	38	37	38	38	37	37	37	38	38	37	37	37	38	39	39	39	39	39	40	40	40	41	41	41	41	41	41	41	41	41	41	41	41	41	42	42	42	42	42	42	42	42	42	42	42	43	43	43	42	42	42	43	43	43	43	43	43	42	42	43	44	44	44	44	44	45	45	45	45	46	46	46	48	49	51	52	52	52	52	51	51	51	51	51	51	51	51	52	53	53	54	54	55	55	55	55	55	55	57	58	58	59	59	60	60	61	61	61	61	61	61	61	62	63	64	64	64	64	64	64	64	64	64	64	65	67	68	69	69	70	70	71	71	72	73	73	73	73	74	74	74	74	74	74	75	76	77	77	78	78	78	79	79	79	79	80	80	80	81	81	81	82	82	83	83	83	84	86	89	92	96	99	101	101	101	101	101	101	101	101	102	102	102	102	102	102	102	101	100	99	99	98	96	93	91	89	87	87	88	89	90	91	92	94	96	97	98	98	99	100	100	101	102	103	104	105	106	107	108	109	109	109	110	111	112	115	117	118	119	121	123	125	126	127	128	130	131	132	134	135	136	137	138	139	140	141	142	144	145	147	148	150	153	155	158	160	160	161	161	162	162	163	163	164	166
8	8	8	8	8	8	7	7	7	7	7	7	8	9	9	9	9	10	10	10	10	10	10	10	10	10	10	10	10	10	10	10	10	9	9	9	9	9	9	9	9	9	9	9	9	9	9	9	9	9	9	9	9	9	9	9	9	9	9	9	9	9	9	9	10	10	10	11	11	11	11	11	11	11	11	11	11	11	11	11	12	12	12	12	12	12	12	12	12	12	13	13	13	13	13	13	13	13	12	12	13	13	13	13	13	13	13	13	13	13	13	13	13	13	13	13	13	13	13	13	13	13	13	13	13	13	12	13	13	13	13	13	13	13	13	13	13	13	13	13	13	13	13	13	13	13	13	14	14	14	14	14	14	14	14	14	14	14	14	14	14	14	14	14	15	15	14	14	14	14	15	15	15	15	15	15	15	15	15	15	15	14	14	14	14	14	14	14	15	15	15	15	14	14	13	12	11	11	11	11	12	13	14	15	15	15	15	15	15	15	15	15	15	15	15	15	15	15	15	15	15	15	15	15	15	16	16	16	16	16	16	16	16	16	16	16	16	16	16	16	16	16	16	16	16	16	16	16	16	16	16	16	16	16	16	16	16	16	16	16	16	16	16	16	17	16	16	16	16	16	16	16	16	16	17	17	17	17	17	17	17	17	17	17	17	17	17	17	17	17	18	18	18	18	18	18	18	18	18	18	18	18	18	18	18	18	18	18	18	18	18	18	18	19	19	19	19	19	19	19	19	19	19	19	19	20	20	20	20	20	20	20	20	20	20	20	20	20	20	20	20	20	20	20	20	20	20	20	20	20	20	21	21	21	21	20	21	22	22	22	22	22	22	22	22	22	22	22	22	22	22	22	22	22	22	22	22	22	22	22	22	22	22	22	22	22	22	22	22	22	22	22	22	22	22	22	22	22	22	22	22	22	22	23	23	23	23	23	23	23	23	23	23	23	23	23	23	24	24	24	24	24	24	24	24	24	24	24	24	24	24	25	25	25	25	25	25	25	25	25	25	25	25	25	25	25	25	25	25	25	25	25	25	25	25	25	25	25	25	25	25	25	25	25	26	26	26	26	26	26	26	26	26	26	26	26	26	26	26	26	26	26	27	27	27	27	27	27	27	28	28	28	28	28	28	28	28	28	28	28	28	28	28	28	28	28	28	28	29	29	29	29	29	30	30	30	30	30	30	30	30	30	30	30	30	30	30	30	30	30	30	30	30	31	31	31	31	31	31	31	31	31	31	31	31	32	32	32	32	32	32	32	32	32	32	32	32	32	33	33	33	33	33	33	34	34	34	34	34	34	34	34	34	34	34	34	34	34	34	34	34	34	34	34	34	35	35	35	35	35	35	35	35	34	34	34	34	34	34	34	34	34	34	34	35	35	35	35	35	35	35	35	35	35	35	35	35	35	36	36	36	36	36	37	37	37	37	37	37	37	37	38	38	38	38	37	38	38	38	37	37	38	38	38	37	37	38	39	39	39	39	40	40	40	40	41	41	41	41	41	41	41	41	41	41	41	41	41	42	42	42	42	42	42	42	42	42	42	42	43	43	42	42	42	42	43	43	43	43	43	42	42	42	43	44	44	44	45	45	45	45	45	45	46	46	46	47	49	50	51	51	51	51	51	51	51	51	51	51	51	51	52	53	53	54	54	55	54	54	54	54	55	57	58	59	59	59	60	61	61	60	61	61	61	61	61	61	62	63	64	64	64	64	64	64	64	64	64	65	66	68	69	69	70	70	71	71	72	72	73	73	73	73	74	74	74	74	74	75	76	77	77	77	78	78	78	78	79	79	79	80	81	81	81	82	82	82	83	83	84	86	88	91	94	97	100	101	101	101	101	101	101	101	101	102	102	102	101	101	101	100	99	98	98	97	96	95	92	89	87	87	87	88	88	89	90	92	94	95	96	97	98	98	99	99	100	101	102	103	104	105	107	108	108	109	109	110	111	114	116	118	119	121	123	125	126	128	129	130	131	132	134	135	136	137	138	139	140	141	142	143	145	146	147	149	151	153	156	158	160	160	161	161	162	162	163	163	164	165
8	8	8	8	8	7	7	7	7	7	7	7	8	9	9	10	10	10	10	10	10	10	10	10	10	10	10	10	10	10	10	9	9	9	9	9	9	9	9	9	9	9	9	9	9	9	9	9	9	9	9	9	9	9	9	9	9	9	9	9	9	9	9	10	10	10	11	11	11	11	11	11	11	11	11	11	11	11	11	11	11	12	12	12	12	12	12	12	12	12	13	13	13	13	13	13	13	13	13	13	13	13	13	13	13	13	12	13	13	13	13	13	13	13	13	12	13	13	13	13	13	13	13	13	13	12	13	13	13	13	13	13	13	13	13	13	13	13	12	13	13	13	13	13	13	13	13	13	13	14	14	14	14	14	14	14	14	14	14	14	14	14	14	14	14	15	15	14	14	14	14	14	15	15	15	15	15	15	15	14	14	14	14	14	14	14	14	15	15	15	14	14	13	12	11	11	11	11	12	13	14	14	15	15	15	15	15	15	15	15	15	15	15	15	15	15	15	15	15	15	15	15	15	15	16	16	16	16	16	16	16	16	16	16	16	16	16	16	16	16	16	16	16	16	16	16	16	16	16	16	16	16	16	16	16	16	16	16	16	16	16	16	16	16	16	16	16	16	16	16	16	16	16	17	17	17	17	17	17	17	17	17	17	17	17	17	17	17	17	17	18	18	18	18	18	18	18	18	18	18	18	18	18	18	18	18	18	18	18	18	18	18	18	18	19	19	19	19	19	19	19	19	19	19	19	19	20	20	20	20	20	20	20	20	20	20	20	20	20	20	20	20	20	20	20	20	20	20	20	20	20	21	21	21	21	20	20	21	22	22	22	22	22	22	22	22	22	22	22	22	22	22	22	22	22	22	22	22	22	22	22	22	22	22	22	22	22	22	22	22	22	22	22	22	22	22	22	22	22	22	22	22	22	23	23	23	23	23	23	23	23	23	23	23	23	23	23	24	24	24	24	24	24	24	24	24	24	24	24	24	25	25	25	25	25	25	25	25	25	25	25	25	25	25	25	25	25	25	25	25	25	25	25	25	25	25	25	25	25	25	25	25	25	25	26	26	26	26	26	26	26	26	26	26	26	26	26	26	26	26	26	26	27	27	27	27	27	27	27	28	28	28	28	28	28	28	28	28	28	28	28	28	28	28	28	28	28	28	29	29	29	29	29	30	30	30	30	30	30	30	30	30	30	30	30	30	30	30	30	30	30	30	30	31	31	31	31	31	31	31	31	31	31	31	31	32	32	32	32	32	32	32	32	32	32	32	32	32	33	33	33	33	33	33	34	34	34	34	34	34	34	34	34	34	34	34	34	34	34	34	34	34	34	34	34	35	35	35	35	35	35	35	35	34	34	34	34	34	34	34	34	34	34	34	35	35	35	35	35	35	35	35	35	35	35	35	35	35	35	36	36	36	36	37	37	37	37	37	37	37	37	37	38	38	38	37	38	38	38	38	38	38	38	38	38	38	39	39	40	39	39	40	40	40	40	41	41	41	41	41	41	41	41	41	41	41	41	41	41	42	42	42	42	42	42	42	42	42	42	42	42	42	42	42	42	43	43	43	43	43	42	42	43	44	44	44	45	45	45	45	45	45	46	46	47	47	47	48	49	50	51	51	51	51	51	51	51	51	51	51	51	52	53	53	54	54	54	54	54	54	54	56	57	58	59	59	59	60	60	61	61	60	61	61	61	61	61	62	63	64	64	64	64	64	64	64	64	64	64	66	68	69	69	70	70	71	71	72	72	72	73	73	73	73	74	74	74	75	76	76	77	77	77	77	78	78	78	78	79	79	80	80	81	82	82	82	82	83	84	85	88	90	93	95	98	100	101	101	101	101	101	101	101	101	101	100	100	99	99	98	98	97	96	95	95	94	93	90	88	86	86	87	88	88	89	90	91	93	94	96	97	97	98	98	99	99	100	101	102	103	105	106	107	108	109	110	111	113	115	118	119	121	123	125	126	127	128	129	130	132	134	135	136	137	138	140	141	141	142	143	144	145	146	148	149	151	154	156	158	160	160	161	161	162	163	163	164	164	165
8	8	8	8	7	7	7	7	7	7	7	7	8	9	10	10	10	10	10	10	10	10	10	10	10	10	10	10	10	10	9	9	9	9	9	9	9	9	9	9	9	9	9	9	9	9	9	9	9	9	9	9	9	9	9	9	9	9	9	9	9	9	9	10	10	10	11	11	11	11	11	11	11	11	11	11	11	11	11	11	11	12	12	12	12	12	12	12	12	13	13	13	13	13	13	13	13	13	13	13	12	13	13	13	13	12	12	13	13	13	13	13	13	13	13	12	12	13	13	13	13	13	13	13	12	13	13	13	13	13	13	12	12	13	13	13	13	13	12	13	13	13	13	13	13	13	13	13	13	13	13	13	14	14	14	14	14	14	14	14	14	14	14	14	14	14	15	14	14	14	14	14	14	15	15	15	15	15	14	14	14	14	14	14	14	15	15	15	15	14	14	13	12	11	11	11	12	13	14	14	15	15	15	15	15	15	15	15	15	15	15	15	15	15	15	15	15	15	15	15	15	15	15	15	16	16	16	16	16	16	16	16	16	16	16	16	16	16	16	16	16	16	16	16	16	16	16	16	16	16	16	17	16	16	16	16	16	16	16	16	16	16	16	16	16	16	16	16	16	16	16	16	17	17	17	17	17	17	17	17	17	17	17	17	17	17	17	17	17	17	17	18	18	18	18	18	18	18	18	18	18	18	18	18	18	18	18	18	18	18	18	18	18	18	19	19	19	19	19	19	19	19	19	19	19	19	19	20	20	20	20	20	20	20	20	20	20	20	20	20	20	20	20	20	20	20	20	20	20	20	20	20	21	21	20	20	20	21	21	22	22	22	22	22	22	22	22	22	22	22	22	22	22	22	22	22	22	22	22	22	22	22	22	22	22	22	22	22	22	22	22	22	22	22	22	22	22	22	22	22	22	22	22	23	23	23	23	23	23	23	23	23	23	23	23	23	23	24	24	24	24	24	24	24	24	24	24	24	24	25	25	25	25	25	25	25	25	25	25	25	25	25	25	25	25	25	25	25	25	25	25	25	25	25	25	25	25	25	25	25	25	25	25	25	26	26	26	26	26	26	26	26	26	26	26	26	26	26	26	26	26	26	26	27	27	27	27	27	27	28	28	28	28	28	28	28	28	28	28	28	28	28	28	28	28	28	28	28	29	29	29	29	29	30	30	30	30	30	30	30	30	30	30	30	30	30	30	30	30	30	30	30	30	31	31	31	31	31	31	31	31	31	31	31	31	32	32	32	32	32	32	32	32	32	32	32	32	32	33	33	33	33	33	33	34	34	34	34	34	34	34	34	34	34	34	34	34	34	34	34	34	34	34	34	34	35	35	35	35	35	35	35	35	34	34	34	34	34	34	34	34	34	34	34	35	35	35	35	35	35	35	35	35	35	35	35	35	35	35	36	36	36	36	36	37	37	37	37	37	37	37	37	37	38	38	38	37	38	38	38	38	38	38	38	39	39	39	40	39	39	39	39	40	40	40	40	41	41	41	41	41	41	41	41	41	41	41	41	41	42	42	42	42	42	42	42	42	42	42	42	42	42	42	42	42	43	43	43	43	42	42	43	44	44	44	45	45	45	45	45	45	45	46	47	47	47	47	47	48	50	50	51	51	51	51	51	51	51	51	51	51	52	53	53	54	54	54	53	53	54	55	56	57	58	59	59	59	60	60	61	61	61	60	60	61	61	61	62	63	64	64	64	64	64	64	64	64	64	64	65	67	69	70	70	70	71	71	72	72	72	72	73	73	73	73	74	74	75	76	76	76	77	77	77	77	78	78	78	78	79	79	80	80	81	82	82	83	83	85	87	90	93	95	97	99	100	101	100	100	100	100	100	99	99	99	98	98	97	96	96	95	94	93	93	92	91	90	88	86	86	86	87	88	88	89	89	91	92	94	95	96	97	97	98	98	99	99	100	101	103	104	105	107	108	109	110	112	114	117	119	121	123	125	126	127	127	127	128	130	132	134	136	137	138	140	141	141	142	143	144	145	146	147	148	150	152	154	157	159	160	160	161	161	162	163	163	164	164	165
8	8	8	7	7	7	7	7	7	7	7	7	8	9	10	10	10	10	10	10	10	10	10	10	10	10	10	10	10	9	9	9	9	9	9	9	9	9	9	9	9	9	9	9	9	9	9	9	9	9	9	9	9	9	9	9	9	9	9	9	9	9	9	10	10	10	11	11	11	11	11	11	11	11	11	10	11	11	11	11	11	11	12	12	12	12	12	12	12	13	13	13	13	13	13	13	13	13	13	13	13	12	13	12	12	13	13	13	13	12	12	12	12	12	13	13	13	12	12	13	13	12	13	12	13	13	13	13	13	13	12	12	12	13	13	13	13	13	13	12	13	13	13	13	13	13	13	13	13	13	13	13	13	14	14	14	14	14	14	14	14	14	14	14	14	14	15	14	14	14	14	15	14	14	14	14	14	14	14	14	14	14	14	15	15	15	15	15	14	13	12	11	11	11	12	13	14	14	14	15	15	15	15	15	15	15	15	15	15	15	15	15	15	15	15	15	16	16	15	15	15	15	15	15	16	16	16	16	16	16	16	16	16	16	16	16	16	16	16	16	16	16	16	16	16	16	16	16	16	16	16	16	16	16	16	16	16	16	16	16	16	16	16	16	16	16	16	16	16	16	16	17	17	17	17	17	17	17	17	17	17	17	17	17	17	17	17	17	17	17	17	18	18	18	18	18	18	18	18	18	18	18	18	18	18	18	18	18	18	18	18	18	18	18	18	19	19	19	19	19	19	19	19	19	19	19	19	19	19	20	20	20	20	20	20	20	20	20	20	20	20	20	20	20	20	20	20	20	20	20	20	20	20	20	20	20	20	20	21	21	22	22	22	22	22	22	22	22	22	22	22	22	22	22	22	22	22	22	22	22	22	22	22	22	22	22	22	22	22	22	22	22	22	22	22	22	22	22	22	22	22	22	23	23	23	23	23	23	23	23	23	23	23	23	23	23	23	24	24	24	24	24	24	24	24	24	24	24	25	25	25	25	25	25	25	25	25	25	25	25	25	25	25	25	25	25	25	25	25	25	25	25	25	25	25	25	25	25	25	25	25	25	25	25	26	26	26	26	26	26	26	26	26	26	26	26	26	26	26	26	26	26	26	27	27	27	27	27	27	28	28	28	28	28	28	28	28	28	28	28	28	28	28	28	28	28	28	28	29	29	29	29	29	29	30	30	30	30	30	30	30	30	30	30	30	30	30	30	30	30	30	30	30	31	31	31	31	31	31	31	31	31	31	31	32	32	32	32	32	32	32	32	32	32	32	32	32	32	33	33	33	33	33	33	34	34	34	34	34	34	34	34	34	34	34	34	34	34	34	34	34	34	34	34	34	34	35	35	35	35	35	35	34	34	34	34	34	34	34	34	34	34	34	35	35	35	35	35	35	35	35	35	35	34	34	35	35	35	35	35	35	36	36	36	37	37	37	37	37	37	37	37	37	38	38	38	37	37	38	38	38	38	38	38	39	39	39	40	39	39	39	39	39	40	40	40	41	41	41	41	41	41	42	41	41	41	41	41	41	42	42	42	42	42	42	42	42	42	42	42	42	42	42	42	42	42	43	43	42	41	42	43	44	45	45	45	45	45	45	45	45	46	46	47	47	47	47	47	48	49	50	50	50	50	50	50	50	51	51	51	51	51	52	53	54	54	53	53	53	54	55	56	58	58	59	59	59	60	60	60	61	61	61	61	61	61	62	62	63	63	64	64	64	64	64	64	64	64	64	64	66	69	70	70	70	71	71	72	72	72	72	72	73	73	73	74	74	75	76	76	76	76	76	77	77	77	77	78	78	79	79	79	79	80	81	82	83	84	86	89	92	95	97	99	99	100	99	99	99	99	98	98	97	97	96	96	95	94	93	93	92	91	90	90	90	89	88	86	86	86	86	87	88	88	89	90	91	92	93	95	96	97	97	97	98	98	99	100	101	102	104	105	107	108	109	111	114	116	118	120	122	124	126	126	127	127	127	128	130	133	135	136	138	139	140	141	142	143	144	144	145	146	147	149	151	153	155	157	159	160	160	161	161	162	163	163	164	165	166
8	7	7	7	7	8	7	7	7	7	7	8	9	9	10	10	10	10	9	10	10	10	10	10	10	10	10	10	9	9	9	9	9	9	9	9	9	9	9	9	9	9	9	9	9	9	9	9	9	9	9	9	9	9	9	9	9	9	9	9	8	9	9	10	10	11	11	11	11	11	11	11	11	11	11	11	11	11	11	11	11	11	12	12	12	12	12	12	13	13	13	13	13	13	13	13	13	13	13	13	13	13	13	13	13	13	13	13	13	13	13	13	13	13	13	13	13	13	13	12	12	13	13	13	13	13	13	13	13	13	12	12	12	13	13	13	13	13	13	13	12	13	13	13	13	13	13	13	13	13	13	13	13	13	13	14	14	14	14	14	14	14	14	14	14	14	15	14	14	14	14	14	14	14	14	15	14	14	14	14	14	14	15	14	14	14	14	13	12	11	11	11	12	13	14	14	15	15	15	15	15	15	15	15	15	15	15	15	15	15	15	15	15	15	15	15	16	16	16	16	15	15	15	16	16	16	16	16	16	16	16	16	16	16	16	16	16	16	16	16	16	16	16	16	16	16	16	16	16	16	16	16	16	16	16	16	16	16	16	16	16	16	16	16	16	16	16	16	16	16	16	17	17	17	17	17	17	17	17	17	17	17	17	17	17	17	17	17	17	17	17	18	18	18	18	18	18	18	18	18	18	18	18	18	18	18	18	18	18	18	18	18	18	18	18	18	18	18	19	19	19	19	19	19	19	19	19	19	19	19	20	20	20	20	20	20	20	20	20	20	20	20	20	20	20	20	20	20	20	20	20	20	20	20	20	20	20	20	20	21	21	22	22	22	22	22	22	22	22	22	22	22	22	22	22	22	22	22	22	22	22	22	22	22	22	22	22	22	22	22	22	22	22	22	22	22	22	22	22	22	22	22	23	23	23	23	23	23	23	23	23	23	23	23	23	23	24	24	24	24	24	24	24	24	24	24	24	25	25	25	25	25	25	25	25	25	25	25	25	25	25	25	25	25	25	25	25	25	25	25	25	25	25	25	25	25	25	25	26	26	26	25	25	26	26	26	26	26	26	26	26	26	26	26	26	26	26	26	26	26	26	26	27	27	27	27	27	27	28	28	28	28	28	28	28	28	28	28	28	28	28	28	28	28	28	28	28	28	29	29	29	29	29	30	30	30	30	30	30	30	30	30	30	30	30	30	30	30	30	30	30	30	30	31	31	31	31	31	31	31	31	32	32	32	32	32	32	32	32	32	32	32	32	32	32	32	32	32	32	33	33	33	33	33	33	34	34	34	34	34	34	34	34	34	34	34	34	34	34	34	34	34	34	34	34	34	35	35	35	35	35	34	34	34	34	34	34	34	34	34	34	34	34	35	35	35	35	35	35	35	35	35	34	34	34	34	34	35	35	35	35	36	36	36	37	37	37	37	37	37	37	37	37	38	38	38	38	37	38	38	38	38	38	39	39	39	39	40	39	39	39	39	39	40	40	40	41	41	41	41	41	41	41	41	41	41	41	41	41	42	42	42	42	42	42	42	42	42	42	42	42	42	42	42	42	42	43	43	41	41	43	44	45	45	46	46	46	46	46	46	46	46	46	47	47	48	47	47	47	48	49	50	50	50	50	50	50	50	50	51	51	51	52	53	54	53	53	53	54	54	55	57	58	59	59	59	59	60	60	60	61	61	61	61	61	61	62	62	63	63	63	64	64	64	64	64	64	64	64	65	67	69	70	70	70	71	71	71	72	72	72	72	73	73	73	74	74	75	75	75	76	76	76	76	77	77	77	77	78	79	79	79	79	79	79	81	82	84	87	90	93	96	97	98	98	98	98	97	97	97	96	96	95	94	93	92	92	91	90	90	89	88	87	87	87	86	85	85	85	86	86	87	88	88	89	90	91	92	93	94	95	96	97	97	97	97	98	99	101	103	104	105	107	108	110	113	115	117	119	121	123	125	126	126	127	127	127	128	131	133	135	136	138	140	141	142	143	144	144	145	146	147	148	149	151	153	155	156	158	159	160	161	161	162	163	163	164	165	166
8	7	7	7	8	8	8	7	7	7	8	8	9	9	9	9	9	9	9	10	10	10	10	10	10	10	10	10	9	9	9	9	9	9	9	9	9	9	9	9	9	9	9	9	9	9	9	9	9	9	9	9	9	9	9	9	9	9	9	8	8	8	9	10	10	11	11	11	11	11	11	11	11	11	11	11	11	11	11	11	11	11	12	12	12	12	12	12	13	13	13	13	13	13	13	13	13	13	13	13	13	13	13	13	13	13	13	13	13	13	13	13	13	13	13	12	13	13	13	13	13	13	13	13	13	13	13	13	13	13	12	12	12	13	13	13	13	13	13	13	13	12	12	13	13	13	13	13	13	13	13	13	13	13	13	14	14	14	14	14	14	14	14	14	14	14	15	14	14	14	14	14	14	14	15	14	14	14	14	14	14	15	14	14	14	13	12	11	11	11	12	13	14	14	14	15	15	15	15	15	15	15	15	15	15	15	15	15	15	15	15	15	15	15	15	16	16	16	16	16	15	15	15	16	16	16	16	16	16	16	16	16	16	16	16	16	16	16	16	16	16	16	16	16	16	16	16	16	16	16	16	16	16	16	16	16	16	16	16	16	16	17	16	16	16	16	16	16	16	16	17	17	17	17	17	17	17	17	17	17	17	17	17	17	17	17	17	17	17	17	17	17	18	18	18	18	18	18	18	18	18	18	18	18	18	18	18	18	18	18	18	18	18	18	18	18	18	18	18	18	19	19	19	19	19	19	19	19	19	19	19	19	19	20	20	19	20	20	19	19	19	19	19	19	19	20	20	20	20	20	20	20	20	20	20	20	20	20	20	20	21	22	22	22	22	22	22	22	22	22	22	22	22	22	22	22	22	22	22	22	22	22	22	22	22	22	22	22	22	21	22	22	22	22	22	22	22	22	22	22	22	22	23	23	23	23	23	23	23	23	23	23	23	23	23	23	24	24	24	24	24	24	24	24	24	24	25	25	25	25	25	25	25	25	25	25	25	25	25	25	25	25	25	25	25	25	25	25	25	25	25	25	25	25	25	26	26	26	26	26	26	26	26	26	26	26	26	26	26	26	26	26	26	26	26	26	26	26	26	26	26	26	27	27	27	27	27	27	28	28	28	28	28	28	28	28	28	28	28	28	28	28	28	28	28	28	28	29	29	29	29	29	29	30	30	30	30	30	30	30	30	30	30	30	30	30	30	30	30	30	30	30	30	31	31	31	31	31	31	31	32	32	32	32	32	32	32	32	32	32	32	32	32	33	33	33	33	32	32	33	33	33	33	33	33	33	34	34	34	34	34	34	34	34	34	34	34	34	34	34	34	34	34	34	34	34	35	35	35	35	35	34	34	34	34	34	34	34	34	34	34	34	35	35	35	35	35	35	35	35	35	35	35	35	35	35	35	35	35	35	35	35	36	36	37	37	37	37	37	37	37	37	37	37	38	38	38	37	38	38	38	38	38	39	39	39	39	40	39	39	39	39	39	39	40	40	41	41	41	41	41	41	41	41	41	41	41	41	41	42	42	42	42	42	42	42	42	42	42	42	42	42	42	42	42	42	43	42	41	42	43	44	45	45	46	46	46	46	46	46	46	46	46	47	47	48	48	47	47	48	49	49	49	49	49	49	50	50	50	51	51	52	52	52	53	53	53	53	54	55	55	57	58	59	59	59	59	60	60	60	61	61	61	61	61	61	62	62	63	63	63	63	64	64	64	64	64	64	65	66	68	69	70	70	70	71	71	71	71	72	72	72	72	73	73	74	74	74	75	75	75	76	76	76	76	76	77	77	78	79	79	79	79	79	79	80	82	85	88	90	93	94	94	95	96	96	95	94	93	92	91	90	89	89	88	88	88	87	87	86	85	83	82	83	85	85	84	84	85	86	86	87	88	88	89	90	91	92	93	94	95	96	96	97	97	97	98	99	101	102	104	105	107	109	111	114	116	118	120	122	124	125	126	126	127	127	127	129	132	134	135	137	138	140	141	142	143	144	145	146	147	147	148	150	151	153	154	156	158	159	160	160	161	162	162	163	163	164	166
8	7	7	7	8	8	8	8	8	8	8	9	9	10	9	9	9	9	9	10	10	10	10	10	10	10	10	9	9	9	9	9	9	9	9	9	9	9	9	9	9	9	9	9	9	9	9	9	9	9	9	9	9	9	9	9	9	9	9	8	8	8	9	10	10	11	10	10	10	10	10	11	11	11	11	11	11	11	11	11	11	11	12	12	12	12	12	13	13	13	13	13	13	13	13	12	12	13	13	13	13	13	13	13	13	13	13	13	13	13	13	13	13	12	12	12	12	12	12	12	13	13	13	13	13	13	13	13	13	12	12	12	12	13	13	13	13	13	13	13	13	13	13	13	13	13	13	13	13	13	13	13	13	13	13	14	14	14	14	14	14	14	14	14	14	14	15	14	14	14	14	14	14	14	15	14	14	14	14	14	15	14	14	13	13	12	11	11	11	12	13	14	14	15	15	15	15	15	15	15	15	15	15	15	15	15	15	15	15	15	15	15	15	15	16	16	16	16	15	15	15	15	15	16	16	16	16	16	16	16	16	16	16	16	16	16	16	16	16	16	16	16	16	16	16	16	16	16	16	16	16	16	16	16	16	16	16	16	16	16	17	16	16	16	16	16	16	16	16	16	17	17	17	17	17	17	17	17	17	17	17	17	17	17	17	17	17	17	17	17	17	17	18	18	18	18	18	18	18	18	18	18	18	18	18	18	18	18	18	18	18	18	18	18	18	18	18	18	18	18	18	18	19	19	19	19	19	19	19	19	19	19	19	19	19	19	19	19	19	19	19	19	19	19	19	19	20	20	20	20	20	20	20	20	20	20	20	20	20	20	21	21	22	22	22	22	22	22	22	22	22	22	22	22	22	22	22	22	22	22	22	22	22	22	22	22	22	22	21	21	22	22	22	22	22	22	22	22	22	22	22	22	23	23	23	23	23	23	23	23	23	23	23	23	24	24	24	24	24	24	24	24	24	24	25	25	25	25	25	25	25	25	25	25	25	25	25	25	25	25	25	25	25	25	25	25	25	25	25	25	25	25	25	26	26	26	26	26	26	26	26	26	26	26	26	26	26	26	26	26	26	26	26	26	26	26	26	26	26	26	26	26	27	27	27	27	27	27	28	28	28	28	28	28	28	28	28	28	28	28	28	28	28	28	28	28	28	29	29	29	29	29	30	30	30	30	30	30	30	30	30	30	30	30	30	30	30	30	30	30	30	30	30	31	31	31	31	31	32	32	32	32	32	32	32	32	32	32	32	32	32	32	33	33	33	33	33	33	32	33	33	33	33	33	33	33	33	34	34	34	34	34	34	34	34	34	34	34	34	34	34	34	34	35	34	34	34	34	35	34	34	34	34	34	34	34	34	34	34	34	34	34	35	35	35	35	35	35	35	35	35	35	35	35	35	35	35	35	35	35	35	35	36	36	37	37	37	37	37	37	37	37	37	37	38	38	37	38	38	38	38	38	39	39	39	39	40	39	39	39	39	39	39	39	40	40	41	41	41	41	41	41	41	41	41	41	42	41	41	42	42	42	42	42	42	42	42	41	41	41	42	42	42	42	42	42	42	41	41	43	44	45	45	45	46	46	46	46	46	46	46	46	46	47	47	48	48	48	47	48	48	49	49	49	49	49	50	50	51	52	52	52	52	52	52	53	53	53	54	55	56	57	58	59	59	59	59	60	60	60	61	61	61	61	61	62	62	62	63	63	63	63	64	64	64	64	64	64	65	67	69	69	70	70	70	71	71	71	71	71	71	72	72	73	73	73	74	74	74	75	75	75	76	76	76	76	77	78	79	79	79	79	79	79	79	79	81	84	87	89	90	90	91	91	92	91	90	88	87	86	85	84	84	84	84	84	84	83	83	81	80	78	78	81	83	84	84	84	85	86	86	87	87	88	89	90	92	93	94	95	95	96	96	97	97	97	98	99	101	102	104	105	107	109	112	116	118	120	121	123	124	125	126	126	127	127	127	129	132	134	135	137	139	140	141	142	143	144	145	146	147	148	149	150	152	153	154	156	157	158	159	160	161	161	162	162	163	164	165
8	7	7	7	7	8	8	8	8	8	9	9	10	10	10	10	10	9	10	10	10	10	10	10	10	10	9	9	9	9	9	9	9	9	9	9	9	9	9	9	9	9	9	9	9	9	9	9	9	9	9	9	9	9	9	9	9	8	8	8	8	8	9	10	10	11	10	10	10	10	10	10	10	11	11	11	11	11	11	11	11	11	11	12	12	12	12	13	13	13	13	13	13	13	12	12	12	12	12	13	13	13	13	13	13	13	13	13	13	13	13	13	13	12	12	12	12	12	12	12	12	13	13	13	13	13	13	13	12	12	12	12	12	13	13	13	13	13	13	13	13	12	13	12	12	13	13	13	13	13	13	13	13	13	14	14	14	14	14	14	14	14	14	14	15	15	14	14	14	14	14	14	14	14	15	14	14	14	14	15	14	13	13	12	11	10	10	12	13	14	14	15	15	15	15	15	15	15	15	15	15	15	15	15	15	15	15	15	15	15	15	15	15	15	16	16	16	15	15	15	15	15	15	15	16	16	16	16	16	16	16	16	16	16	16	16	16	16	16	16	16	16	16	16	16	16	16	16	16	16	16	16	16	16	16	16	16	16	16	16	17	16	16	16	16	16	16	16	16	17	17	17	17	17	17	17	17	17	17	17	17	17	17	17	17	17	17	17	17	17	17	17	17	18	18	18	18	18	18	18	18	18	18	18	18	18	18	18	18	18	18	18	18	18	18	18	18	18	18	18	18	18	18	19	19	19	19	19	19	19	19	19	19	19	19	19	19	19	19	19	19	19	19	19	19	19	20	20	20	20	20	20	20	20	20	20	20	20	20	20	20	21	21	22	22	22	22	22	22	22	22	22	22	22	22	22	22	22	22	22	22	22	22	22	22	21	21	21	21	21	22	22	22	22	22	22	22	22	22	22	22	22	22	23	23	23	23	23	23	23	23	23	23	23	24	24	24	24	24	24	24	24	24	24	25	25	25	25	25	25	25	25	25	25	25	25	25	25	25	25	25	25	25	25	25	25	25	25	25	25	26	26	26	26	26	26	26	26	26	26	26	26	26	26	26	26	26	26	26	26	26	26	26	26	26	26	26	26	26	26	26	26	26	27	27	27	27	27	28	28	28	28	28	28	28	28	28	28	28	28	28	28	28	28	28	28	29	29	29	29	29	30	30	30	30	30	30	30	30	30	30	30	30	30	30	30	30	30	30	30	30	30	30	31	31	31	31	32	32	32	32	32	32	32	32	32	32	32	32	32	32	32	33	33	33	33	33	33	33	33	33	33	33	33	33	33	33	33	34	34	34	34	34	34	34	34	34	34	34	34	34	35	35	35	35	34	34	34	34	34	34	34	34	34	34	34	34	34	34	34	34	34	35	35	35	35	35	35	35	35	35	35	35	35	35	35	35	35	35	35	35	35	36	36	36	36	37	37	37	37	37	37	37	37	38	38	37	38	38	38	38	38	39	39	39	40	40	39	39	39	39	39	39	39	39	40	41	41	41	41	41	41	41	41	41	41	41	41	41	42	42	42	42	42	42	42	41	41	41	41	42	42	42	42	42	42	42	41	42	43	44	45	45	45	46	46	46	46	46	46	46	46	47	47	47	48	48	48	48	48	49	49	49	49	49	49	50	51	52	52	52	52	52	52	52	53	53	54	54	56	57	58	58	59	59	59	59	60	60	60	60	61	61	61	62	62	62	62	62	63	63	63	64	64	64	64	64	65	65	66	68	69	70	70	70	70	70	71	71	71	71	71	72	72	73	73	73	74	74	74	75	75	75	76	76	76	77	79	79	79	79	79	79	79	79	79	80	82	86	87	88	88	87	87	86	85	85	84	84	83	82	82	82	81	81	80	80	79	79	78	77	77	78	81	83	84	84	84	85	86	86	87	87	88	89	91	92	93	94	95	95	96	96	96	97	97	98	99	100	102	104	106	107	110	114	118	120	121	122	123	125	126	126	126	127	127	127	129	132	134	135	137	138	140	141	142	143	144	145	146	147	148	149	150	152	153	154	156	157	158	159	160	160	161	161	162	163	163	164
8	8	7	7	7	8	8	8	8	9	9	10	10	10	10	10	10	10	10	10	10	10	10	10	10	9	9	9	9	9	9	9	9	9	9	9	9	9	9	9	9	9	8	9	9	9	9	9	9	9	9	9	9	9	9	9	8	8	8	8	8	8	9	10	10	10	10	10	10	10	10	10	10	10	10	10	11	11	11	11	11	11	11	12	12	12	12	13	13	13	13	13	13	12	12	12	12	12	12	12	13	13	13	13	13	13	13	13	13	13	13	13	12	12	12	12	12	12	12	12	12	12	12	12	13	13	13	13	12	12	12	12	12	13	13	13	13	13	12	12	13	13	13	13	12	13	13	13	13	13	13	13	13	13	14	14	14	14	14	14	14	14	14	14	15	14	14	14	14	14	14	14	14	14	15	14	14	14	14	14	13	12	11	10	10	11	12	13	14	15	15	15	15	15	15	15	15	15	15	15	15	15	15	15	15	15	15	15	15	15	15	15	15	15	16	16	15	15	15	15	15	15	15	15	16	16	16	16	16	16	16	16	16	16	16	16	16	16	16	16	16	16	16	16	16	16	16	16	16	16	16	16	16	16	16	16	16	16	16	16	16	16	16	16	16	16	16	16	17	17	17	17	17	17	17	17	17	17	17	17	17	17	17	17	17	17	17	17	17	17	17	17	17	18	18	18	18	18	18	18	18	18	18	18	18	18	18	18	18	18	18	18	18	18	18	18	18	18	18	18	18	18	18	19	19	19	19	19	19	19	19	19	19	19	19	19	19	19	19	19	19	19	19	19	19	19	20	20	20	20	20	20	20	20	20	20	20	20	20	20	20	21	21	21	22	22	22	22	22	22	22	22	22	22	22	22	22	22	22	22	22	22	22	22	22	21	21	21	21	22	22	22	22	22	22	22	22	22	22	22	22	22	22	23	23	23	23	23	23	23	23	23	23	23	24	24	24	24	24	24	24	24	24	24	25	25	25	25	25	25	25	25	25	25	25	25	25	25	25	25	25	25	25	25	25	25	25	25	25	25	26	26	26	26	26	26	26	26	26	26	26	26	26	26	26	26	26	26	26	26	26	26	26	26	26	26	26	26	26	26	26	26	26	26	27	27	27	27	28	28	28	28	28	28	28	28	28	28	28	28	28	28	28	28	28	28	29	29	29	29	29	30	30	30	30	30	30	30	30	30	30	30	30	30	30	30	30	30	30	30	30	30	30	31	31	31	31	32	32	32	32	32	32	32	32	32	32	32	32	32	32	32	33	33	33	33	33	33	33	33	33	33	33	33	33	33	33	33	33	34	34	34	34	34	34	34	34	34	34	34	35	35	35	35	35	35	34	34	34	34	34	34	34	34	34	34	34	34	34	34	34	34	34	35	35	35	35	35	35	35	35	35	35	35	35	35	35	35	35	35	35	35	36	36	36	36	36	37	37	37	37	37	37	37	38	38	37	38	38	38	38	38	39	39	39	39	40	39	39	39	39	39	39	39	40	40	40	41	41	41	41	41	40	40	40	41	41	41	41	41	42	42	42	42	41	41	41	41	41	41	41	42	42	42	42	42	41	41	42	44	44	44	45	45	45	46	46	46	46	46	46	46	47	47	47	48	48	49	49	49	49	49	49	49	50	50	51	52	53	53	53	53	53	53	53	53	54	55	56	56	57	57	58	59	59	59	59	59	60	60	60	61	61	61	62	62	62	62	62	62	63	63	63	64	64	65	65	65	65	66	67	67	68	69	70	70	70	70	71	71	71	71	72	72	72	73	73	73	74	74	74	75	75	75	75	76	77	79	79	79	79	79	79	79	79	79	79	82	84	85	85	85	84	84	82	81	81	82	82	81	81	80	79	79	78	77	77	77	77	77	77	77	79	81	82	84	84	84	85	85	86	87	87	88	90	91	93	94	95	95	95	95	96	96	96	97	97	98	100	102	104	106	108	111	115	119	121	122	123	124	125	126	126	126	127	127	127	130	132	134	135	137	138	139	140	142	142	143	144	145	147	148	149	150	152	153	154	155	156	157	158	159	160	160	161	162	162	163	163
8	8	8	7	7	7	7	8	8	9	9	10	10	10	10	10	10	10	10	10	10	10	10	10	10	9	9	9	9	9	9	9	9	9	9	9	9	9	9	9	9	8	8	8	8	8	9	9	9	9	9	9	9	9	8	8	8	8	8	8	8	9	9	10	11	10	10	10	10	10	10	10	10	10	10	10	10	10	10	11	11	11	11	11	12	12	12	12	12	13	13	12	12	12	12	12	12	12	12	12	12	12	12	13	13	13	13	13	12	12	12	12	12	12	12	12	12	12	12	12	12	12	12	12	12	13	13	13	12	12	12	12	12	12	13	13	12	12	13	13	13	13	13	13	13	13	13	13	13	13	13	13	13	13	14	14	14	14	14	14	14	14	14	14	15	14	14	14	14	14	14	14	14	14	14	14	15	14	13	12	11	11	10	10	11	12	14	14	15	15	15	15	15	15	15	15	15	15	15	15	15	15	15	15	15	15	15	15	15	15	15	15	15	15	15	15	15	15	15	15	15	15	15	15	15	16	16	16	16	16	16	16	16	16	16	16	16	16	16	16	16	16	16	16	16	16	16	16	16	16	16	16	16	16	16	16	16	16	16	16	16	16	16	16	16	16	16	16	16	17	17	17	17	17	17	17	17	17	17	17	17	17	17	17	17	17	17	17	17	17	17	17	17	17	18	18	18	18	18	18	18	18	18	18	18	18	18	18	18	18	18	18	18	18	18	18	18	18	18	18	18	18	18	18	19	19	19	19	19	19	19	19	19	19	19	19	19	19	19	19	19	19	19	19	19	20	20	20	20	20	20	20	20	20	20	20	20	20	20	20	20	20	21	21	22	22	22	22	22	22	22	22	22	22	22	22	22	22	22	22	22	22	22	22	22	22	21	21	22	22	22	22	22	22	22	22	22	22	22	22	22	22	22	23	23	23	23	23	23	23	23	23	23	23	23	24	24	24	24	24	24	24	24	24	24	24	25	25	25	25	25	25	25	25	25	25	25	25	25	25	25	25	25	25	25	25	25	25	25	26	26	26	26	26	26	26	26	26	26	26	26	26	26	26	26	26	26	26	26	26	26	26	26	26	26	26	26	26	26	26	26	26	26	26	27	27	27	27	28	28	28	28	28	28	28	28	28	28	28	28	28	28	28	28	28	28	29	29	29	29	29	29	29	29	30	30	30	30	30	30	30	30	30	30	30	30	30	30	30	30	30	30	30	31	31	31	31	32	32	32	32	32	32	31	31	32	32	32	32	32	32	32	33	33	33	33	33	33	33	33	32	32	33	33	33	33	33	33	33	34	34	34	34	34	34	34	34	34	34	35	35	35	35	35	35	35	35	34	35	35	35	34	34	34	34	34	34	34	34	35	35	35	35	35	35	35	35	35	35	35	35	35	35	35	35	35	35	35	35	35	35	35	36	36	36	36	36	37	37	37	37	37	37	37	37	38	37	38	38	38	38	38	39	39	39	39	40	39	39	39	39	39	39	40	40	40	40	40	40	40	40	40	40	40	40	40	40	40	41	41	42	42	42	41	41	41	41	41	41	41	41	42	42	42	42	41	40	41	43	44	44	44	45	45	45	46	46	46	46	46	46	47	47	47	47	47	48	49	49	50	50	50	50	50	50	50	52	53	54	54	54	55	54	54	54	55	55	56	56	57	57	57	58	58	59	59	59	59	59	60	60	60	61	61	61	62	62	62	62	62	63	63	63	64	64	65	65	65	65	65	65	66	66	67	69	70	70	70	70	71	71	71	71	72	72	72	73	73	73	74	74	74	75	75	75	75	76	77	78	79	79	79	79	79	79	79	80	82	83	83	83	83	82	81	80	79	80	80	81	80	80	78	77	76	76	75	76	77	77	77	77	77	79	80	82	83	84	84	85	85	86	87	87	88	90	92	94	94	95	95	95	95	95	96	96	97	97	98	100	102	104	106	108	111	116	120	121	122	123	124	125	125	126	126	127	127	127	129	132	134	135	136	137	139	140	141	142	143	144	145	147	148	149	150	151	153	154	155	156	157	158	158	159	160	160	161	162	162	163
9	9	8	8	7	7	7	7	8	8	9	10	10	10	10	10	10	10	10	10	10	10	10	10	9	9	9	9	9	9	9	9	9	9	9	9	9	9	9	9	9	8	8	8	8	8	8	8	9	9	9	9	8	8	8	8	8	8	8	9	9	9	10	10	11	10	10	10	10	10	10	10	10	10	10	10	10	10	10	10	11	11	11	11	12	12	12	12	12	12	12	12	12	12	12	12	12	12	12	12	12	12	12	12	12	12	12	12	12	12	12	12	12	12	12	12	12	12	12	12	12	12	12	12	12	12	12	12	12	12	12	12	12	12	13	12	13	13	13	13	13	13	13	13	13	13	13	13	13	13	13	13	13	13	14	14	14	14	14	14	14	14	14	14	15	14	14	14	14	15	15	15	15	15	14	15	14	14	12	11	10	10	10	12	13	14	15	15	15	15	15	15	15	15	15	15	15	15	15	15	15	15	15	15	15	15	15	15	15	15	16	16	15	15	15	15	15	15	15	15	15	15	15	15	15	16	16	16	16	16	16	16	16	16	16	16	16	16	16	16	16	16	16	16	16	16	16	16	16	16	16	16	16	16	16	16	16	16	16	16	16	16	16	16	16	16	16	16	16	17	17	17	17	17	17	17	17	17	17	17	17	17	17	17	17	17	17	17	17	17	17	17	17	17	17	18	18	18	18	18	18	18	18	18	18	18	18	18	18	18	18	18	18	18	18	18	18	18	18	18	18	18	18	18	19	19	19	19	19	19	19	19	19	19	19	19	19	19	19	19	19	19	19	19	19	20	20	20	20	20	20	20	20	20	20	20	20	20	20	20	20	20	21	21	22	22	22	22	22	22	22	22	22	22	22	22	22	22	22	22	22	22	22	22	22	22	22	22	22	22	22	22	22	22	22	22	22	22	22	22	22	22	22	22	23	23	23	23	23	23	23	23	23	23	23	24	24	24	24	24	24	24	24	24	24	24	24	24	25	25	25	25	25	25	25	25	25	25	25	25	25	25	25	25	25	25	25	25	26	26	26	26	26	26	26	26	26	26	26	26	26	26	26	26	26	26	26	26	26	26	26	26	26	26	26	26	26	26	26	26	26	26	27	27	27	27	27	27	27	28	28	28	28	28	28	28	28	28	28	28	28	28	28	28	28	28	29	29	29	29	29	29	29	29	29	29	30	30	30	30	30	30	30	30	30	30	30	30	30	30	30	30	30	31	31	31	31	32	32	32	32	32	31	31	31	32	32	32	32	32	32	32	32	32	33	33	33	33	33	33	33	32	32	33	33	33	33	33	34	34	34	34	34	34	34	34	34	34	35	35	35	35	35	35	35	35	35	34	35	35	35	35	35	35	34	34	34	35	35	35	35	35	36	36	35	35	35	35	35	35	35	35	35	35	35	35	35	35	35	35	35	35	36	36	36	36	36	37	37	37	37	37	37	37	37	38	37	38	38	38	38	38	38	39	39	39	40	39	39	39	39	39	39	40	40	40	40	40	40	40	40	40	40	40	40	40	40	40	40	41	41	41	41	41	41	41	41	41	41	41	41	42	42	42	41	40	41	42	43	43	44	44	44	45	45	45	46	46	47	47	47	47	47	47	47	47	48	49	50	50	50	50	50	50	50	50	52	54	55	55	56	56	56	56	56	56	56	56	57	57	57	57	58	58	58	59	59	59	59	60	60	60	60	61	61	61	61	62	62	62	62	63	63	63	64	65	65	65	65	65	65	65	65	65	68	70	70	70	70	70	70	71	71	71	72	72	72	73	73	73	74	74	74	75	75	75	75	75	76	78	79	79	79	79	79	79	80	81	81	81	81	81	80	79	79	79	80	80	80	80	79	77	76	75	75	75	76	77	77	77	77	78	79	80	81	82	83	84	85	85	86	87	87	89	91	93	94	94	94	94	94	95	95	96	96	97	97	98	100	102	104	106	108	112	116	120	121	122	123	124	125	126	126	126	127	127	127	129	132	133	135	136	137	138	139	141	142	143	144	145	146	148	149	150	151	152	153	154	155	156	157	158	158	159	160	161	161	162	162
9	9	8	8	8	7	7	7	7	8	9	10	10	10	10	10	10	10	10	10	10	10	10	9	9	9	9	9	9	9	9	9	9	9	9	9	9	9	9	9	8	8	8	8	8	8	8	8	8	8	8	8	8	8	8	8	9	9	9	9	9	10	10	10	11	10	10	10	10	10	10	10	10	10	10	10	10	10	10	10	10	11	11	11	11	12	12	12	12	12	12	12	12	12	12	12	12	12	12	12	12	12	12	12	12	12	12	12	12	12	12	12	12	12	12	11	11	12	12	12	12	12	12	12	12	12	12	12	12	12	12	12	12	13	13	12	13	13	13	13	13	13	13	13	13	13	13	13	13	13	13	13	13	14	14	14	14	14	14	14	14	14	14	14	15	15	14	14	15	14	14	14	14	14	14	14	14	13	11	10	10	11	12	14	14	15	15	15	15	15	15	15	15	15	15	15	15	15	15	15	15	15	15	15	15	15	15	15	15	16	16	16	15	15	15	15	15	15	15	15	15	15	15	15	15	15	16	16	16	16	16	16	16	16	16	16	16	16	16	16	16	16	16	16	16	16	16	16	16	16	16	16	16	16	16	16	16	16	16	16	16	16	16	16	16	16	16	16	16	16	17	17	17	17	17	17	17	17	17	17	17	17	17	17	17	17	17	17	17	17	17	17	17	17	17	18	18	18	18	18	18	18	18	18	18	18	18	18	18	18	18	18	18	18	18	18	18	18	18	18	18	18	18	18	18	19	19	19	19	19	19	19	19	19	19	19	19	19	19	19	19	19	19	19	19	20	20	20	20	20	20	20	20	20	20	20	20	20	20	20	20	20	21	21	22	22	22	22	22	22	22	22	22	22	22	22	22	22	22	22	22	22	22	22	22	22	22	22	22	22	22	22	22	22	22	22	22	22	22	22	22	22	22	22	22	23	23	23	23	23	23	23	23	23	23	23	24	24	24	24	24	24	24	24	24	24	24	24	24	24	25	25	25	25	25	25	25	25	25	25	25	25	26	25	25	25	25	26	26	26	26	26	26	26	26	26	26	26	26	26	26	26	26	26	26	26	26	26	26	26	26	26	26	26	26	26	26	26	26	26	26	27	27	27	27	27	27	27	27	28	28	28	28	28	28	28	28	28	28	28	28	28	28	28	28	28	28	28	28	28	29	29	29	29	29	29	29	29	30	30	30	30	30	30	30	30	30	30	30	30	30	30	30	31	31	31	31	32	32	32	32	32	31	31	31	31	31	32	32	32	32	32	32	32	33	33	33	33	33	33	33	33	33	33	33	33	33	34	34	34	34	34	34	34	34	34	34	34	35	35	35	35	35	35	35	35	34	34	35	35	35	35	35	35	35	35	35	35	35	35	35	36	36	36	36	36	35	35	35	35	35	35	35	35	35	35	35	35	35	35	35	35	36	36	36	36	36	37	37	37	37	37	37	37	37	38	37	38	38	38	38	38	38	39	39	39	40	39	39	39	39	39	39	40	40	40	40	40	40	40	40	40	40	40	40	40	40	40	40	40	40	41	41	41	41	41	41	41	41	41	42	42	42	42	41	40	41	42	43	43	44	44	44	45	45	45	46	46	46	47	47	47	47	47	47	47	47	49	50	50	50	50	50	50	50	50	52	54	55	55	55	56	56	56	56	56	56	56	57	57	57	57	58	58	58	59	59	59	59	59	60	60	60	61	61	61	61	61	61	61	62	62	63	63	64	65	65	65	65	65	65	65	65	65	67	70	70	70	70	70	70	70	71	71	71	72	72	72	73	73	73	74	74	74	74	74	74	73	74	76	79	80	79	79	79	79	80	80	80	80	80	79	79	79	79	79	80	80	80	80	79	77	75	75	75	76	76	77	78	78	78	78	79	80	81	82	83	84	85	85	86	86	87	88	90	92	94	94	94	94	94	95	95	95	96	96	97	98	100	102	104	106	109	112	116	120	121	122	123	124	125	126	126	126	127	127	127	129	131	133	134	135	136	137	138	140	141	142	144	145	146	147	149	150	151	152	153	154	155	156	156	157	158	159	159	160	161	161	162
9	9	9	8	8	8	8	8	8	8	9	9	10	10	10	10	10	10	10	10	10	10	10	9	9	9	9	9	9	9	9	9	9	9	8	8	8	8	8	8	8	8	8	8	8	8	8	8	8	8	8	8	8	8	8	9	9	9	9	10	10	10	10	11	11	10	10	10	10	10	10	10	10	10	10	10	10	10	10	10	10	10	11	11	11	11	11	12	12	12	12	12	12	12	12	12	12	12	12	12	12	12	12	12	12	12	12	12	12	12	12	12	12	12	11	11	11	11	11	12	12	12	12	12	12	12	12	12	12	12	12	12	12	13	13	13	13	13	13	13	13	13	13	13	13	13	13	13	13	13	13	13	13	14	14	14	14	14	14	14	14	14	14	14	14	14	15	15	14	14	14	14	14	14	14	14	13	11	10	10	11	13	14	14	15	15	15	15	15	14	15	15	15	15	15	15	15	15	15	15	15	15	15	15	15	15	15	16	16	16	16	15	15	15	15	15	15	15	15	15	15	15	15	15	15	15	16	16	16	16	16	16	16	16	16	16	16	16	16	16	16	16	16	16	16	16	16	16	16	16	16	16	16	16	16	16	16	16	16	16	16	16	16	16	16	16	16	16	16	16	16	16	16	17	17	17	17	17	17	17	17	17	17	17	17	17	17	17	17	17	17	17	17	17	17	17	18	18	18	18	18	18	18	18	18	18	18	18	18	18	18	18	18	18	18	18	18	18	18	18	18	18	18	18	18	19	19	19	19	19	19	19	19	19	19	19	19	19	19	19	19	19	19	19	19	20	20	20	20	20	20	20	20	20	20	20	20	20	20	20	20	20	20	21	21	22	22	22	22	22	22	22	22	22	22	22	22	22	22	22	22	22	22	22	22	22	22	22	22	22	22	22	22	22	22	22	22	22	22	22	22	22	22	22	22	22	23	23	23	23	23	23	23	23	23	23	23	24	24	24	24	24	24	24	24	24	24	24	24	24	24	25	25	25	25	25	25	25	25	25	25	26	26	26	26	25	26	26	26	26	26	26	26	26	26	26	26	26	26	26	26	26	26	26	26	26	26	26	26	26	26	26	26	26	26	26	26	26	26	26	26	27	27	27	27	27	27	27	28	28	28	28	28	28	28	28	28	28	28	28	28	28	28	28	28	28	28	28	28	28	28	28	28	29	28	29	29	29	29	30	30	30	30	30	30	30	30	30	30	30	30	30	30	31	31	31	31	32	32	32	32	32	31	31	31	31	31	31	32	32	32	32	32	32	33	33	33	33	33	33	33	33	33	33	33	33	33	34	34	34	34	34	34	34	34	34	34	35	35	35	35	35	35	35	35	34	34	35	35	35	35	35	35	35	35	35	35	35	35	35	36	36	36	36	36	36	36	35	35	35	35	35	35	35	35	35	35	35	35	35	35	35	36	36	36	36	37	37	37	37	37	37	37	37	37	38	37	37	38	38	38	38	38	38	39	39	40	39	39	39	39	39	39	39	40	40	40	40	40	40	40	40	40	40	40	40	40	40	40	40	40	40	41	41	41	41	41	41	41	41	42	42	42	41	40	41	42	43	43	43	44	44	44	45	45	45	46	46	46	47	47	47	47	47	47	47	47	49	50	50	50	50	50	50	50	50	52	54	55	55	55	55	56	56	56	56	56	57	57	57	57	57	57	58	58	58	59	59	59	59	60	60	60	60	61	61	61	61	61	61	61	62	63	63	64	64	64	64	64	65	65	65	65	65	67	69	70	69	69	69	70	70	70	70	71	71	72	72	72	73	73	73	74	74	74	73	73	73	73	75	78	79	79	79	79	79	79	80	80	80	79	79	79	80	79	79	79	80	80	79	78	76	74	75	75	76	77	78	79	79	79	79	80	81	82	83	84	84	85	85	86	86	86	88	90	92	94	94	94	94	94	94	95	95	96	96	97	97	99	102	104	106	109	112	116	120	121	122	123	124	125	126	126	126	127	127	127	129	131	132	133	134	135	136	138	139	141	142	143	145	146	147	148	150	151	152	152	153	154	155	156	156	157	158	159	160	160	161	162
9	9	9	9	9	8	8	8	8	9	9	9	9	9	10	10	10	10	10	10	10	10	9	9	9	9	9	9	9	9	9	9	9	8	8	8	8	8	8	8	8	8	8	8	8	8	8	8	8	8	8	8	8	9	9	9	9	9	10	10	10	10	11	11	11	11	10	10	10	10	10	10	10	10	10	10	10	10	10	10	10	10	11	11	11	11	11	11	11	12	12	12	12	12	12	11	11	11	11	11	11	11	11	11	11	11	12	12	12	12	12	12	12	11	11	11	11	11	11	11	12	12	12	12	12	12	12	12	12	12	12	13	13	13	13	12	13	13	13	13	13	13	13	13	13	13	13	13	13	13	13	13	13	13	14	14	14	14	14	14	14	14	14	14	14	14	14	14	14	14	14	14	14	14	14	13	11	10	10	11	13	14	15	15	14	14	15	14	14	14	14	15	15	15	15	15	15	15	15	15	15	15	15	15	15	15	16	16	15	15	15	15	15	15	15	15	15	15	15	15	15	15	15	15	15	15	16	16	16	16	16	16	16	16	16	16	16	16	16	16	16	16	16	16	16	16	16	16	16	16	16	16	16	16	16	16	16	16	16	16	16	16	16	16	16	16	16	16	16	16	16	16	16	17	17	17	17	17	17	17	17	17	17	17	17	17	17	17	17	17	17	17	17	17	17	17	17	18	18	18	18	18	18	18	18	18	18	18	18	18	18	18	18	18	18	18	18	18	18	18	18	18	18	18	18	19	19	19	19	19	19	19	19	19	19	19	19	19	19	19	19	19	19	19	19	20	20	20	20	20	20	20	20	20	20	20	20	20	20	20	20	20	20	21	21	21	22	22	22	22	22	22	22	22	22	22	22	22	22	22	22	22	22	22	22	22	22	22	22	22	22	22	22	22	22	22	22	22	22	22	22	22	22	22	22	22	22	22	23	23	23	23	23	23	23	23	23	23	23	24	24	24	24	24	24	24	24	24	24	24	24	25	25	25	25	25	25	25	25	25	25	25	26	26	26	26	26	26	26	26	26	26	26	26	26	26	26	26	26	26	26	26	26	26	26	26	26	26	26	26	26	26	26	26	26	26	26	26	26	26	26	27	27	27	27	27	28	28	28	28	28	28	28	28	28	28	28	28	28	28	28	28	28	28	28	28	28	28	28	28	28	28	28	28	28	28	29	29	29	30	30	30	30	30	30	30	30	30	30	30	30	30	31	31	31	31	31	32	32	32	32	32	31	31	31	31	31	31	32	32	32	32	32	32	33	33	33	33	33	33	33	33	33	33	33	33	33	34	34	34	34	34	34	34	34	34	34	35	35	35	35	35	35	35	35	35	35	35	35	35	35	35	35	35	35	35	35	35	35	36	36	36	36	36	36	36	36	36	35	35	35	35	35	35	35	35	35	35	35	35	35	36	36	36	36	36	37	37	37	37	37	37	37	37	37	38	38	37	37	38	38	38	38	38	39	39	40	39	39	39	39	39	39	40	40	40	40	40	40	40	40	40	40	40	40	40	40	40	40	40	40	41	41	41	41	41	41	41	41	42	42	42	41	40	40	41	42	43	43	44	44	44	44	45	45	45	46	46	46	47	47	47	47	47	47	47	48	49	50	50	50	50	50	50	50	50	52	54	55	55	55	55	56	56	56	56	56	57	57	57	57	57	57	58	58	58	58	59	59	59	60	60	60	60	61	61	61	61	61	61	61	61	62	63	64	64	64	65	64	64	65	65	65	65	66	67	68	68	68	69	69	70	70	70	70	71	71	72	72	72	73	73	73	73	73	73	73	73	73	74	77	78	78	78	79	79	79	80	80	80	80	80	80	79	79	79	79	79	79	78	76	74	74	75	76	77	78	79	79	80	80	80	80	82	83	84	84	84	85	85	85	86	86	88	90	92	94	94	94	94	94	95	95	95	96	96	96	97	99	101	104	106	109	113	116	120	121	122	123	124	125	125	126	127	127	127	127	128	130	131	132	133	134	135	137	139	140	142	143	144	145	147	148	149	150	151	152	153	154	154	155	156	157	157	158	159	160	160	161
9	9	9	9	9	8	8	8	8	9	9	9	9	9	9	9	9	9	10	10	9	9	9	9	9	9	9	9	9	9	9	9	8	8	8	8	8	8	8	8	8	8	8	8	8	8	8	8	8	8	8	8	9	9	9	9	9	9	10	10	10	10	11	11	11	10	10	10	10	10	10	10	10	10	10	10	10	10	10	10	10	10	10	11	11	10	11	11	11	11	11	11	11	11	11	11	11	11	11	11	11	11	11	11	11	11	11	11	11	11	11	11	11	11	11	11	11	11	11	11	11	12	12	12	12	12	12	12	12	12	12	13	13	13	13	12	13	13	13	13	13	13	13	13	13	13	13	13	13	13	13	13	13	13	14	14	14	14	14	14	14	14	14	14	14	14	14	14	14	14	14	14	14	14	13	11	10	10	11	13	14	15	15	14	14	14	14	14	14	15	14	15	15	15	15	15	15	15	15	15	15	15	15	15	15	15	16	15	15	15	15	15	15	15	15	15	15	15	15	15	15	15	15	15	15	15	16	16	16	16	16	16	16	16	16	16	16	16	16	16	16	16	16	16	16	16	16	16	16	16	16	16	16	16	16	16	16	16	16	16	16	16	16	16	17	16	16	16	16	16	16	16	16	16	17	17	17	17	17	17	17	17	17	17	17	17	16	17	17	17	17	17	17	17	17	17	17	17	18	18	18	18	18	18	18	18	18	18	18	18	18	18	18	18	18	18	18	18	18	18	18	18	18	18	18	18	19	19	19	19	19	19	19	19	19	19	19	19	19	19	19	19	19	19	19	20	20	20	20	20	20	20	20	20	20	20	20	20	20	20	20	20	20	21	21	21	22	22	22	22	22	22	22	22	22	22	22	22	22	22	22	22	22	22	22	22	22	22	22	22	22	22	22	22	22	22	22	22	22	22	22	22	22	22	22	22	22	22	22	22	23	23	23	23	23	23	23	23	23	23	24	24	24	24	24	24	24	24	24	24	25	25	25	25	25	25	25	25	25	25	25	25	25	26	26	26	26	26	26	26	26	26	26	26	26	26	26	26	26	26	26	26	26	26	26	26	26	26	26	26	26	26	26	26	26	26	26	26	26	26	27	27	27	27	28	28	28	28	28	28	28	28	28	28	28	28	28	28	28	28	28	28	28	28	28	28	28	28	28	28	28	28	28	28	28	28	28	29	29	30	30	30	30	30	30	30	30	30	30	30	30	30	31	31	31	31	31	32	32	32	32	32	31	31	31	31	31	31	32	32	32	32	32	32	33	33	33	33	33	33	33	33	33	33	33	34	34	34	34	34	34	34	34	34	34	34	34	35	35	35	35	35	35	35	35	35	35	35	35	35	35	35	35	35	35	35	35	35	35	36	36	36	36	36	36	36	36	36	35	35	35	35	35	35	35	35	35	35	35	36	36	36	36	36	36	36	37	37	37	37	37	37	37	37	38	38	38	38	37	38	38	38	38	38	39	39	39	40	40	40	39	39	39	40	40	40	40	40	40	40	40	40	40	40	40	40	40	40	40	40	40	41	41	41	41	41	41	41	41	42	42	41	40	40	41	42	42	43	43	44	44	44	45	45	45	45	46	46	46	47	47	47	47	47	47	47	48	49	50	50	49	49	50	50	50	50	52	54	55	55	55	55	56	56	56	56	56	57	57	57	57	57	57	58	58	58	58	59	59	59	59	60	60	60	60	60	60	60	60	60	60	61	62	63	63	64	64	64	64	64	64	65	65	65	65	66	67	67	67	68	69	69	70	70	70	71	71	71	72	72	73	73	73	73	73	73	74	74	74	75	76	77	78	78	79	79	79	80	80	80	80	80	79	79	79	79	79	78	77	76	74	73	74	75	76	77	78	79	79	80	80	80	81	82	83	83	84	84	84	85	85	86	86	88	90	92	94	94	94	95	95	95	95	95	96	96	96	97	99	101	104	106	109	112	116	119	121	122	123	123	124	125	126	126	127	127	127	128	129	131	131	132	133	134	136	138	140	141	142	143	145	146	147	148	149	151	151	152	153	154	154	155	156	157	157	158	159	160	161
