411	412	413	414	415	416	418	420	421	423	424	425	426	426	427	427	427	429	430	432	434	436	439	441	442	442	443	442	442	442	442	441	441	441	443	445	447	450	452	455	458	460	463	466	468	471	473	475	477	479	482	484	486	488	491	493	495	496	498	501	503	507	510	512	513	514	515	515	515	514	512	510	507	506	506	506	505	504	504	503	503	502	502	502	502	503	504	504	505	506	507	509	511	513	515	517	519	520	520	519	518	517	516	514	512	510	508	507	505	503	501	498	496	494	493	494	495	496	497	497	498	498	499	501	503	506	509	513	518	522	526	530	534	538	541	544	545	546	547	550	554	558	562	564	566	567	569	571	573	575	575	574	572	571	570	569	569	567	566	565	563	560	557	555	551	548	545	542	539	535	532	529	525	522	518	515	512	509	507	504	502	500	497	496	496	495	495	495	495	496	498	501	503	506	508	511	513	515	518	521	524	526	527	529	531	532	534	536	538	540	542	543	542	540	537	535	533	531	528	524	521	518	516	514	513	512	511	508	506	502	498	494	488	484	481	478	474	468	462	455	451	448	445	442	440	439	437	437	436	434	433	431	430	428	426	424	420	415	409	405	401	398	395	393	391	389	387	385	385	388	392	396	401	407	412	418	424	429	433	437	442	445	447	449	451	452	453	454	455	456	457	458	460	461	462	464	465	466	468	471	474	477	482	487	492	497	502	505	506	505	504	502	500	497	494	492	491	490	489	487	484	482	479	477	474	472	469	466	464	461	459	457	455	453	450	448	446	444	443	441	440	439	438	437	436	436	435	435	435	434	434	434	434	435	435	436	437	438	438	439	440	441	444	446	449	451	452	454	456	458	461	463	466	469	472	474	478	481	483	485	487	488	489	488	487	486	484	481	478	475	473	472	471	469	466	464	462	460	457	455	452	450	448	446	444	442	439	435	435	437	440	446	452	457	461	465	468	471	473	475	477	478	479	480	481	480	480	480	479	479	478	478	478	479	481	483	486	488	492	497	503	508	511	514	517	520	523	527	530	533	536	539	542	545	547	549	551	553	554	556	558	561	564	566	569	571	573	575	576	576	576	575	573	571	569	569	568	568	567	566	564	563	562	561	560	559	557	556	555	554	553	552	551	551	550	548	546	545	545	544	542	540	539	537	535	533	531	529	526	525	523	521	520	519	517	515	513	511	509	507	504	501	497	493	490	488	486	484	482	480	479	478	477	477	477	476	477	479	479	479	478	476	475	473	471	469	467	465	463	461	459	457	456	454	452	451	450	448	447	445	444	442	441	439	437	435	433	432	430	429	428	427	426	425	424	423	422	420	419	417	415	414	412	411	409	407	405	404	402	399	397	394	392	390	387	386	384	382	380	378	377	376	376	375	375	374	373	372	370	369	368	368	367	365	364	363	362	361	360	359	359	358	358	357	357	357	357	356	356	356	356	357	357	357	357	357	357	356	355	355	354	353	353	352	352	351	350	347	345	343	342	340	338	336	336	336	337	337	338	338	338	337	337	336	335	334	334	334	334	334	335	335	335	336	336	336	336	337	338	339	339	340	340	340	339	338	336	334	331	328	325	321	318	315	312	310	308	306	304	301	298	295	294	292	291	290	288	287	286	285	283	282	280	279	277	275	274	273	271	270	268	267	266	265	263	262	261	261	260	260	259	258	258	257	256	256	254	253	252	250	248	246	244	242	241	240	239	238	238	237	237	237	237	237	237	237	236	236	235	235	234	233	232	231	230	228	226	225	224	222	221	220	219	218	217	216	215	214	213	212	211	211	210	209	208	207	206	205	204	203	202	202	201	201
414	415	416	417	418	419	421	423	424	426	427	428	428	429	429	430	430	431	432	433	436	438	441	443	444	445	445	445	445	444	444	444	443	444	445	447	449	451	453	456	459	462	464	467	470	472	474	477	479	481	483	485	488	490	492	494	496	497	499	501	504	507	510	512	513	514	514	514	514	513	511	508	506	505	505	505	504	503	503	502	501	501	500	500	500	501	501	502	503	504	505	507	509	511	514	516	518	519	519	518	517	516	514	512	510	508	507	505	503	501	499	496	494	491	491	491	493	494	495	496	497	497	498	500	503	505	508	513	517	522	526	530	534	538	541	543	544	545	546	549	553	557	560	562	564	565	567	569	572	574	574	571	570	568	568	567	566	565	564	563	561	559	556	553	550	547	544	541	538	534	531	528	525	521	517	514	511	508	506	503	501	498	495	493	492	492	491	491	492	493	495	498	501	504	506	509	511	513	516	519	522	524	526	528	529	531	532	533	535	537	539	540	540	538	535	533	531	528	526	522	519	515	513	511	510	508	507	505	502	499	495	490	485	482	479	476	471	464	457	450	446	442	439	437	436	435	434	433	432	430	429	427	425	423	421	418	414	409	405	402	399	396	394	392	390	388	386	383	384	388	392	396	401	407	413	418	424	428	432	436	440	442	443	445	447	448	449	449	450	451	452	453	455	457	458	460	461	464	467	470	473	476	481	486	491	496	499	503	504	502	500	498	496	494	491	489	488	487	485	484	481	478	476	473	471	468	465	463	460	458	456	454	451	449	446	444	442	441	439	438	437	436	435	434	433	433	432	432	432	431	431	431	432	432	433	433	434	435	436	438	439	441	443	446	449	451	453	455	458	460	463	465	467	470	473	476	479	482	484	486	487	489	489	487	486	485	483	480	477	474	472	470	469	467	464	462	460	457	455	452	450	448	446	444	442	440	437	434	435	437	441	447	452	457	459	462	465	468	471	473	474	475	476	476	477	477	476	476	476	476	476	476	477	479	481	484	486	488	492	498	504	508	511	513	516	518	521	524	528	531	535	537	540	543	545	547	549	550	551	553	556	560	563	566	569	571	574	575	577	577	576	575	573	571	569	568	567	566	565	563	562	561	560	558	557	556	555	554	552	551	550	549	549	548	548	547	546	546	545	544	542	540	539	537	535	533	531	529	527	525	524	523	521	520	518	515	513	510	508	506	503	499	495	491	489	487	485	483	481	480	480	480	480	480	479	479	481	481	481	480	478	477	476	474	472	470	468	466	464	462	460	458	457	455	454	452	451	449	448	447	445	443	442	440	438	436	435	433	432	430	430	429	428	427	426	425	423	421	420	418	417	415	413	411	409	407	406	404	402	399	397	395	393	390	388	386	384	382	380	378	376	375	374	373	373	372	371	370	369	368	367	366	365	364	363	362	361	359	358	357	356	356	355	354	354	354	354	353	353	354	354	354	354	355	355	355	355	354	353	352	351	351	351	350	350	349	348	346	344	342	341	339	337	335	334	334	335	335	336	336	336	335	335	334	333	333	333	333	333	333	333	333	333	334	334	334	334	335	335	336	336	337	337	337	336	335	333	331	329	326	322	319	316	313	310	308	306	304	302	299	296	294	292	291	290	289	287	286	285	283	282	280	279	277	276	274	273	271	270	269	267	266	265	263	262	261	260	259	259	258	258	257	257	256	255	254	253	252	250	248	246	244	243	241	240	239	237	236	236	235	235	235	235	235	235	234	234	233	232	232	231	230	229	228	226	225	223	222	221	220	218	217	216	215	214	213	212	211	210	210	209	208	207	207	206	205	204	203	202	201	200	199	199	198
418	419	420	421	422	422	424	426	427	428	430	431	431	432	432	432	433	433	434	436	437	439	442	444	446	448	448	448	448	447	447	446	446	446	447	448	450	452	454	457	460	463	465	468	471	474	476	478	480	482	484	487	489	491	493	495	496	498	500	502	504	507	510	512	513	514	514	514	513	511	508	506	505	505	504	504	503	502	502	501	500	499	499	499	498	499	499	500	501	502	503	505	507	510	512	515	516	517	517	516	515	514	512	510	508	506	504	503	501	499	497	495	492	490	489	490	491	492	493	494	495	496	498	500	503	505	508	513	517	522	526	530	533	537	540	542	543	544	546	549	553	556	558	560	562	563	565	567	570	572	571	569	568	566	565	564	563	562	561	560	558	556	554	552	549	546	543	540	537	533	530	527	524	520	516	513	510	507	505	502	499	496	494	491	490	490	490	490	490	491	493	496	499	502	504	507	509	511	514	517	520	523	525	527	528	529	530	531	533	534	536	538	538	536	533	531	529	526	524	520	517	513	510	508	507	505	503	501	498	495	491	487	483	479	476	472	467	460	453	447	442	438	436	434	433	432	431	429	428	426	424	422	420	418	416	412	408	404	402	400	397	395	392	391	389	387	385	383	383	387	391	395	401	406	412	418	423	427	432	435	437	438	439	441	443	444	445	445	446	447	447	449	451	453	455	457	460	463	466	469	472	475	479	485	490	494	497	500	501	499	497	495	493	490	488	486	485	483	482	480	478	475	472	470	467	464	462	459	457	455	452	450	447	444	442	440	439	437	436	435	434	434	433	432	431	430	429	429	428	428	428	428	429	429	430	432	434	435	436	437	438	440	443	446	449	452	455	457	459	462	464	467	469	471	474	477	480	483	485	486	488	489	488	487	486	484	482	479	476	474	471	469	467	465	462	460	458	455	452	450	448	446	444	443	441	438	435	432	434	437	441	447	452	456	458	461	463	466	469	470	472	473	474	474	474	474	474	474	474	474	475	475	477	479	482	484	486	489	492	497	502	507	509	511	513	515	518	522	525	528	532	535	537	540	543	544	545	547	549	551	554	558	562	565	568	571	574	575	577	577	576	575	573	571	569	567	566	564	563	561	560	559	557	556	555	554	553	552	550	548	547	546	546	546	546	546	545	545	544	543	541	539	538	536	535	533	530	528	526	526	525	524	522	520	518	515	511	508	506	504	501	498	494	490	488	486	484	483	482	482	482	483	483	483	482	482	483	483	482	480	479	478	476	475	473	471	469	467	465	463	461	459	458	456	455	453	452	451	449	448	446	445	443	441	440	438	436	434	433	432	431	430	429	428	427	426	424	423	421	419	417	416	414	412	410	408	406	404	402	400	397	395	393	391	389	387	385	383	381	379	376	374	373	372	371	370	369	368	367	366	365	364	363	362	361	360	359	357	356	355	354	354	353	352	351	351	351	351	351	351	351	351	352	352	353	352	352	351	350	350	349	349	348	348	348	347	346	345	343	341	339	337	335	334	333	332	333	333	334	334	334	333	333	333	332	332	332	331	332	332	332	332	332	332	332	332	332	333	333	333	334	334	335	335	334	332	330	328	326	323	320	317	314	311	309	307	304	302	299	297	294	293	291	290	289	287	286	285	284	282	281	279	278	276	275	273	272	270	269	268	266	265	263	262	261	260	259	258	257	257	257	256	255	254	253	252	251	250	248	247	245	243	241	240	238	237	236	235	234	233	232	232	232	232	232	231	230	230	229	228	227	226	226	224	223	222	220	219	218	217	216	215	214	213	212	210	209	209	208	207	206	206	205	204	203	202	201	200	199	198	197	196	196	196
421	423	424	425	425	426	427	429	430	431	433	434	435	435	436	436	436	437	437	438	440	441	443	446	448	450	451	451	450	450	449	449	449	449	449	450	452	453	456	458	461	464	466	469	472	475	477	480	482	484	486	488	491	492	494	495	497	499	500	502	505	507	509	512	513	513	513	512	511	508	506	504	504	504	504	503	502	502	501	499	498	497	496	496	496	496	497	498	499	500	501	503	505	507	510	513	514	515	515	514	513	511	510	508	506	504	502	501	499	498	496	494	491	489	488	489	490	491	492	493	494	496	498	501	503	505	508	513	517	522	526	529	532	535	538	541	542	543	545	549	552	554	557	559	560	561	562	564	567	568	567	566	565	564	562	561	560	559	558	557	555	554	552	549	547	545	542	539	536	532	529	526	522	519	516	513	510	507	503	500	497	495	492	490	489	489	489	489	490	490	492	494	497	500	502	505	507	510	512	515	518	521	523	525	527	527	528	529	531	532	534	535	535	534	532	529	527	525	522	519	515	512	509	506	504	502	500	498	495	492	488	484	480	477	473	468	462	456	450	445	440	437	434	432	430	428	427	426	424	422	420	418	416	413	411	407	404	402	400	398	395	393	391	389	388	386	384	382	381	385	390	394	400	405	411	416	421	426	430	432	433	434	436	438	440	440	441	441	442	442	443	444	446	449	452	456	459	462	465	468	471	474	478	483	488	492	495	498	498	496	494	492	490	488	486	484	482	480	479	477	475	472	469	466	463	461	458	456	453	451	448	445	443	440	438	437	436	435	434	433	432	431	430	429	428	427	426	425	425	425	425	425	426	427	430	432	435	436	437	438	439	441	444	448	451	454	456	459	461	464	466	469	471	473	476	478	481	484	486	487	488	488	488	486	485	484	481	479	476	473	470	467	465	462	460	458	455	453	449	447	445	444	443	441	438	436	432	431	434	437	441	446	451	455	457	460	462	465	467	468	469	471	472	472	473	473	473	472	473	474	474	476	478	480	483	485	487	489	493	497	501	505	507	508	510	512	515	519	522	525	528	531	534	537	539	541	543	545	547	550	552	556	560	564	567	570	573	575	576	576	575	574	572	570	568	566	564	563	561	560	558	557	555	554	553	551	550	549	547	545	544	544	543	543	543	543	543	542	541	541	539	538	536	535	533	531	529	527	526	525	526	525	523	520	516	513	509	506	504	503	500	497	493	490	488	486	485	484	484	484	484	485	485	485	485	485	485	484	483	481	480	478	477	475	473	471	469	467	466	464	462	461	459	458	456	455	454	452	451	449	448	446	444	443	441	439	437	436	435	434	433	432	431	429	428	426	425	423	422	420	418	416	414	412	410	408	406	405	402	400	398	396	394	391	389	387	385	383	381	379	377	374	373	371	371	370	368	367	366	365	364	363	362	361	360	359	357	356	355	354	353	352	351	350	349	348	348	348	348	348	348	349	349	349	350	349	349	348	347	347	346	346	346	346	345	345	344	343	342	340	338	336	334	333	331	331	331	331	332	332	332	332	332	332	331	331	331	330	330	331	331	331	331	331	331	331	331	331	331	331	331	332	332	331	330	329	328	326	323	320	317	315	312	309	307	305	302	300	297	295	293	292	290	289	287	286	285	284	282	281	279	278	276	275	274	272	271	269	268	266	265	263	262	260	259	258	258	257	256	256	255	254	253	252	251	250	249	248	247	245	243	242	240	238	237	236	234	233	232	231	230	230	230	230	229	228	227	226	226	225	224	223	222	221	220	219	218	216	215	214	213	212	211	210	209	208	207	206	205	204	204	203	202	201	200	199	198	197	197	196	195	194	194	193
425	426	427	429	429	430	431	432	433	434	436	438	439	439	440	440	440	440	441	442	443	444	446	449	451	452	453	454	453	452	452	452	451	451	452	452	454	455	457	459	462	465	467	470	473	476	479	481	484	486	488	490	492	493	495	496	498	500	501	503	505	507	509	511	512	511	510	509	507	505	503	503	503	503	503	502	501	501	499	497	496	494	494	494	494	494	495	495	496	498	499	501	502	505	507	510	511	512	512	511	510	509	508	506	504	502	500	499	498	496	494	492	490	488	487	488	489	490	491	492	494	497	499	501	504	506	509	512	517	522	525	528	531	534	537	540	541	542	545	549	551	554	556	557	558	559	560	562	564	564	563	563	562	560	559	558	557	556	555	553	552	551	549	547	545	542	540	537	534	531	528	524	521	518	515	512	509	505	502	499	496	493	491	489	488	488	488	489	489	489	490	492	495	498	500	503	506	509	512	514	517	519	521	523	525	525	526	527	528	530	531	533	533	532	530	528	526	523	520	517	514	511	508	504	502	500	497	495	492	489	485	482	478	474	469	464	458	452	447	442	438	435	432	430	427	425	424	423	421	419	417	415	412	409	406	404	402	400	398	396	393	391	389	388	386	384	382	380	380	383	388	393	398	403	409	414	419	424	427	429	430	431	433	434	435	436	436	437	438	438	439	440	443	447	451	454	458	461	464	467	470	473	476	481	487	491	494	496	496	494	492	490	488	485	483	481	479	477	476	473	471	469	466	463	460	457	454	452	449	447	444	441	439	437	435	434	433	432	431	430	429	429	428	427	426	424	423	422	422	422	422	422	424	427	431	434	436	437	438	438	439	442	446	450	453	456	458	461	463	465	468	470	473	475	477	480	482	485	486	487	488	488	487	485	484	483	480	478	475	472	469	466	463	460	458	455	452	449	446	443	442	441	440	438	436	433	430	430	433	437	440	445	450	454	457	459	461	463	464	466	467	468	470	470	471	471	470	471	472	474	476	477	480	482	484	486	488	490	493	497	500	504	507	507	508	510	513	516	520	523	526	530	532	534	536	538	540	543	546	548	551	554	558	562	566	569	572	574	575	575	574	573	571	569	567	565	563	562	560	558	557	555	554	552	551	549	548	547	545	543	542	542	541	541	541	540	540	539	538	538	537	536	534	533	531	530	528	526	525	525	526	525	523	519	515	511	507	504	503	501	499	496	493	491	489	487	486	486	486	486	486	487	487	487	487	487	487	486	484	483	481	480	478	476	474	472	470	468	467	465	463	462	461	459	458	457	455	454	452	450	449	447	445	444	442	440	439	437	436	435	434	433	432	430	429	427	425	424	422	420	418	416	414	412	410	408	406	404	402	400	398	396	394	392	390	387	385	383	381	379	377	375	373	372	371	370	368	367	366	365	364	363	362	361	360	359	357	356	354	353	352	351	350	349	348	347	346	345	345	345	346	346	347	347	347	346	346	345	344	344	344	344	344	343	343	342	342	341	340	338	336	334	333	331	330	330	330	330	330	331	331	331	331	331	331	330	330	329	329	329	329	329	329	329	329	329	329	329	329	329	329	329	328	328	327	326	325	323	320	317	315	312	309	307	305	303	300	298	295	294	292	291	289	288	286	285	284	282	281	279	278	277	275	274	272	271	269	268	267	265	263	261	260	258	257	257	256	255	255	254	253	252	251	250	249	248	248	247	245	244	242	240	239	237	235	234	233	231	230	229	228	228	228	227	226	225	224	223	223	222	221	220	219	218	217	216	215	214	213	212	211	210	209	208	206	205	204	203	203	202	201	200	199	198	197	197	196	195	194	193	193	192	192	191
429	430	431	432	433	434	435	436	438	438	440	442	442	443	443	443	443	443	444	445	446	447	450	452	454	455	456	456	456	455	455	455	454	454	454	455	456	457	458	460	463	466	468	471	474	477	480	483	485	488	490	492	493	494	496	497	499	500	502	503	505	507	509	510	510	508	507	506	504	502	502	502	502	502	502	501	500	499	497	495	494	492	491	491	491	491	492	493	494	495	497	498	500	502	504	506	508	509	509	509	507	506	506	505	502	500	498	496	495	494	493	491	489	487	487	487	488	489	490	491	494	497	499	502	504	507	510	513	517	521	525	528	531	533	536	539	540	541	544	548	550	552	554	555	556	557	558	559	561	561	560	559	558	557	556	555	554	553	552	551	549	548	546	544	542	540	537	535	532	529	526	523	519	516	513	510	508	504	501	498	495	492	490	488	487	487	487	487	488	489	490	491	493	496	499	502	506	509	511	513	516	518	519	521	522	523	524	525	526	528	529	531	531	531	529	527	525	522	519	516	513	511	507	504	500	497	495	492	490	486	483	479	475	471	466	461	455	450	445	440	436	433	431	428	425	423	421	419	418	416	414	411	408	406	404	402	400	399	397	394	392	389	387	386	384	382	381	379	379	381	386	391	396	402	407	412	417	421	424	426	427	428	429	431	431	431	432	433	433	434	435	437	441	445	449	453	457	460	463	466	469	472	475	480	485	490	493	494	494	492	490	488	485	483	481	479	477	474	472	470	467	465	463	460	457	454	451	448	446	443	440	438	436	434	432	431	430	429	429	428	427	426	425	424	423	421	420	419	419	418	419	421	424	428	432	435	437	438	439	440	441	444	448	452	455	458	460	463	465	467	469	472	475	477	479	481	483	485	486	487	487	486	485	484	483	481	479	477	474	471	468	465	462	459	456	453	448	445	442	440	438	437	436	435	432	430	428	430	433	436	440	444	448	452	455	458	459	461	462	463	465	466	467	468	469	469	469	471	473	476	478	480	482	484	486	488	490	491	493	496	500	505	507	507	507	510	512	515	518	522	525	528	530	532	534	536	539	542	544	547	549	552	556	560	564	568	570	572	574	574	573	571	570	568	566	564	562	561	559	557	555	554	552	551	549	548	546	544	543	542	540	540	539	538	538	537	537	536	535	535	534	534	532	530	528	527	526	526	525	525	525	525	523	518	514	510	507	504	502	500	498	495	493	492	490	489	488	487	488	488	488	489	489	489	489	489	488	487	485	484	482	480	478	476	475	473	471	469	468	466	465	464	462	461	460	458	457	455	453	452	450	448	447	445	443	441	440	439	438	437	435	434	433	431	430	428	426	424	422	420	418	416	414	412	410	408	406	404	402	400	398	396	394	392	390	388	386	384	382	380	378	376	374	372	371	370	369	367	366	365	364	364	363	362	361	360	358	356	355	354	353	352	351	349	348	347	345	344	343	343	343	343	343	344	343	343	343	342	341	341	341	341	341	341	340	340	339	339	338	337	335	333	331	330	329	328	328	328	328	329	329	330	330	330	330	329	329	329	328	328	328	328	327	327	327	327	327	327	327	326	326	326	325	325	324	323	322	320	317	315	312	309	307	305	303	301	298	296	294	292	291	289	288	286	285	284	282	281	280	278	277	275	274	272	271	270	268	267	265	263	261	260	258	257	255	255	254	253	252	251	250	250	249	248	247	246	246	245	243	242	240	238	237	235	234	232	231	229	228	227	226	226	225	224	223	223	222	221	220	219	218	217	216	215	214	213	212	211	210	209	208	207	206	205	204	203	202	201	200	199	198	197	196	196	195	194	193	193	192	191	191	190	190	189
432	433	435	436	437	438	439	441	442	443	444	445	446	447	447	447	447	447	447	448	449	451	453	456	458	458	459	459	459	459	458	458	457	457	457	457	458	459	460	462	464	467	469	472	475	478	481	484	487	489	492	493	495	496	497	498	499	501	503	504	506	507	509	509	507	506	504	503	502	500	501	501	501	501	501	500	498	497	495	493	492	490	489	489	489	489	490	491	492	493	495	496	498	499	501	503	504	506	506	506	505	505	504	503	501	498	496	495	493	492	491	490	488	487	486	487	487	488	489	491	494	497	499	502	505	508	511	514	518	521	525	528	530	533	535	538	539	540	543	547	549	551	552	553	554	555	556	557	558	557	557	556	555	554	553	552	551	550	549	548	546	544	543	541	539	537	535	532	530	527	524	521	518	515	512	509	506	503	500	497	494	491	489	488	486	485	486	486	487	488	489	490	492	495	498	501	505	508	511	512	514	516	517	518	519	521	522	523	525	526	528	529	529	529	528	527	525	522	519	515	513	511	507	503	499	496	493	491	487	484	481	477	473	468	463	458	453	448	444	439	435	432	429	427	424	421	419	416	414	412	410	408	405	403	402	400	399	397	395	393	390	388	386	384	382	381	379	378	378	380	385	390	394	399	404	409	414	417	420	422	423	424	426	426	427	427	427	428	429	430	432	436	439	444	448	452	456	459	462	465	468	471	474	478	483	488	491	492	491	490	488	485	483	480	478	476	473	471	468	466	464	461	459	456	454	451	447	444	442	439	437	434	432	431	429	428	427	427	426	425	424	423	422	421	420	418	417	416	415	415	417	421	425	429	433	436	438	439	441	442	444	447	451	454	457	459	462	464	467	469	471	474	476	477	479	481	483	485	486	486	486	484	483	482	481	480	478	475	472	469	466	463	461	458	455	451	446	442	439	437	435	434	433	431	429	426	426	428	432	435	438	442	446	450	454	456	457	458	460	461	462	464	465	466	467	467	469	472	475	478	481	484	486	488	489	491	492	493	495	497	500	504	507	507	508	510	512	515	518	521	524	527	529	531	533	536	538	541	543	546	548	551	554	558	563	566	569	571	572	572	571	570	568	566	565	563	562	560	557	555	554	552	551	550	548	547	545	544	542	541	539	538	537	536	535	535	534	534	533	532	531	530	528	527	525	525	525	524	524	524	524	524	522	518	514	511	508	505	501	499	498	496	495	494	492	491	490	489	489	490	490	491	490	490	490	490	489	488	486	485	483	481	479	477	476	474	472	470	469	467	466	465	464	463	461	460	458	456	455	453	451	450	448	446	444	443	442	440	439	438	436	435	434	432	430	428	426	424	422	420	418	416	414	412	410	407	406	404	402	400	398	396	394	392	390	389	387	385	383	381	379	376	375	373	372	371	370	368	367	366	366	365	364	363	362	361	359	358	356	355	354	353	352	351	349	348	346	345	344	342	341	340	340	340	340	340	339	339	338	338	338	338	338	338	338	338	337	337	336	335	333	332	330	329	328	327	326	326	327	327	328	329	329	329	329	328	328	328	327	327	327	326	326	326	326	325	325	325	325	324	324	323	322	321	321	320	319	317	314	312	309	307	305	303	301	299	297	294	293	291	290	288	287	285	284	282	281	280	278	277	276	274	273	271	270	268	267	265	264	262	260	258	256	255	253	252	251	251	250	248	248	247	246	246	245	244	243	242	241	240	238	236	235	233	232	230	229	228	226	225	224	223	223	222	221	220	219	218	218	217	216	215	214	213	212	211	210	209	208	207	206	205	203	202	201	200	199	198	197	196	195	195	194	193	193	192	191	191	190	189	189	188	188	187
435	437	438	440	441	442	443	445	446	447	448	450	451	451	451	451	451	451	451	452	453	455	457	459	461	462	462	462	462	462	461	461	460	460	460	460	461	462	462	464	466	468	470	473	476	479	482	485	488	491	493	494	496	497	498	499	500	502	503	504	506	508	508	506	505	504	502	501	500	500	500	500	501	500	500	498	496	494	492	491	489	488	487	486	486	487	488	488	490	491	493	494	496	497	499	500	501	503	504	503	503	503	502	501	499	497	495	493	491	490	489	488	486	486	486	486	487	487	489	491	494	497	500	503	506	509	512	515	518	522	525	527	530	532	534	536	538	539	542	545	547	549	550	551	552	553	554	555	555	554	553	553	552	551	550	549	548	546	545	544	543	541	539	538	536	535	533	530	527	525	522	520	517	514	510	507	505	502	499	496	493	491	489	487	485	484	484	485	486	487	488	489	490	493	497	500	504	507	509	511	512	513	514	516	517	518	520	521	523	525	526	527	528	529	528	527	526	524	520	516	514	511	508	504	499	495	492	489	486	483	479	475	471	466	461	456	451	446	442	438	435	431	428	426	424	421	418	414	412	410	407	405	404	402	401	399	398	396	394	391	388	386	384	382	381	380	379	377	376	378	383	388	392	397	401	406	410	413	416	418	419	421	422	422	423	423	423	424	425	427	430	434	438	442	446	451	455	458	461	464	467	470	473	477	481	485	488	489	488	487	485	482	480	478	475	472	470	467	465	462	460	458	455	453	450	447	444	441	438	436	434	431	429	428	426	425	424	424	423	422	421	420	418	417	415	414	413	412	411	412	417	421	426	430	434	437	439	440	443	445	447	450	453	455	457	460	463	466	468	471	473	475	476	477	479	481	483	484	484	484	483	482	481	480	479	478	477	474	471	468	465	462	459	457	453	449	445	440	438	435	433	431	429	427	425	424	425	427	430	433	437	440	443	447	450	454	455	457	458	459	460	461	463	464	465	466	469	473	476	480	483	486	488	490	492	495	496	497	499	500	502	505	507	508	509	511	513	515	518	521	524	527	529	531	533	535	537	540	542	545	547	550	553	557	561	565	567	569	570	570	569	568	566	565	564	562	561	559	556	554	553	551	550	549	547	546	544	544	543	541	539	537	536	535	534	533	532	532	530	529	529	528	526	525	523	523	523	522	522	522	522	522	520	517	514	511	508	505	503	500	499	498	497	496	494	493	492	492	491	492	492	492	492	492	491	491	490	489	488	486	484	482	480	478	476	475	473	472	470	469	468	467	466	464	463	461	460	458	456	454	453	451	449	447	446	444	443	442	440	439	437	436	434	432	430	428	426	424	422	420	418	416	413	411	409	407	405	404	402	400	398	396	394	393	391	389	387	385	383	381	379	378	376	374	373	372	371	370	370	369	368	367	366	365	364	363	361	359	358	357	356	354	353	352	351	349	348	346	345	343	341	340	338	337	337	336	336	336	335	334	335	335	335	335	335	335	335	334	334	333	332	330	329	328	326	325	325	325	325	326	327	327	328	328	328	327	327	327	326	326	325	325	325	324	324	324	323	323	323	322	321	321	320	319	318	317	316	314	312	310	307	305	303	301	299	297	295	293	291	290	288	287	285	284	283	281	280	278	277	276	274	273	271	270	268	267	265	264	262	260	258	256	254	253	252	250	249	248	247	246	245	245	244	244	243	242	241	240	239	237	236	234	232	231	230	228	227	226	224	223	222	221	220	219	218	217	217	216	215	214	213	212	212	211	210	209	208	207	206	205	203	202	201	199	198	197	196	195	195	194	194	193	192	192	191	190	189	189	188	187	186	186	186	185
438	440	441	443	445	446	447	449	450	451	453	454	455	455	455	455	455	455	456	457	458	459	461	463	464	465	465	465	465	465	464	464	463	463	463	463	463	464	465	465	467	469	472	475	478	481	484	487	490	492	494	495	497	498	499	500	501	502	503	505	507	507	505	504	502	501	500	499	499	499	500	500	500	499	497	496	494	492	490	488	487	486	485	484	484	484	485	486	488	489	491	492	494	495	497	498	499	500	501	501	501	501	500	499	498	496	493	491	490	488	487	486	485	485	486	486	486	486	488	491	494	497	500	503	506	509	512	516	519	522	525	527	529	531	533	535	537	538	540	543	546	547	548	549	550	551	551	552	552	551	550	549	549	548	547	545	544	543	542	541	539	538	536	534	533	532	530	528	525	523	521	519	516	513	510	506	504	501	498	495	492	490	488	486	484	483	483	484	485	486	487	487	489	492	495	499	502	505	507	509	510	510	512	513	514	516	518	519	522	524	525	526	528	529	529	528	527	526	523	519	516	513	509	505	501	496	492	488	485	482	478	474	468	464	459	455	451	446	443	440	436	433	431	428	426	423	420	416	414	411	408	405	404	402	401	400	398	396	394	391	388	384	382	381	380	379	378	377	375	376	381	385	390	394	398	403	406	409	411	413	415	417	418	419	419	419	419	420	422	424	428	432	436	440	444	450	454	457	460	463	466	469	472	476	479	482	485	486	485	483	481	479	477	474	471	468	466	463	461	459	457	454	452	449	446	443	440	437	435	433	430	428	426	424	423	421	421	420	419	418	417	415	414	412	411	410	409	408	408	411	416	421	426	430	434	438	440	442	445	447	450	452	454	456	458	460	463	466	469	472	475	476	477	477	478	480	481	482	482	481	480	479	478	478	477	476	475	472	469	467	464	461	458	456	452	448	444	440	437	434	431	428	426	423	421	421	423	426	428	432	435	437	440	443	446	449	452	454	456	457	458	459	460	462	464	467	470	473	477	480	484	487	490	492	495	498	500	501	503	504	505	506	508	509	511	513	515	516	519	521	524	527	529	531	533	535	537	539	542	544	547	549	552	556	560	564	567	568	569	569	567	566	565	564	562	561	560	557	555	554	552	551	549	548	546	545	544	544	544	542	540	538	536	534	533	532	531	530	529	528	527	526	525	525	523	522	522	521	520	520	520	519	518	516	513	510	508	506	504	503	501	500	499	498	497	495	495	494	494	494	494	494	494	493	492	492	491	490	489	487	486	484	481	479	478	476	474	473	472	471	470	469	468	466	464	463	461	460	458	456	454	452	450	448	447	446	444	443	442	440	439	437	435	433	431	429	427	424	422	420	418	416	414	412	410	408	406	404	402	401	399	397	395	393	391	389	388	386	384	382	380	379	377	375	374	373	373	373	372	372	371	370	369	367	366	364	363	361	360	358	357	356	355	354	353	351	349	347	346	344	342	341	339	338	336	335	334	333	332	332	332	332	332	333	333	333	333	332	332	331	330	329	328	327	325	325	325	325	325	325	326	326	327	327	327	327	326	326	325	325	324	324	323	323	322	322	321	321	321	320	319	319	318	317	315	314	313	311	310	307	305	303	301	299	297	295	293	292	290	288	287	285	284	283	281	280	279	277	276	274	273	271	270	269	267	266	264	262	260	258	256	255	253	252	250	249	248	246	245	244	243	243	242	242	241	240	239	238	237	235	233	232	230	229	227	226	225	223	222	221	220	219	218	217	216	215	214	213	213	212	211	210	209	208	207	206	205	204	203	202	201	199	198	197	196	195	194	194	193	193	192	192	191	190	190	189	188	187	186	185	185	184	184	184
441	443	445	446	448	450	451	453	454	456	457	458	459	460	460	460	461	461	462	462	463	464	466	467	468	468	468	468	468	468	467	467	466	466	466	465	466	466	467	467	469	471	473	476	479	482	485	488	491	493	495	496	497	499	500	501	502	503	504	506	506	504	502	501	500	499	498	498	499	500	500	499	498	496	494	493	491	489	488	486	485	483	483	482	481	482	483	484	486	487	489	490	492	493	494	496	497	498	499	499	499	499	498	497	496	494	492	489	488	486	485	484	484	484	485	485	485	486	488	491	494	497	500	503	506	510	512	516	519	522	525	527	529	531	533	535	536	537	538	541	544	545	546	547	548	548	549	549	549	549	548	547	546	544	543	542	541	540	538	537	536	534	533	531	529	528	527	525	524	522	520	518	515	512	509	506	503	500	497	494	491	489	487	485	483	482	482	482	483	484	485	486	488	491	494	497	500	502	504	506	507	508	509	510	512	514	516	518	520	522	524	526	528	530	531	530	528	527	526	523	519	515	511	506	501	496	491	487	484	481	477	472	466	462	459	456	453	450	447	443	439	436	434	431	429	426	423	420	417	415	411	407	405	404	402	401	399	397	395	392	388	385	382	381	379	378	377	376	374	375	379	383	388	391	395	399	402	405	407	409	411	413	414	415	415	416	416	417	419	422	425	430	434	438	443	448	453	456	459	462	465	468	471	474	477	479	482	483	481	480	478	476	473	470	467	464	462	459	457	455	453	450	447	444	442	439	436	434	432	430	427	425	423	421	419	418	417	416	415	414	413	411	409	408	407	406	405	404	406	411	416	421	425	429	434	437	440	443	446	448	451	453	455	457	458	460	463	465	469	472	475	476	477	477	478	479	479	479	479	478	478	477	476	475	474	474	472	470	467	465	462	460	457	454	451	448	444	440	437	433	430	427	424	420	416	417	421	424	427	430	433	435	437	439	441	444	448	451	453	454	455	457	458	461	464	468	470	473	476	480	484	488	491	494	498	501	504	505	507	508	509	510	511	512	514	515	517	518	520	522	525	528	530	532	533	535	537	539	542	544	546	549	552	555	559	563	566	567	568	568	566	565	563	562	561	560	558	556	555	554	552	551	549	547	546	544	544	545	544	543	541	539	537	534	533	532	531	530	529	528	527	526	526	525	524	523	522	521	520	520	519	518	517	515	512	510	508	507	506	505	503	502	501	500	499	498	497	497	496	496	496	496	495	495	494	493	492	492	491	489	487	485	483	481	479	478	476	475	474	473	472	471	469	468	466	464	463	461	460	458	455	453	451	450	448	447	446	445	443	442	440	438	436	434	432	430	427	425	422	420	418	416	414	413	411	409	406	405	403	401	399	397	395	394	392	390	388	387	385	384	382	380	378	376	375	375	375	375	375	374	374	373	371	370	368	366	365	363	362	360	359	358	357	355	354	352	350	348	347	345	343	342	340	339	337	336	334	332	331	330	330	330	330	330	330	330	330	330	330	329	328	328	327	325	325	325	325	325	325	325	325	326	326	327	326	326	326	325	324	323	323	322	322	321	320	320	320	319	319	318	317	317	316	315	313	312	311	309	307	305	303	301	299	298	296	294	292	290	289	287	285	284	283	281	280	279	277	276	274	273	271	270	268	267	266	264	263	260	259	257	255	253	252	251	249	248	246	244	243	242	241	241	240	240	239	238	237	236	234	232	231	229	228	226	225	224	223	221	220	219	218	217	216	215	214	213	212	211	210	210	209	208	207	206	205	204	203	202	200	199	198	197	195	195	194	193	193	193	192	192	191	190	190	189	188	187	186	185	185	184	184	183	183	183
444	446	448	450	452	454	455	457	458	460	461	462	463	465	465	466	466	466	467	468	468	469	470	470	471	471	471	471	471	470	470	470	469	469	468	468	469	469	469	470	471	473	475	477	480	483	486	489	492	494	495	497	498	500	501	502	503	504	505	506	504	501	499	498	497	497	497	498	498	499	498	496	494	493	491	490	488	487	485	484	482	481	480	479	479	479	480	482	484	485	487	488	490	491	492	494	495	496	497	497	497	497	496	495	493	492	490	488	486	485	483	482	482	482	483	483	483	485	488	491	494	497	500	503	506	509	512	515	519	522	524	526	528	530	532	534	535	536	537	539	542	543	544	545	546	547	547	547	547	546	545	544	543	541	540	539	538	536	535	534	533	531	529	528	526	525	524	523	522	520	518	516	514	511	508	505	502	499	496	493	490	488	486	484	482	480	480	481	481	482	483	485	487	489	492	495	498	500	501	502	503	505	506	508	510	512	514	516	519	521	524	526	528	530	532	531	529	528	527	525	521	516	512	507	502	496	491	487	483	480	476	470	466	463	461	458	456	453	450	447	443	439	436	434	431	428	425	423	421	418	415	412	409	406	404	402	401	398	396	393	390	387	384	382	379	378	376	375	373	373	377	381	385	388	392	395	398	401	403	406	408	409	410	411	411	412	412	414	417	420	424	428	433	437	442	447	451	455	458	461	464	467	470	473	475	478	480	480	479	477	474	472	469	466	463	460	458	455	453	451	448	446	443	440	438	435	433	431	429	427	424	422	419	417	416	414	413	412	411	410	409	407	405	404	402	401	401	401	405	411	415	420	425	429	433	436	440	443	445	448	451	453	455	457	459	461	463	465	468	471	474	476	476	477	477	477	477	477	476	476	475	475	474	473	472	471	469	467	465	463	461	458	456	453	450	447	444	441	437	433	430	426	421	417	412	414	419	423	426	428	431	433	435	436	438	440	443	447	450	451	453	454	457	461	465	469	472	474	476	480	484	488	492	496	500	503	507	509	510	511	512	513	514	515	517	518	519	521	522	524	526	529	531	533	535	537	538	540	542	544	546	549	551	554	557	561	564	566	567	566	565	564	562	561	560	559	557	555	555	554	553	551	549	547	546	544	544	545	545	544	542	539	537	535	534	533	532	531	530	529	528	527	527	526	525	524	523	522	521	520	519	518	517	515	513	511	509	508	507	507	505	504	503	502	501	500	500	499	499	499	498	498	498	497	496	495	494	493	492	490	488	487	485	483	481	480	478	477	476	475	474	473	471	469	468	466	465	463	461	459	457	455	453	451	450	449	447	446	445	444	442	439	437	435	433	431	428	426	423	421	419	417	416	414	412	410	408	405	403	402	400	398	396	395	393	391	390	388	387	385	383	381	380	378	377	377	378	378	377	377	376	375	373	372	370	369	367	365	363	362	360	359	358	357	355	353	352	350	348	346	344	343	341	340	338	337	335	333	332	330	329	328	328	328	328	327	328	328	328	327	327	326	325	324	324	324	324	324	324	324	324	325	326	326	326	326	325	324	323	322	321	321	320	319	319	318	318	318	317	317	316	315	314	313	311	309	308	307	305	303	302	300	298	296	294	292	291	289	287	286	284	283	281	280	279	278	276	275	273	272	270	268	267	266	264	263	261	259	257	255	254	252	251	250	248	247	245	243	241	240	239	239	238	238	237	236	235	233	232	230	228	227	225	224	223	221	220	219	218	217	216	215	214	212	211	211	210	209	208	207	207	206	205	204	203	202	200	199	198	196	195	195	194	193	193	192	192	191	191	190	190	189	188	187	187	186	185	184	184	183	183	182	182	181
447	449	451	453	455	457	459	461	462	464	465	466	468	469	470	470	471	471	472	472	472	473	473	474	474	474	474	473	473	473	473	472	472	471	471	471	471	471	472	472	474	475	477	479	481	485	488	491	493	494	496	497	499	500	501	502	503	504	505	505	502	498	496	496	496	496	496	496	496	496	495	493	491	489	488	487	485	484	482	481	479	478	477	476	476	476	477	479	481	483	485	486	488	489	490	492	493	494	494	494	495	494	494	493	491	489	488	486	484	482	481	479	479	479	480	481	482	484	487	491	494	497	500	503	506	509	512	515	518	521	523	526	527	529	531	533	534	535	536	538	540	541	542	543	544	545	546	545	544	543	542	541	539	538	537	535	534	533	532	530	529	528	526	525	523	522	522	521	520	518	517	515	513	511	508	504	501	498	495	492	489	487	484	482	480	479	478	479	480	481	482	484	486	488	490	493	495	497	498	499	501	502	504	506	508	510	513	515	518	521	524	526	529	531	532	532	530	529	527	525	520	515	511	506	501	495	491	487	483	480	476	472	469	467	465	462	460	458	454	450	446	442	439	436	433	431	428	426	424	422	420	417	414	411	407	404	402	400	398	395	392	389	386	383	381	378	375	373	372	372	375	379	382	385	389	392	395	397	399	402	404	406	406	407	407	408	409	413	416	420	423	427	432	436	441	445	450	454	457	460	463	465	468	471	474	476	478	477	476	474	471	468	465	462	459	456	454	451	449	446	444	441	439	437	434	432	430	428	426	424	421	419	416	414	412	411	409	408	407	406	405	403	401	400	398	397	397	400	405	410	414	419	424	428	431	435	439	442	445	447	450	453	455	457	459	461	463	465	468	470	473	474	475	475	475	475	475	475	475	474	474	473	472	471	469	468	466	465	463	461	459	457	454	452	449	446	444	441	438	433	428	424	419	414	411	414	419	423	425	427	429	431	433	435	437	438	441	444	447	449	451	454	458	462	466	470	473	475	478	481	485	489	494	498	502	506	509	512	513	514	515	517	518	519	520	521	522	523	524	526	528	530	533	535	537	539	540	541	543	544	547	549	551	553	556	560	563	565	565	565	564	563	561	560	559	558	557	555	555	554	553	551	550	549	548	546	545	545	545	545	543	541	538	536	535	534	533	532	531	531	530	529	528	527	526	525	524	523	522	521	520	519	518	517	515	513	511	510	509	508	507	505	505	504	503	503	502	502	501	501	501	500	500	499	497	497	496	494	493	491	490	488	486	485	483	482	480	479	478	477	476	474	473	471	470	468	467	465	463	461	459	457	454	453	451	450	449	448	447	445	443	441	439	437	434	432	429	427	425	423	421	419	418	416	414	411	409	407	404	402	401	399	398	396	394	393	391	389	388	386	385	383	381	380	379	379	380	380	380	379	378	377	376	374	373	371	368	366	364	363	362	361	359	358	356	355	353	351	349	347	345	344	342	341	339	338	336	334	333	331	330	328	327	326	325	325	325	325	326	325	325	325	324	323	322	322	322	322	322	322	323	324	325	325	325	325	324	323	322	321	320	319	318	318	317	316	316	316	315	315	314	313	312	311	310	307	306	305	303	302	300	298	296	295	293	291	289	288	286	284	283	281	280	279	277	276	275	273	272	270	269	267	265	264	263	261	259	257	256	254	253	251	250	248	247	246	244	241	240	238	238	237	236	236	235	234	232	231	229	227	226	224	223	222	220	219	218	217	216	215	214	213	211	210	209	209	208	207	206	205	204	204	203	202	200	199	198	196	195	194	194	193	193	192	192	191	190	190	189	189	188	188	187	186	186	185	184	184	183	183	182	181	181	180
450	452	454	456	459	461	463	465	466	468	469	471	472	473	474	474	475	475	475	476	476	476	477	477	477	477	476	476	476	475	475	474	474	474	473	473	474	474	474	475	477	478	480	481	484	487	490	493	494	495	496	498	499	501	502	503	504	505	505	502	498	495	495	495	494	494	493	493	493	492	491	489	487	486	484	484	482	481	480	478	476	475	474	473	473	473	474	476	478	480	482	484	486	487	488	490	491	492	492	492	492	492	492	491	489	487	486	484	482	480	477	475	475	475	476	478	481	484	487	490	493	496	499	502	505	508	511	513	516	519	522	525	527	528	530	532	533	534	535	536	538	539	540	541	542	543	543	543	541	540	539	537	536	534	533	532	531	530	528	527	526	525	523	522	521	520	519	518	518	516	515	513	512	510	507	504	500	497	494	491	488	485	482	480	478	477	476	477	477	479	481	482	484	486	488	490	492	494	495	496	498	500	502	504	506	509	511	514	517	521	524	527	529	531	533	533	531	529	527	524	519	513	509	504	499	495	491	487	484	481	478	476	473	471	469	467	465	462	458	453	450	446	442	439	436	433	431	430	428	426	424	423	420	416	412	407	404	401	399	396	394	391	388	385	382	379	375	372	371	371	372	375	379	383	386	389	392	394	396	398	401	402	402	403	403	405	407	411	415	419	423	427	431	435	439	444	448	452	455	458	461	464	467	469	472	474	474	474	472	470	467	464	461	458	455	452	450	447	445	442	440	437	435	433	431	429	426	424	422	420	418	415	413	411	409	407	406	404	403	402	401	399	397	395	394	394	395	399	404	409	414	418	423	427	431	434	438	441	444	446	449	452	454	456	459	461	463	465	467	470	471	472	473	474	474	474	474	474	473	473	472	471	470	469	468	466	464	462	461	459	457	455	453	450	448	445	443	440	437	432	427	422	417	411	410	414	418	423	425	427	429	431	433	436	437	439	442	445	448	451	453	456	459	463	467	471	475	477	480	483	487	490	495	499	504	508	512	515	516	517	518	520	521	523	523	524	525	526	527	529	531	533	535	537	540	542	543	544	545	546	547	549	551	553	556	560	563	565	565	564	564	563	561	560	559	559	557	556	556	555	554	553	552	551	550	549	548	547	547	546	544	542	539	537	536	535	534	533	533	532	531	530	529	528	527	526	525	524	523	522	521	520	519	517	516	515	513	512	511	509	508	507	506	505	505	504	504	504	504	503	503	503	502	500	499	498	497	495	494	492	491	490	488	487	485	484	482	481	480	479	478	476	475	473	472	470	469	467	466	464	462	459	457	455	453	452	451	450	448	447	445	443	441	438	436	433	431	429	427	424	423	421	420	418	415	413	410	408	405	403	402	400	399	397	395	394	393	391	389	388	386	385	383	382	382	382	382	382	382	382	381	380	378	377	375	373	370	368	366	364	363	362	360	359	358	356	354	352	350	348	346	345	343	342	340	338	337	335	334	332	331	329	327	326	325	324	323	324	324	324	324	323	322	322	321	320	320	320	320	321	321	322	323	324	324	323	322	321	320	319	318	317	317	316	315	315	314	314	314	313	312	311	310	309	308	306	304	303	302	301	299	297	295	293	292	290	288	286	284	283	281	280	278	277	276	274	273	272	270	269	267	265	264	262	261	259	258	256	254	253	251	250	249	248	246	244	242	240	238	237	236	235	234	234	233	231	230	228	226	225	223	222	220	219	218	217	216	215	214	213	212	210	209	208	207	206	206	205	204	203	202	201	200	199	198	197	196	195	194	193	193	192	192	191	191	190	190	189	189	188	188	187	186	186	185	185	184	184	183	182	182	181	181	180
453	455	457	460	462	464	466	468	470	472	473	475	476	477	478	479	479	479	479	479	479	480	480	480	480	480	479	479	479	478	477	477	477	476	476	476	477	477	477	478	479	481	482	484	487	490	492	494	495	496	497	498	500	501	502	503	504	505	503	498	494	494	494	494	493	491	490	490	490	489	487	485	484	482	481	480	479	478	476	474	473	472	471	470	470	470	471	473	475	477	480	482	484	485	486	488	489	490	490	490	490	490	489	489	488	486	483	481	479	476	473	471	470	470	472	475	479	483	486	489	492	495	498	500	503	506	509	512	515	518	521	524	526	527	529	531	532	533	533	534	536	537	538	539	540	541	540	539	538	537	535	534	533	531	530	529	528	527	525	524	523	522	521	519	518	517	516	516	515	514	513	512	510	508	505	502	499	496	492	489	486	483	481	478	476	474	473	474	475	476	478	480	482	484	486	488	490	491	492	494	495	497	499	502	505	507	510	513	517	521	525	527	529	531	533	533	531	528	526	523	517	512	507	503	499	495	491	488	485	484	482	480	477	475	473	471	469	466	462	458	454	451	447	443	439	437	435	434	432	430	428	427	424	420	416	410	405	402	400	398	395	392	389	386	383	379	375	372	370	370	370	373	377	381	384	387	389	391	393	395	397	398	399	400	401	404	407	411	415	418	422	426	430	434	438	442	446	450	454	457	459	462	464	466	469	471	471	470	468	466	464	461	458	455	452	449	446	443	441	438	436	433	431	429	427	425	423	421	419	417	414	412	410	408	406	404	403	401	399	398	397	395	393	392	391	392	394	398	403	408	413	418	422	426	430	433	437	440	443	445	448	451	453	456	458	460	462	465	467	469	470	471	471	472	472	472	472	472	472	471	470	470	469	467	465	463	461	459	457	456	455	453	451	448	446	443	441	438	435	431	425	420	415	409	409	414	418	422	425	427	429	431	434	436	438	441	444	447	450	453	455	458	461	465	469	473	476	479	482	485	488	491	496	501	505	509	513	516	518	519	521	523	524	526	526	527	528	529	531	532	534	536	538	541	543	545	546	547	548	548	549	550	552	554	556	559	562	564	564	564	564	563	562	560	560	559	558	558	557	556	555	555	554	553	552	551	550	549	548	546	544	542	540	538	537	536	535	534	534	533	532	531	530	529	528	527	526	525	524	523	522	521	520	519	518	516	515	513	512	510	509	508	507	506	506	506	506	506	506	506	506	505	504	502	500	499	497	496	494	493	492	491	490	489	487	486	484	483	482	481	479	478	477	476	474	473	471	470	468	466	464	462	459	457	455	454	453	452	451	449	448	446	443	441	438	435	433	431	429	427	425	423	421	419	417	414	412	409	407	404	403	401	400	398	397	396	394	393	391	389	388	386	385	384	384	384	384	384	385	384	383	382	381	379	377	375	373	370	368	366	364	363	361	360	358	357	355	353	351	349	348	346	344	342	341	339	338	336	334	333	331	330	328	326	325	324	323	322	322	322	322	321	321	320	319	319	319	319	319	319	320	320	321	321	322	322	321	320	319	318	317	316	315	314	313	313	312	312	312	312	311	310	308	307	306	305	303	302	301	299	298	296	294	292	291	289	287	285	283	282	280	278	277	276	274	273	271	270	268	267	265	264	262	261	259	258	256	255	253	252	250	249	248	246	245	242	240	238	236	235	234	233	232	231	230	229	227	225	224	222	220	219	217	216	215	214	214	213	212	211	209	208	207	206	205	204	204	203	202	201	200	199	198	197	196	196	195	194	194	194	193	193	193	192	192	191	191	190	189	189	188	188	187	186	186	185	185	184	184	183	182	182	181	181
456	459	461	463	466	468	470	472	474	476	477	479	481	482	482	483	483	483	483	483	483	483	483	483	483	483	482	482	481	481	480	479	479	479	478	479	479	480	480	481	482	483	485	487	489	492	494	494	495	496	498	499	500	501	502	503	504	504	499	495	493	493	493	492	491	489	488	487	487	486	484	482	480	479	477	476	475	473	472	471	469	468	467	467	467	467	468	470	472	474	477	479	481	483	484	486	487	487	488	488	488	488	487	487	486	484	481	478	475	472	469	467	466	466	468	472	477	481	484	487	490	493	496	499	501	504	507	510	513	516	519	522	525	526	528	529	531	532	532	532	533	534	535	536	538	538	537	536	535	534	532	531	529	528	527	526	525	523	522	521	520	519	518	517	516	515	514	513	513	512	511	510	508	506	503	501	497	494	491	487	484	482	479	476	473	471	470	471	472	474	476	478	480	482	484	486	487	488	489	491	493	495	497	500	503	506	509	512	516	521	525	527	529	532	534	534	531	528	525	521	516	512	508	503	499	496	492	489	488	487	486	483	481	479	478	476	473	470	466	462	459	456	452	448	444	442	440	438	435	433	431	429	427	423	419	413	407	403	401	399	396	393	389	386	382	378	374	371	370	369	369	372	375	379	381	384	386	388	390	392	394	396	397	398	400	404	407	411	415	418	422	426	429	433	437	440	444	448	452	455	457	459	462	464	466	468	469	467	465	463	460	458	455	452	449	445	443	440	437	434	431	429	427	425	423	421	419	417	415	413	411	408	406	404	402	401	399	398	396	394	393	391	390	388	388	391	394	398	403	408	413	418	422	426	429	433	436	439	442	445	447	450	453	455	457	459	461	464	466	467	468	469	470	470	470	470	470	470	470	470	469	468	467	465	463	461	459	456	455	453	452	451	449	446	444	441	438	436	433	429	424	418	413	407	408	413	418	422	425	427	430	432	434	436	439	442	445	448	452	455	457	460	463	467	471	474	478	480	483	486	489	492	497	503	507	511	514	517	518	520	522	524	526	527	528	529	531	532	534	536	537	539	542	545	547	548	549	550	551	551	551	552	553	555	557	560	562	564	565	565	564	564	562	561	561	560	560	559	559	558	558	557	556	555	554	553	552	550	548	546	545	543	541	539	538	537	536	535	535	534	533	533	532	531	529	528	527	526	525	524	523	522	521	520	519	517	516	514	512	510	508	508	507	507	507	507	507	508	509	509	508	506	504	502	501	499	498	496	495	494	493	493	492	491	489	487	486	485	484	483	481	480	479	477	476	475	474	472	471	469	466	464	462	460	458	457	455	454	453	452	450	449	446	443	440	438	436	433	431	429	427	425	423	420	418	416	413	410	408	406	404	403	401	400	399	397	396	395	393	391	390	388	387	386	386	386	387	387	387	387	386	385	383	381	379	377	375	373	370	367	365	363	362	361	359	358	356	354	353	351	349	347	345	343	342	340	338	337	335	333	332	330	328	327	325	324	323	322	321	320	320	320	319	319	318	317	317	317	317	318	318	318	318	318	319	319	319	318	317	316	315	314	313	312	312	311	311	310	310	310	309	308	307	306	305	304	303	301	300	298	297	295	294	292	290	288	287	285	283	281	279	277	276	274	273	271	269	268	266	265	264	262	261	259	258	256	255	253	252	251	249	248	247	245	243	240	238	236	234	233	232	231	230	229	228	226	225	223	221	219	217	216	215	214	214	213	212	211	210	209	207	206	205	204	203	203	202	201	200	200	199	198	198	197	196	196	195	195	195	195	195	194	195	194	194	193	192	191	190	190	189	189	188	187	186	186	185	185	184	184	183	182	182	181
460	462	464	467	469	472	474	476	478	480	482	484	485	486	487	487	487	487	486	486	486	486	486	486	486	485	485	485	484	483	483	482	481	481	481	481	482	482	483	484	485	486	488	490	492	493	494	495	496	497	498	499	501	501	502	504	504	501	496	493	493	493	492	490	489	487	486	484	484	483	481	479	477	475	473	471	470	469	468	467	466	465	464	464	464	464	465	467	469	471	473	476	478	480	481	483	484	485	486	486	486	486	485	484	483	482	479	475	472	468	465	463	461	462	464	469	474	479	483	486	489	491	494	497	499	502	505	508	511	514	517	521	523	525	527	528	529	530	530	531	531	532	533	534	535	536	535	533	532	531	529	527	526	525	523	522	521	520	519	518	517	516	515	514	513	512	512	511	511	510	509	507	506	504	502	499	496	493	490	486	483	480	477	474	471	468	467	467	469	470	472	475	477	479	481	483	484	486	487	489	491	493	496	499	502	505	508	512	516	520	524	527	529	531	533	534	531	528	524	520	516	512	509	505	502	499	495	493	491	491	490	488	485	483	482	480	477	474	470	467	463	460	458	454	451	448	445	442	439	436	434	431	428	425	421	415	409	404	402	399	396	393	389	385	381	377	373	370	369	368	368	370	373	376	378	381	383	385	387	388	390	392	395	397	400	404	408	411	415	418	422	426	429	432	436	439	443	446	450	453	455	457	459	462	463	465	466	464	462	460	457	455	452	449	446	442	439	436	433	430	427	424	423	421	420	418	416	414	411	409	407	405	403	401	399	397	395	394	392	391	389	388	386	385	388	391	394	398	403	408	413	418	422	426	429	432	435	438	441	444	447	450	452	455	457	459	461	463	464	465	465	466	467	468	469	469	469	469	469	469	468	467	465	463	461	459	456	454	452	450	450	448	447	444	442	439	436	433	430	427	422	417	412	406	407	412	417	422	425	428	430	433	434	436	439	442	446	449	453	456	459	462	465	469	472	475	478	480	483	486	489	493	499	504	508	511	514	516	518	519	521	524	526	528	529	531	533	535	537	539	541	542	545	548	550	552	553	553	554	554	554	554	555	557	559	561	563	565	566	566	565	565	564	563	563	562	562	562	561	560	560	559	557	556	555	554	552	550	548	546	545	544	542	540	539	539	538	537	536	536	535	534	533	532	531	530	528	527	526	525	524	523	522	521	519	518	516	514	512	509	508	508	507	507	508	509	510	511	511	511	509	507	505	503	501	500	498	497	496	495	495	494	493	492	490	489	488	487	486	484	483	482	481	479	478	477	476	475	473	471	469	467	464	463	461	460	458	456	455	454	453	451	449	445	443	440	438	436	433	431	429	427	424	422	419	417	414	412	409	407	406	404	403	401	400	399	398	397	395	393	392	390	389	388	388	389	389	388	388	388	388	386	384	382	381	379	377	374	372	369	366	364	363	361	360	359	357	356	354	352	350	348	346	344	343	341	339	337	336	334	332	330	329	327	326	324	323	322	321	320	319	318	318	317	317	316	316	316	316	316	316	316	316	316	316	317	317	317	316	315	314	313	311	311	310	309	309	308	308	308	307	306	306	306	305	303	302	301	299	298	296	295	293	291	289	288	286	284	282	279	277	276	274	273	271	269	268	266	265	264	262	260	259	258	256	255	254	252	251	249	248	247	245	243	240	238	236	234	233	232	231	230	228	227	226	224	222	220	218	216	215	214	213	213	212	211	210	209	208	207	206	205	204	204	203	202	202	201	201	200	199	199	199	198	198	197	197	196	196	196	196	196	196	195	195	194	193	192	191	191	190	190	189	188	187	186	186	185	185	184	184	183	182	182
463	466	468	470	473	475	477	479	481	484	485	488	490	491	491	491	491	491	490	490	490	489	489	489	489	488	488	487	487	486	485	484	484	484	484	484	484	485	486	486	487	489	490	492	493	494	495	496	497	498	499	500	501	502	503	504	503	499	494	493	493	492	491	489	487	486	484	482	481	480	478	475	473	471	468	466	465	464	463	463	462	462	461	461	461	461	462	464	466	468	471	473	475	476	478	480	481	483	483	483	483	483	482	481	480	478	476	473	469	466	463	460	458	459	462	466	471	476	481	484	487	490	492	495	497	500	503	506	509	512	516	519	521	524	526	527	528	529	529	529	529	530	531	533	533	533	532	530	529	528	526	524	523	522	520	519	518	517	516	515	514	513	512	511	510	510	509	509	508	507	506	505	504	502	500	497	495	492	488	484	481	477	474	471	468	465	463	463	465	467	469	472	475	477	479	481	482	484	486	487	489	491	494	497	501	504	507	511	515	519	522	525	527	529	531	532	531	528	524	520	516	514	511	508	505	503	500	498	496	495	494	492	489	487	485	483	481	478	474	471	468	465	462	459	456	453	450	447	443	439	436	433	430	426	422	416	410	406	402	399	396	392	388	384	380	376	372	370	369	368	367	369	371	373	375	377	380	381	383	385	386	389	393	397	400	404	408	411	415	418	422	425	429	432	435	438	441	444	447	451	454	456	458	460	461	463	463	462	460	458	455	452	449	446	443	439	436	433	430	427	424	421	419	418	416	415	413	410	408	406	404	401	399	397	395	393	391	389	388	387	385	383	383	384	388	392	395	399	404	409	413	418	423	426	429	432	435	438	441	444	447	450	452	455	457	458	460	462	462	461	462	463	464	465	466	467	467	467	467	467	466	464	463	461	459	456	454	451	449	448	447	446	444	442	440	437	434	431	428	425	421	415	410	405	407	412	417	422	426	428	431	434	435	437	439	442	445	449	452	456	459	462	465	468	472	474	477	479	482	485	489	493	498	503	508	510	512	515	516	518	520	522	525	526	528	530	533	535	537	540	543	545	547	550	552	555	556	556	557	557	557	557	558	560	562	564	565	566	567	567	567	566	566	565	565	565	564	564	563	562	561	560	559	557	556	554	552	550	548	546	546	545	543	542	541	540	539	539	538	537	536	535	534	533	532	531	529	528	527	526	525	524	523	521	519	518	516	514	512	510	508	508	508	509	510	512	513	514	514	513	510	508	505	503	502	500	499	498	497	497	496	496	495	493	492	491	490	489	488	486	485	484	482	481	480	479	478	477	476	474	472	469	467	465	463	462	460	458	456	455	454	453	451	448	445	442	440	438	435	433	431	428	425	423	420	417	415	413	411	409	407	406	404	403	402	401	400	398	397	395	393	392	391	391	391	391	390	390	389	389	388	387	386	384	382	381	379	376	373	370	367	365	363	362	361	360	358	357	355	353	351	349	347	345	343	342	340	338	336	335	333	331	329	328	326	325	324	323	322	321	319	318	317	316	315	314	314	314	314	314	313	313	313	313	314	315	316	316	315	314	313	311	310	309	308	307	307	307	307	306	306	306	306	305	304	302	301	300	298	297	296	294	292	291	289	287	285	283	280	278	276	274	273	271	270	268	267	265	264	263	261	259	258	256	255	253	252	251	250	248	247	246	244	241	238	236	234	233	232	230	229	228	227	225	224	222	220	218	216	215	214	213	212	211	211	210	209	208	208	207	206	205	205	204	204	203	203	202	202	201	201	200	200	199	199	198	198	198	197	197	197	197	196	196	196	195	194	193	192	192	191	190	189	188	187	187	186	186	185	185	184	183	183	182
467	470	472	474	477	479	481	483	485	487	489	492	494	496	497	497	496	496	495	495	494	493	493	492	492	491	491	490	489	488	488	487	486	486	486	486	487	488	488	489	490	491	492	493	494	495	496	497	498	499	500	500	501	502	503	504	502	497	494	492	492	491	490	488	486	484	482	480	479	478	475	472	469	466	464	462	460	459	458	458	457	457	457	457	457	458	459	461	463	465	468	470	472	473	475	477	478	479	480	480	480	480	479	478	476	475	473	470	467	463	460	458	457	459	462	465	470	475	479	483	485	488	491	493	496	498	501	504	508	511	514	516	519	522	524	526	527	527	528	528	528	529	530	531	532	530	529	528	526	525	523	521	520	518	517	516	515	514	514	513	512	511	509	508	507	507	506	506	505	505	504	502	501	500	498	496	493	490	486	482	478	475	471	468	465	462	459	459	461	464	466	469	472	474	477	479	480	482	484	486	488	490	493	496	499	503	506	510	514	518	521	523	525	527	528	529	530	528	524	521	519	516	514	512	509	507	505	503	501	501	499	497	494	491	489	486	484	481	478	475	473	471	467	464	461	458	454	450	446	442	438	434	430	427	422	417	411	406	402	399	396	392	387	383	379	374	371	369	368	367	366	367	369	371	372	374	376	378	380	382	385	389	393	397	401	404	408	411	414	418	421	425	428	431	434	436	439	442	446	449	452	454	456	458	459	460	460	459	458	456	454	450	446	443	440	437	433	430	427	424	421	418	416	415	413	411	409	407	404	402	400	398	395	393	391	388	386	385	384	383	381	379	380	384	388	392	396	400	405	410	415	419	424	427	429	432	435	438	441	444	447	450	452	455	456	458	459	459	459	458	459	460	461	462	463	464	465	465	465	464	463	462	460	459	457	454	451	448	447	445	444	443	442	440	438	435	432	429	427	423	419	414	409	404	406	412	418	423	427	429	432	435	436	438	439	442	445	448	452	455	457	460	463	466	469	472	475	478	481	484	487	491	496	501	505	508	510	512	514	516	518	520	522	524	525	528	531	534	536	539	543	547	549	552	555	557	558	559	559	559	560	561	561	562	564	566	567	568	569	570	569	568	568	568	567	567	566	566	565	564	562	561	559	558	556	554	552	550	548	547	546	545	545	543	543	542	541	540	539	539	537	536	535	534	533	532	530	529	528	527	526	525	524	522	520	518	516	514	512	510	510	509	510	511	513	515	516	517	515	513	510	508	505	503	502	501	500	499	499	498	498	497	496	495	494	493	492	491	489	488	487	485	484	483	481	480	480	478	477	476	474	471	469	467	465	463	461	459	457	455	454	454	452	449	447	444	442	439	437	434	432	429	426	423	421	418	416	414	412	410	409	407	406	405	404	403	402	400	398	397	395	394	393	393	393	393	392	391	391	390	390	389	387	385	384	382	380	378	375	372	369	366	364	363	362	360	359	358	356	354	352	350	348	346	344	343	341	339	337	335	333	332	330	329	328	327	325	324	323	322	320	319	318	316	315	314	313	312	311	311	311	310	310	311	312	313	314	314	314	313	312	310	309	307	306	306	306	305	305	304	305	305	305	304	303	301	300	299	297	296	295	293	291	290	288	286	284	282	279	277	275	273	272	270	268	267	265	264	263	262	260	258	256	254	253	252	251	250	248	247	246	244	241	239	236	234	233	232	231	230	228	227	226	224	223	221	219	217	215	214	213	213	212	211	211	210	210	209	209	208	208	207	206	205	205	204	204	203	203	202	202	201	201	200	200	199	199	199	198	198	198	198	197	197	197	196	195	194	193	192	192	191	190	189	188	187	187	186	186	185	185	184	183	183
471	473	476	478	481	483	485	486	488	491	494	497	500	502	503	503	502	502	501	500	499	498	498	497	496	495	494	493	492	491	490	490	489	488	489	489	489	490	491	492	493	493	494	495	496	496	497	498	499	500	500	501	502	502	503	503	501	497	495	493	491	490	488	486	485	482	481	479	477	475	472	469	465	462	460	457	455	454	453	452	451	451	451	451	452	453	455	458	460	463	465	467	468	470	471	473	474	475	475	476	476	476	475	474	473	471	469	467	463	460	458	456	456	458	461	464	469	473	478	481	484	486	489	491	494	497	500	503	506	509	512	514	517	520	523	525	525	526	527	526	527	528	529	530	529	528	526	525	523	521	520	518	517	516	515	514	513	512	511	510	509	508	506	505	504	503	502	502	502	502	501	500	499	498	496	494	491	488	483	479	476	472	469	465	462	458	456	456	458	461	464	466	469	472	474	477	479	480	482	484	486	488	491	494	498	501	505	508	512	515	518	521	523	524	525	526	527	527	526	524	522	519	517	515	513	510	509	507	506	505	504	501	498	495	492	490	487	484	481	479	477	475	472	468	464	460	456	452	448	443	438	435	431	427	423	418	412	406	402	399	396	391	387	382	378	374	370	369	368	367	365	365	366	368	370	372	373	375	378	381	385	389	393	397	400	403	407	410	413	417	421	424	427	430	432	435	438	441	443	446	449	452	455	456	457	458	458	457	456	455	452	448	444	440	437	434	431	427	424	421	419	416	414	412	410	408	406	403	401	399	396	394	391	388	386	384	382	380	379	378	377	376	380	385	390	394	398	402	407	411	416	420	424	427	430	433	436	439	441	444	447	450	453	455	456	457	457	457	456	455	455	456	457	459	460	461	462	462	462	461	460	459	458	456	454	451	448	445	444	442	441	440	439	437	435	433	430	428	425	421	417	412	407	402	406	413	420	425	428	431	433	436	438	439	441	443	446	449	452	454	455	458	461	464	467	470	473	476	479	482	485	489	492	496	500	503	506	509	511	512	515	517	520	521	523	526	529	532	535	539	544	547	550	553	556	558	559	560	561	561	562	563	564	565	566	568	569	571	571	572	572	571	571	570	570	569	569	568	566	565	563	562	560	558	556	554	552	551	549	548	547	546	546	545	544	544	543	542	541	540	538	537	536	535	534	533	532	531	529	528	527	526	524	523	521	519	517	515	513	512	512	512	512	514	515	517	517	517	515	513	510	508	505	504	503	502	501	501	500	500	500	499	498	497	496	495	493	492	491	490	489	487	485	484	483	482	481	479	478	477	475	473	470	468	466	464	462	460	458	456	455	454	453	450	448	445	443	441	438	435	432	429	426	423	421	419	417	415	413	412	410	408	407	406	405	405	404	402	401	399	397	396	395	395	395	395	394	393	392	392	391	389	388	387	385	383	381	379	376	373	370	367	365	363	362	361	360	359	357	355	353	351	349	347	345	344	342	340	338	336	334	333	332	331	330	329	327	325	323	322	321	320	319	318	316	314	313	311	310	309	308	308	308	308	309	311	312	312	312	312	311	309	308	306	306	306	305	304	303	302	303	303	303	302	301	300	299	297	296	295	294	292	290	289	287	285	283	280	277	275	273	272	270	269	267	265	263	262	260	259	257	256	254	253	252	251	250	248	247	246	244	242	240	237	235	234	233	232	230	229	228	226	225	223	222	220	218	216	215	214	214	213	213	213	212	212	211	211	210	210	209	208	208	207	206	206	205	204	204	203	203	202	202	201	201	200	200	200	200	199	199	199	198	198	197	197	196	195	194	193	192	191	190	189	188	188	187	187	186	185	185	184	184	183
474	477	479	482	484	487	488	490	492	496	499	503	506	508	508	509	508	508	507	506	505	504	503	501	500	499	498	497	495	494	493	492	491	491	491	491	492	493	494	494	495	495	496	496	497	497	498	499	500	501	501	501	502	503	503	502	500	497	496	493	490	488	487	485	483	481	479	477	475	472	469	465	462	458	456	453	452	450	449	448	447	447	446	446	447	449	452	455	457	459	462	463	465	466	468	469	470	470	471	472	472	472	471	470	469	467	465	463	460	457	456	455	456	457	460	463	467	472	476	479	482	485	488	490	493	495	498	501	504	507	510	512	515	519	522	524	525	525	525	525	526	527	528	528	527	525	523	521	519	518	517	515	514	513	512	512	511	510	508	507	506	504	503	502	501	500	499	499	499	499	498	497	496	495	494	492	489	485	481	477	473	470	466	463	459	455	453	453	455	458	461	463	466	469	471	474	476	479	481	483	485	487	490	492	495	499	502	506	509	512	514	517	519	521	522	523	525	526	526	525	525	523	521	518	516	513	512	511	510	509	507	505	501	498	495	492	489	487	484	481	479	477	473	469	465	461	457	453	448	443	438	435	431	427	423	418	411	406	402	399	396	391	387	382	378	373	370	369	368	366	364	363	364	366	367	369	371	374	377	381	385	389	393	396	399	402	405	409	412	415	419	423	426	428	431	433	436	438	441	444	446	449	452	453	455	456	456	455	454	452	449	445	441	438	435	431	428	425	422	419	416	414	411	409	407	405	403	400	398	395	392	390	387	384	381	379	377	376	375	374	373	375	380	385	390	395	400	404	409	413	417	422	425	428	431	434	436	439	442	444	447	450	452	454	455	455	455	454	453	452	452	453	454	455	457	458	459	459	459	459	458	457	455	453	451	447	444	442	440	439	438	438	437	435	433	431	429	426	423	419	414	410	406	401	406	413	421	426	429	433	435	438	439	441	443	445	447	450	453	454	454	456	459	463	466	469	472	474	476	480	483	486	488	491	494	498	501	504	506	508	511	514	517	520	522	525	529	532	536	539	544	547	550	553	555	557	558	560	561	562	563	564	566	567	568	570	572	573	574	574	574	574	573	573	572	571	571	569	568	566	564	562	560	558	556	554	553	551	550	549	548	547	547	547	546	545	544	543	542	541	539	538	537	536	535	534	532	531	530	529	528	526	525	524	522	520	518	516	515	514	514	514	515	516	517	518	519	518	515	512	510	507	505	504	504	503	502	502	502	502	501	501	499	498	497	496	495	494	493	491	490	488	487	485	484	483	481	480	478	477	475	473	471	469	467	465	463	461	459	457	455	454	453	451	448	446	444	441	439	436	433	429	426	423	421	419	418	416	414	412	411	410	409	408	406	405	405	404	402	401	399	398	397	397	397	396	396	395	394	392	391	390	389	388	386	384	382	380	377	374	370	367	365	364	363	362	360	360	358	357	355	352	351	348	346	345	343	341	339	337	336	335	334	333	332	331	329	327	324	323	322	321	320	319	318	316	315	313	311	308	307	306	306	306	307	309	310	310	311	311	310	309	307	306	306	305	304	302	301	300	301	301	300	300	299	298	297	296	295	293	292	291	289	288	286	284	281	278	276	274	272	271	269	268	266	264	261	259	258	256	255	254	253	252	251	250	248	247	246	244	243	241	238	236	235	234	233	231	230	229	227	226	224	223	221	220	218	217	216	215	215	215	214	214	214	213	213	212	212	211	211	210	209	209	208	207	206	206	205	204	204	203	203	202	202	201	201	201	201	200	200	200	199	199	198	197	196	195	195	194	193	192	191	190	189	188	187	187	186	185	185	185	184	183
478	480	483	485	488	490	492	494	498	502	506	509	511	513	514	515	515	514	513	512	511	509	507	506	504	503	502	500	499	498	497	496	495	494	494	493	494	495	496	496	497	497	498	498	499	499	499	500	500	501	501	501	502	503	503	502	499	497	496	493	489	487	486	484	482	479	477	476	473	469	465	461	458	455	454	452	450	449	448	447	446	445	445	445	445	447	449	452	454	456	458	460	461	463	464	465	466	466	467	468	468	468	467	465	464	463	461	459	457	456	454	454	454	456	458	462	466	470	474	478	481	484	486	489	491	493	496	499	502	505	508	511	514	517	520	523	524	524	524	524	525	526	527	526	525	522	519	517	516	515	514	513	512	511	510	510	508	507	505	504	502	501	500	498	497	496	496	496	496	496	495	495	494	493	491	490	487	483	478	474	471	467	464	460	457	453	451	451	453	455	458	461	463	466	469	471	474	476	479	481	483	485	488	490	493	497	500	503	505	507	510	513	516	518	519	521	523	525	525	526	526	525	523	520	517	515	514	512	511	510	509	507	503	500	497	493	490	487	484	481	478	475	471	467	464	460	456	452	447	442	437	434	431	427	423	417	410	405	402	399	396	391	387	383	378	373	370	368	367	365	363	361	361	363	365	367	370	373	377	381	385	388	392	395	397	401	404	407	410	413	417	421	424	427	429	431	434	436	438	440	443	446	448	450	451	453	453	453	451	449	445	441	438	435	432	429	426	423	419	417	414	411	409	406	404	402	400	397	394	391	388	386	383	380	377	375	373	372	371	370	371	374	379	385	390	395	400	405	409	414	419	423	426	429	432	435	437	440	442	444	446	449	452	453	453	452	452	451	450	449	449	450	451	452	454	455	456	456	456	456	455	454	452	450	447	443	440	438	437	436	436	435	434	433	431	429	427	424	420	416	412	408	404	399	404	413	421	427	431	435	438	440	442	444	445	447	449	452	454	454	454	455	458	462	466	468	471	473	475	478	481	484	486	488	490	493	496	499	502	504	507	511	516	519	522	526	529	533	537	540	544	547	549	551	553	555	556	557	559	561	563	565	567	569	571	573	575	576	576	576	576	576	576	575	573	572	572	571	569	566	564	562	560	558	556	554	553	552	551	550	549	549	548	548	547	546	545	544	543	541	540	538	536	536	535	534	533	532	530	529	528	527	526	525	523	521	520	518	517	516	516	517	517	518	519	520	521	519	515	513	510	508	506	505	504	504	504	504	504	504	503	502	501	500	499	498	497	495	494	492	491	489	488	486	485	483	482	480	479	477	476	474	472	470	468	466	464	462	460	458	456	454	453	451	448	446	444	441	439	436	433	429	426	424	422	420	418	417	415	413	412	411	410	409	408	406	405	405	404	403	401	400	400	399	399	398	397	396	394	393	392	390	389	388	386	384	382	380	377	374	371	367	365	364	363	362	361	360	359	358	356	354	352	350	348	346	344	342	340	339	338	337	336	336	335	334	332	329	326	324	323	323	322	321	320	318	317	316	313	310	307	305	304	305	306	307	307	308	309	309	309	308	307	306	305	304	303	301	299	299	298	298	298	298	297	296	295	294	293	292	291	289	288	287	285	282	279	277	274	273	271	270	268	267	265	262	259	257	256	255	254	253	252	251	250	248	247	246	245	243	241	240	238	236	234	234	233	231	230	229	227	226	224	223	222	220	220	219	218	217	217	216	216	216	215	215	214	214	213	213	212	212	211	211	210	209	208	208	207	206	205	205	204	203	203	203	202	202	202	201	201	200	200	199	199	198	197	196	195	194	193	192	191	190	189	189	188	187	186	185	185	185	185	184
482	484	486	489	491	493	496	500	504	509	512	515	517	519	520	520	521	520	519	518	516	514	512	510	508	507	505	504	503	501	500	499	498	497	497	496	497	497	498	499	499	499	500	500	500	501	501	501	501	502	501	501	502	502	502	501	499	498	496	493	488	485	484	482	480	478	476	473	470	465	461	458	456	455	453	452	450	449	447	446	445	444	444	444	444	445	447	449	451	453	455	456	458	459	460	461	461	462	463	463	463	463	462	461	460	459	458	457	456	455	453	453	453	455	458	461	465	469	472	476	479	482	485	487	490	492	494	497	500	503	506	509	512	515	519	521	523	523	523	523	525	526	526	525	522	518	515	514	513	512	511	510	509	508	507	507	505	503	502	500	499	497	496	495	494	493	492	492	492	492	492	492	491	490	488	486	484	480	476	473	469	465	462	458	455	451	449	449	451	453	455	458	461	463	466	468	471	474	476	479	481	483	486	488	491	494	497	500	502	504	506	508	512	514	516	518	520	523	524	525	525	524	522	520	518	515	513	511	510	510	509	507	504	500	497	493	489	485	482	478	475	472	468	464	461	457	454	450	444	439	436	433	430	427	423	416	409	404	401	398	396	392	388	383	379	374	370	368	366	365	363	361	359	360	362	365	369	372	376	380	383	387	390	393	396	399	402	405	408	411	414	418	422	424	427	429	431	433	435	437	440	442	444	446	448	449	449	449	448	446	442	439	435	432	430	427	424	420	417	414	412	409	406	404	401	399	397	394	391	388	384	382	379	376	373	371	370	369	368	368	370	373	379	384	390	395	399	404	409	414	419	424	427	430	433	436	438	440	442	444	446	449	451	451	450	450	449	448	447	447	446	447	448	450	451	452	453	453	454	453	452	451	449	447	443	440	437	435	434	434	433	433	432	431	429	427	425	421	417	412	409	405	400	398	404	413	421	427	432	436	439	442	444	445	447	450	451	453	454	454	455	456	458	462	465	468	470	472	474	476	479	482	484	486	488	490	492	495	498	502	505	510	515	519	523	527	530	534	537	540	543	546	548	550	551	553	554	556	558	560	563	565	568	570	573	575	577	578	578	579	578	578	578	577	575	573	572	571	569	566	564	562	559	557	555	555	554	553	552	551	550	550	549	549	548	547	546	545	543	542	540	539	536	535	535	534	533	532	531	530	529	528	527	526	525	523	521	520	519	519	519	519	520	521	522	523	522	519	516	514	511	509	506	505	505	505	505	505	505	505	505	504	503	502	501	499	498	497	495	493	492	490	488	487	485	484	482	481	479	478	476	474	472	470	468	466	464	462	460	458	456	454	453	450	448	446	443	441	439	436	433	429	426	424	423	421	419	417	416	415	413	412	411	410	409	408	406	405	405	404	403	402	401	401	400	399	397	396	394	393	392	390	389	388	386	384	382	380	377	374	371	368	365	364	363	362	361	360	360	359	357	355	354	352	350	348	345	343	342	341	340	339	338	338	337	336	334	332	330	327	326	324	324	323	322	321	320	318	315	312	309	306	304	304	304	305	306	306	307	307	308	308	307	306	305	303	301	300	298	297	296	296	296	295	295	294	293	292	291	290	289	288	287	285	283	280	278	275	273	272	270	269	267	266	263	260	257	255	254	254	253	252	251	250	249	247	246	245	244	242	241	239	237	235	234	233	232	231	230	229	227	226	224	223	223	222	221	220	220	219	219	219	218	218	217	217	216	215	215	214	214	213	213	212	212	211	211	210	209	208	207	206	205	205	204	204	203	203	203	202	202	201	201	200	199	198	198	196	195	194	194	193	192	191	190	189	188	187	186	186	185	185	185	185
486	488	490	492	496	499	503	507	511	515	519	522	524	525	526	526	526	526	525	523	521	519	517	514	512	511	509	508	506	505	504	503	502	501	501	500	500	500	501	501	501	501	502	502	502	502	502	502	502	502	502	501	501	501	501	500	499	498	496	492	488	484	483	481	479	476	474	471	466	462	459	457	456	455	453	452	449	447	445	444	443	443	443	443	442	441	443	445	448	450	451	453	454	455	456	457	457	458	458	459	459	459	458	457	456	456	455	455	454	453	452	451	452	455	457	460	464	467	470	474	478	481	483	486	488	491	493	495	498	501	505	508	511	514	516	519	521	521	522	523	525	526	526	523	519	516	513	512	510	509	508	507	506	505	504	503	502	500	498	496	495	494	493	491	490	490	489	489	489	489	489	488	487	486	484	482	480	477	474	471	467	463	460	456	453	449	447	447	449	450	452	455	458	461	463	466	468	471	473	476	479	481	483	486	488	491	494	497	499	501	503	505	508	511	513	515	517	520	522	523	523	522	520	518	516	513	511	509	508	508	507	505	503	500	496	491	487	483	479	475	472	468	465	461	458	454	450	446	441	437	435	432	429	426	422	415	408	403	401	399	396	393	389	384	379	374	371	368	367	365	362	360	357	357	360	364	367	371	374	378	381	384	388	390	393	396	399	402	405	408	411	415	419	421	424	427	429	431	433	435	437	439	441	442	444	445	446	446	445	443	440	436	433	430	427	424	421	418	415	412	409	407	404	401	399	396	393	390	387	384	381	378	375	372	370	368	367	366	365	366	370	374	379	384	389	393	398	403	409	414	419	424	427	430	434	437	439	441	442	444	446	448	449	449	448	447	446	445	444	444	444	444	446	447	448	449	450	450	450	450	449	448	446	444	441	437	435	433	432	431	431	430	430	428	427	425	422	417	413	409	405	401	398	397	403	411	420	427	432	437	440	443	445	447	449	452	453	454	454	455	457	458	460	462	465	467	470	472	473	475	477	480	482	484	486	487	490	492	496	500	505	509	514	519	523	527	531	534	537	540	542	544	546	548	550	551	553	554	557	560	562	565	568	571	573	576	578	579	580	580	580	579	579	577	575	573	572	570	568	566	563	561	559	557	555	555	555	554	553	552	551	551	551	550	549	548	546	545	544	542	540	538	537	536	535	535	534	533	532	531	529	528	528	527	526	524	523	522	521	521	522	522	523	523	524	524	523	520	517	515	512	510	508	507	506	506	506	507	507	507	507	506	505	504	502	501	499	498	496	494	492	490	489	487	486	484	482	481	479	478	477	475	473	470	468	466	464	462	460	458	456	454	452	449	447	445	443	441	438	436	432	429	426	424	423	421	420	418	417	416	415	414	412	411	410	409	407	406	405	405	404	404	403	402	400	399	397	396	395	393	392	391	389	388	386	384	382	379	377	374	371	368	366	364	364	363	362	361	361	360	359	357	355	354	352	350	348	346	344	343	342	341	341	340	339	338	337	335	333	331	329	327	326	325	324	323	322	320	317	315	311	308	306	304	303	303	304	305	306	306	306	307	306	305	304	302	300	298	297	296	295	294	294	293	293	292	291	289	288	288	287	286	285	284	282	279	276	274	273	271	269	268	266	264	261	258	255	254	254	253	252	251	250	249	248	246	245	244	243	242	240	239	237	235	234	233	232	231	230	229	228	227	226	225	224	223	223	222	222	222	221	221	220	220	220	219	218	218	217	216	216	215	215	214	214	213	213	212	211	211	210	209	208	207	206	205	204	204	203	203	203	202	201	201	200	199	198	197	196	195	194	193	192	191	190	189	189	188	187	186	185	185	185	185
490	492	494	497	502	506	510	514	518	522	525	528	530	532	532	533	532	531	530	527	525	523	521	519	517	515	513	512	510	509	508	507	506	505	504	504	503	503	503	503	503	503	503	503	504	504	503	503	503	502	502	501	501	500	500	499	499	497	495	491	487	483	482	480	477	474	471	467	463	460	458	457	456	454	452	450	448	445	444	443	442	441	440	439	438	437	439	442	445	447	448	450	451	452	452	453	454	454	455	455	455	455	455	454	454	453	453	452	452	451	450	450	451	454	456	459	462	465	468	472	476	479	482	484	487	489	492	494	497	501	504	507	509	512	514	517	519	520	521	522	525	526	525	522	517	514	512	510	508	507	505	504	503	502	501	499	498	496	494	493	492	490	489	488	487	487	486	486	485	485	485	484	483	482	480	479	477	475	472	468	465	461	458	454	451	447	444	445	446	447	450	452	455	458	460	463	465	468	471	474	476	479	481	484	486	489	491	494	497	498	500	503	506	508	510	512	514	517	519	520	521	520	518	515	513	510	508	506	505	504	503	502	500	497	493	488	484	479	476	472	468	465	461	458	455	451	447	442	439	435	433	430	428	425	420	414	408	403	401	399	397	394	391	386	381	376	372	369	367	365	362	359	356	354	357	360	364	368	372	376	379	382	385	388	390	393	396	399	402	405	408	411	415	418	421	424	426	428	430	432	434	436	438	439	440	441	442	442	441	440	437	434	431	427	424	421	418	415	412	409	406	404	401	399	396	393	390	386	383	380	377	374	371	369	367	366	364	363	363	365	369	373	378	383	387	392	397	403	408	414	419	424	428	431	434	437	439	441	442	444	446	447	447	446	445	444	443	442	441	441	441	441	443	444	445	446	446	447	447	447	446	445	444	441	439	436	433	431	429	428	428	428	427	426	425	422	418	413	409	405	401	398	395	395	399	407	419	427	432	437	441	444	446	449	451	453	454	454	456	457	459	461	462	464	466	468	470	471	473	474	476	478	480	482	484	486	488	491	495	500	504	509	514	518	523	527	530	533	536	538	541	543	546	547	549	551	552	554	556	559	562	565	568	571	573	576	579	580	581	581	581	580	579	577	575	573	571	568	566	564	563	561	558	556	555	555	555	555	554	553	553	552	551	551	550	548	546	545	543	542	539	537	536	535	535	535	534	533	532	531	530	529	529	528	526	525	524	524	523	524	524	525	525	526	526	526	524	522	519	517	514	512	511	509	509	508	509	509	509	509	509	508	507	505	504	503	501	499	497	495	493	491	489	487	486	484	483	481	480	479	477	475	473	471	469	467	464	462	460	458	456	454	451	449	446	444	442	440	437	434	432	429	427	425	424	422	421	419	418	417	416	415	413	412	411	410	408	407	405	405	405	404	403	402	400	399	398	396	395	393	392	391	389	388	386	384	381	379	377	374	371	369	366	365	364	363	363	362	361	361	360	359	358	356	354	352	350	348	346	345	344	343	343	342	341	340	339	338	336	335	333	331	330	328	327	326	324	322	319	316	313	310	307	305	303	302	302	303	304	305	305	305	305	304	303	301	299	297	296	295	294	293	292	292	291	290	289	287	286	286	285	284	284	283	280	277	275	273	272	270	269	267	265	263	259	256	255	254	253	252	252	251	250	248	247	246	245	244	243	242	240	239	237	236	234	233	232	231	231	230	229	229	228	227	226	225	225	224	224	224	223	223	223	222	222	221	221	220	220	219	218	218	217	217	216	216	215	215	214	213	212	211	210	209	208	207	206	205	204	204	203	203	202	201	201	200	198	197	196	195	194	193	192	192	191	190	190	189	188	187	186	185	185	185
494	496	498	503	508	512	516	521	525	529	532	535	537	538	539	539	538	537	535	532	530	528	525	523	521	520	518	516	514	513	512	510	509	508	508	507	507	506	506	505	505	505	505	505	505	505	504	504	503	503	502	502	501	500	499	499	498	496	494	490	486	483	481	479	476	473	469	465	461	459	458	456	454	452	450	448	445	443	442	442	441	439	437	436	434	433	435	438	441	443	445	446	447	448	449	449	450	451	451	452	452	452	452	452	451	451	450	450	450	449	448	448	450	452	455	458	461	464	467	470	474	477	481	483	486	488	491	494	497	500	502	505	508	510	513	515	518	519	520	522	525	526	524	520	516	513	511	509	507	504	502	501	500	498	497	496	495	493	491	490	488	487	486	485	484	484	483	482	482	482	481	481	479	478	477	475	474	472	469	466	463	460	456	452	449	445	442	442	443	444	447	450	452	455	457	460	462	465	468	471	474	477	479	481	484	486	489	492	494	495	498	500	503	505	507	509	512	514	516	518	518	518	515	512	510	507	505	504	502	500	498	497	496	493	489	485	480	476	472	468	465	461	458	455	451	447	443	440	436	434	431	429	426	423	420	414	409	403	401	399	397	395	393	389	384	379	374	370	368	365	362	359	355	352	352	355	359	364	369	374	377	379	382	385	387	390	393	396	398	401	405	408	411	415	418	421	424	426	428	430	432	434	435	436	437	438	439	439	438	436	434	432	428	425	422	419	415	412	409	406	403	401	398	396	393	390	386	381	378	375	373	370	368	366	364	363	361	360	361	365	369	373	378	382	387	392	396	402	407	413	419	424	427	431	435	438	440	441	442	444	445	445	445	444	443	442	441	440	438	438	438	438	440	441	442	442	443	443	443	443	443	442	441	439	437	434	431	428	426	425	425	425	425	424	421	418	414	409	404	400	397	394	393	394	397	407	419	427	433	438	441	444	447	449	452	454	455	456	457	459	461	463	464	466	467	469	470	471	473	474	475	477	479	480	482	484	487	490	495	499	504	509	513	518	522	526	529	533	536	538	541	543	545	547	549	550	552	554	556	559	562	565	568	570	573	576	579	581	582	583	581	580	579	577	575	572	570	567	565	564	563	561	559	557	556	555	555	555	554	554	554	553	552	551	550	548	546	545	543	540	538	536	535	535	535	535	535	534	533	531	530	530	530	529	527	526	526	525	526	526	527	528	528	528	528	528	526	524	522	519	517	515	514	513	512	512	512	512	512	512	511	510	509	508	506	504	502	500	497	495	493	491	489	488	486	485	483	482	481	479	477	476	473	471	469	467	464	462	460	458	455	453	451	448	446	443	441	439	436	434	432	430	428	426	425	423	422	421	419	418	417	415	414	413	412	410	409	407	406	405	404	404	403	402	400	399	398	396	395	393	392	390	389	388	385	383	381	379	376	374	371	369	367	366	365	364	364	363	363	362	361	361	360	358	357	354	352	350	348	347	346	345	344	344	343	342	341	340	338	337	336	335	334	332	331	329	327	324	321	318	315	312	309	306	303	302	301	301	302	303	303	303	303	302	301	300	298	297	295	294	293	292	291	290	290	289	287	286	285	284	283	283	282	281	279	276	274	272	271	269	268	266	264	261	257	255	254	253	253	252	251	250	249	248	247	245	244	244	243	242	240	239	237	236	235	234	233	232	232	232	232	231	231	230	229	228	227	227	226	226	226	225	225	225	224	224	223	223	222	222	221	221	220	220	219	218	218	217	216	216	215	214	213	212	210	209	208	207	206	205	204	204	203	202	201	200	199	198	197	196	194	194	193	192	192	191	191	190	189	188	187	187	187	186
497	500	503	508	513	518	522	526	531	535	538	541	542	543	543	543	542	541	540	537	534	532	530	527	525	524	522	520	519	517	516	514	513	512	511	510	509	508	507	507	507	507	507	507	507	506	506	505	504	504	502	501	500	499	498	497	496	495	493	489	485	482	480	477	474	470	467	463	461	460	458	455	453	451	448	445	443	442	442	441	439	437	435	433	432	431	432	435	438	440	441	442	443	444	445	446	446	447	448	449	449	449	449	449	448	448	448	447	447	447	446	447	448	451	454	457	460	463	466	469	473	476	480	482	485	488	490	493	496	499	501	504	507	509	512	515	517	518	519	522	525	525	523	518	514	512	510	508	505	502	500	498	497	495	494	493	491	490	488	486	485	484	483	482	481	481	480	479	479	478	478	477	476	475	474	472	471	469	467	464	461	457	454	450	446	443	440	439	440	442	444	447	449	452	454	456	459	462	465	468	471	474	477	479	482	484	487	489	491	493	495	497	500	502	504	506	509	512	514	515	516	515	513	510	507	505	503	501	499	497	495	494	491	489	485	481	477	472	468	464	460	457	454	451	448	445	441	437	434	431	429	426	424	422	419	415	409	404	400	399	397	395	395	391	386	381	376	372	368	365	361	357	353	350	349	351	355	360	365	370	374	376	379	382	384	387	389	392	395	398	402	405	408	411	414	417	420	423	425	428	429	431	432	433	434	435	435	435	434	433	431	429	426	422	419	415	412	409	406	403	400	397	395	393	390	386	382	378	374	371	369	367	365	363	361	360	358	357	360	364	369	373	378	382	386	391	395	401	406	412	418	423	427	430	434	438	440	441	442	443	443	443	442	442	441	440	439	437	435	435	434	435	436	437	438	439	439	440	440	440	439	439	438	437	435	432	429	426	424	424	422	421	420	419	416	413	409	405	400	396	393	391	391	394	398	408	419	427	433	438	441	444	447	450	452	454	456	457	459	461	463	465	467	468	470	471	471	472	473	474	475	476	478	479	481	484	487	490	494	499	504	508	513	517	522	526	530	533	536	538	541	543	546	547	549	551	552	554	557	559	562	564	567	570	572	575	578	581	582	583	582	581	579	577	574	571	569	567	565	564	563	561	559	558	557	556	555	555	555	555	555	554	553	552	550	549	546	544	542	540	537	536	535	535	535	535	535	534	533	532	531	531	531	530	528	528	527	527	528	529	530	530	530	530	530	530	528	526	524	522	520	518	517	516	516	515	515	515	514	514	514	512	511	509	507	505	502	500	498	496	494	491	490	488	487	486	484	483	482	480	478	476	474	471	469	466	464	462	459	457	455	452	450	448	445	443	441	438	436	434	432	430	428	427	425	424	423	421	420	419	417	416	415	414	412	411	409	408	406	405	405	404	403	401	400	399	397	396	394	393	391	390	389	387	385	383	381	378	376	374	372	370	369	367	366	365	365	365	364	363	363	362	362	360	359	357	355	353	352	350	349	348	347	346	345	343	343	342	340	339	339	338	337	336	334	332	329	325	322	319	316	313	310	307	305	302	300	300	300	301	301	301	301	300	299	298	297	296	294	293	292	291	290	289	288	287	286	285	284	283	282	281	280	279	277	275	273	272	270	268	267	265	262	259	256	254	254	253	252	251	251	250	249	248	246	245	244	243	242	241	240	239	238	237	236	236	235	235	235	235	235	234	234	233	232	231	230	230	229	229	228	228	228	227	227	227	226	226	225	225	224	224	223	222	222	221	220	219	219	218	217	216	215	214	213	212	211	209	208	207	205	205	204	203	202	201	200	199	197	196	195	194	193	193	193	192	192	191	190	189	189	188	188	188
499	504	508	513	519	523	526	530	535	539	542	544	546	546	545	544	543	543	542	540	538	536	534	531	529	527	525	524	522	521	520	518	516	515	514	513	512	510	509	509	509	508	508	508	508	508	507	506	505	504	502	501	499	498	497	496	495	494	492	488	484	481	479	476	471	468	465	463	462	459	457	454	452	449	445	443	442	442	441	440	438	436	434	433	431	431	431	433	435	437	438	439	439	440	441	442	443	444	444	445	446	446	446	446	446	445	445	445	445	444	444	445	447	450	453	456	459	461	465	468	472	475	479	482	484	487	490	493	495	498	501	503	506	509	511	514	516	517	519	522	525	524	520	516	513	511	509	506	503	500	497	495	494	492	491	489	488	486	485	483	482	481	480	479	478	478	477	477	476	475	475	474	473	472	471	470	468	467	464	462	459	455	452	448	444	440	438	437	438	439	441	443	446	448	451	453	456	459	463	465	468	471	474	477	479	482	484	486	488	490	492	494	497	499	501	504	507	510	512	513	514	514	512	509	506	504	501	499	497	495	493	490	487	484	481	477	473	468	464	460	456	453	451	448	446	442	439	435	432	429	427	424	422	419	416	413	409	404	400	398	397	396	395	391	386	382	377	372	368	364	360	356	352	348	346	347	350	356	362	367	370	373	376	378	381	383	386	389	392	395	398	401	404	408	411	414	417	420	423	425	427	428	430	430	431	432	432	432	431	430	428	425	423	420	416	413	409	406	402	399	397	394	392	390	387	383	379	375	371	368	365	363	361	360	358	356	355	355	359	364	369	373	378	382	386	390	395	400	405	411	416	422	426	430	433	437	439	441	441	442	441	441	440	440	439	438	436	435	433	432	431	431	433	434	435	435	436	436	437	437	436	436	436	435	433	431	428	425	424	423	419	415	414	413	410	407	404	400	395	392	389	389	391	394	398	408	419	427	432	438	441	444	447	450	453	455	457	459	462	463	465	467	469	470	472	473	473	473	474	475	476	478	479	480	482	484	487	491	495	499	504	508	512	516	521	527	531	534	537	540	542	544	546	548	550	551	553	555	557	559	562	564	566	569	572	574	578	580	582	583	582	581	579	576	573	571	568	566	564	564	563	562	560	559	558	557	556	556	556	556	555	555	554	553	551	549	547	544	542	540	537	535	535	535	535	535	535	535	534	533	532	532	532	531	530	530	530	530	531	532	532	533	533	533	533	532	530	529	527	525	523	521	519	519	518	518	517	517	516	516	516	514	512	510	507	505	503	501	498	496	494	492	490	489	488	487	485	484	482	481	478	476	474	471	469	466	464	461	459	457	454	452	450	447	445	442	440	438	436	434	432	431	429	428	426	425	423	422	421	419	418	417	416	414	413	411	410	408	407	406	405	404	402	401	399	398	396	395	394	392	391	389	388	386	384	382	380	378	377	375	373	371	369	368	367	367	367	366	366	365	365	364	363	362	361	359	358	356	355	354	352	351	350	348	347	345	345	344	343	342	341	340	339	338	336	333	329	326	323	320	317	314	310	307	305	303	301	299	299	299	299	299	298	298	297	297	296	295	294	293	291	290	289	288	287	286	285	284	283	282	281	280	279	278	276	274	273	271	269	267	266	264	260	257	255	254	253	253	252	251	250	249	248	247	246	245	244	243	242	242	241	241	240	240	240	239	238	238	238	238	237	237	236	236	235	234	234	233	232	232	231	231	231	230	230	229	229	229	228	227	227	226	226	225	224	224	223	222	221	220	219	218	217	216	215	214	213	212	210	209	207	206	205	204	202	201	201	199	198	197	196	195	194	194	193	193	193	193	192	191	190	190	190	189
499	505	510	516	521	525	528	532	537	541	545	547	547	546	545	544	544	544	544	542	540	538	536	534	532	530	528	526	525	524	523	521	520	519	517	516	514	512	511	511	511	510	509	509	509	509	508	507	505	503	501	500	499	498	496	495	495	493	490	486	482	480	478	474	470	467	465	464	461	459	456	454	451	447	443	442	442	441	440	439	437	436	434	432	430	428	428	430	432	433	434	435	435	436	437	438	439	440	441	441	442	442	443	443	442	442	442	442	442	442	442	442	445	448	451	454	457	460	463	467	470	474	477	480	483	486	489	492	495	498	500	503	505	508	511	513	516	517	518	522	523	522	518	515	512	510	507	504	502	498	495	493	491	489	488	486	485	483	482	480	479	478	477	476	476	475	474	474	473	473	472	471	470	469	469	468	466	464	462	459	456	453	450	446	443	439	436	435	436	437	439	440	443	445	448	451	454	457	460	463	465	468	471	474	476	478	481	482	484	486	489	491	494	496	498	501	504	507	509	511	513	513	511	508	506	503	500	498	495	492	490	487	484	480	476	473	468	463	459	456	453	450	448	445	443	440	436	433	430	427	424	421	419	416	413	411	408	404	400	397	397	395	393	389	384	380	376	371	367	363	358	354	350	345	343	345	348	353	358	363	366	370	372	375	377	380	383	385	388	391	394	398	401	404	407	410	413	416	419	422	424	426	427	428	428	429	429	429	428	427	425	422	419	417	413	410	406	403	399	396	393	391	389	386	384	381	377	372	369	365	362	359	357	356	354	353	352	354	359	364	369	374	378	382	386	390	394	399	405	410	415	420	425	429	432	436	439	440	440	440	439	439	438	437	436	435	433	432	430	429	428	428	429	430	431	432	433	433	434	434	433	433	433	432	431	429	427	424	422	419	414	410	408	407	405	402	398	395	390	387	387	390	392	395	400	409	419	426	432	437	441	444	447	450	452	455	458	460	463	465	467	469	471	472	474	474	474	475	476	477	478	480	481	482	483	485	488	492	496	500	504	508	512	516	521	527	532	535	538	541	543	546	548	549	550	552	553	555	557	560	562	564	566	569	571	574	577	580	582	583	582	580	578	576	573	571	568	566	564	564	564	562	561	560	559	558	558	558	558	557	557	556	555	554	552	550	547	545	543	541	538	536	535	535	535	535	535	535	534	534	534	533	533	532	532	532	533	533	534	535	535	535	535	535	535	534	532	531	529	527	525	523	522	521	520	519	519	519	518	518	517	516	514	511	508	505	503	501	499	497	495	493	491	490	489	488	486	485	483	481	479	476	474	471	469	466	464	461	459	456	454	451	449	447	445	442	440	438	436	434	433	431	430	428	427	425	424	423	422	420	419	418	417	415	414	412	411	409	408	406	405	403	402	400	399	397	396	394	393	391	390	389	387	385	383	381	379	378	377	375	373	371	370	369	369	369	368	368	368	367	367	366	366	365	363	362	360	359	358	357	355	354	353	351	349	348	347	346	345	344	343	342	341	339	336	333	330	327	324	320	317	313	310	307	305	303	301	299	298	297	297	296	296	296	295	295	295	294	293	292	291	290	288	287	286	285	284	283	282	281	280	279	278	277	275	274	272	270	268	266	265	262	259	256	254	254	253	252	251	251	250	249	248	247	246	245	244	244	243	243	244	244	244	244	243	243	242	241	241	241	240	240	239	238	238	237	236	236	235	235	234	234	233	233	233	232	232	231	231	230	229	229	228	227	227	226	225	224	223	222	221	221	220	219	218	216	215	214	213	211	209	208	206	205	203	202	201	200	199	198	197	196	195	194	194	194	194	194	193	193	192	192	191	191
497	503	509	516	521	526	529	533	538	543	546	547	547	546	546	546	546	546	546	545	543	540	537	535	534	532	530	528	527	525	524	523	523	522	520	519	516	514	513	513	512	512	511	511	510	510	509	507	504	502	501	499	498	497	496	495	494	493	489	484	480	478	477	473	468	466	465	463	461	458	455	453	449	444	442	441	441	440	439	438	437	435	434	432	428	424	425	426	428	428	429	430	431	432	433	434	435	436	437	438	438	439	439	439	439	439	439	439	439	439	439	440	443	447	450	453	456	459	462	466	469	472	476	479	482	485	488	491	494	497	500	502	505	508	510	513	515	516	518	521	522	519	516	513	511	508	506	503	500	497	493	491	489	487	485	484	482	480	479	477	476	475	474	474	473	472	471	471	470	470	469	468	467	466	466	465	463	462	460	457	454	451	448	445	441	438	435	433	434	435	436	438	440	442	445	448	451	454	457	460	463	465	468	471	473	475	477	479	481	483	486	488	491	493	496	499	502	505	507	509	511	512	511	508	506	503	500	497	494	491	488	485	481	477	472	469	464	459	455	452	450	448	445	443	440	437	434	431	428	424	421	418	416	413	410	408	405	403	399	397	395	393	389	385	381	377	373	369	365	361	357	352	347	341	341	344	346	350	355	359	362	366	369	371	374	376	379	382	385	388	391	394	398	401	403	406	409	412	415	418	421	423	424	425	426	426	426	425	425	423	421	419	416	413	410	407	403	400	397	394	391	388	386	383	381	378	374	370	366	363	359	356	354	352	351	350	349	352	358	364	369	374	378	382	386	390	394	399	404	409	414	419	424	428	431	434	436	437	437	437	437	436	436	435	433	432	430	429	427	426	425	425	426	427	428	429	430	430	430	431	430	430	430	430	429	428	426	423	419	414	410	406	403	401	399	396	393	389	385	384	387	391	394	397	403	411	419	426	432	437	441	444	446	449	452	455	458	461	463	466	468	471	473	475	476	476	477	477	478	479	481	482	483	484	485	487	489	493	498	503	506	509	512	516	521	527	531	535	538	541	545	547	549	551	552	553	554	556	558	561	563	565	567	569	572	574	577	580	582	583	582	580	578	575	573	570	568	566	565	564	564	563	562	561	561	560	560	559	559	559	558	557	556	555	553	551	549	547	544	542	539	536	535	535	535	535	535	535	535	535	535	535	535	535	535	535	535	536	537	537	537	538	538	537	537	536	534	532	530	529	527	525	524	523	522	521	521	520	520	519	518	517	514	512	509	506	504	502	501	498	497	495	493	491	490	489	488	486	484	482	479	477	474	472	469	466	464	461	458	456	453	451	449	447	445	443	440	438	437	435	434	432	431	429	428	426	425	424	423	421	420	419	417	416	414	413	411	410	408	406	405	403	402	400	398	397	395	394	392	391	389	388	386	384	382	380	379	378	377	376	374	372	371	371	371	371	370	370	370	370	369	369	368	367	366	365	363	362	361	360	358	357	355	354	352	351	349	348	347	346	345	344	342	339	336	333	330	327	323	320	316	313	310	307	305	304	302	300	299	297	295	295	295	295	295	294	294	293	292	291	290	289	288	287	286	284	283	282	281	280	279	278	277	276	274	273	271	269	267	266	263	261	258	255	254	254	253	252	251	250	250	249	248	248	247	247	246	245	245	246	246	247	247	247	247	246	246	245	244	244	243	243	242	241	241	240	239	239	238	238	237	237	236	236	236	235	235	234	233	232	232	231	230	230	229	228	227	226	226	225	224	223	222	221	220	219	217	216	215	213	212	210	208	206	205	203	202	201	200	199	198	197	196	195	195	195	195	195	195	195	194	193	193	192
495	501	507	513	520	525	528	533	538	543	547	547	548	548	548	548	548	547	547	547	545	543	539	536	534	534	533	531	529	527	525	524	524	523	522	520	518	516	516	515	514	513	512	512	511	510	508	506	504	502	500	499	498	497	495	494	493	491	486	480	477	476	474	471	468	467	465	462	460	457	454	451	447	443	442	441	441	440	439	437	436	435	434	432	428	422	422	423	423	424	425	426	427	428	430	431	431	432	433	434	435	435	435	436	435	436	436	436	436	436	436	438	442	446	449	452	454	457	461	464	467	471	475	478	482	484	487	490	493	496	499	502	505	507	510	513	514	515	517	520	520	518	515	512	509	507	504	501	498	495	492	489	486	485	483	481	479	478	476	475	474	473	472	471	470	470	469	468	468	467	467	465	464	464	463	462	461	459	458	455	453	450	446	443	440	437	433	431	432	433	434	436	438	440	442	445	448	451	454	457	460	462	465	467	470	472	474	476	478	480	483	486	488	490	493	496	499	502	506	508	510	511	510	508	506	503	501	498	494	490	486	483	479	474	469	465	460	456	453	450	448	446	443	441	438	434	431	428	425	421	418	415	412	410	407	405	402	400	398	395	393	390	386	381	377	373	369	365	361	357	353	349	343	337	337	341	344	348	352	355	359	362	365	368	370	373	375	378	381	384	388	391	394	397	399	402	405	408	411	414	417	419	421	423	423	423	423	422	421	420	418	416	414	411	407	404	401	397	394	391	389	386	383	380	378	375	372	367	363	360	357	353	350	349	348	347	348	351	357	363	370	375	378	382	386	390	394	398	403	408	413	418	423	426	429	432	434	434	434	434	434	434	433	432	430	429	427	426	424	423	422	422	423	424	425	426	427	427	427	428	428	428	428	427	427	426	424	420	415	410	405	401	398	395	393	391	387	383	382	385	389	392	396	400	406	412	419	426	431	436	440	443	446	449	452	455	458	461	464	467	469	472	474	477	478	479	480	480	481	482	483	484	485	486	487	489	492	496	501	506	509	512	514	517	522	527	531	534	538	541	545	548	551	553	554	555	556	557	559	562	564	566	568	570	573	575	577	579	581	582	581	580	578	575	572	570	568	566	566	566	565	565	564	563	562	562	561	561	561	560	559	559	557	556	554	552	550	548	545	543	540	537	536	536	536	536	536	536	536	536	536	536	536	536	537	537	537	538	539	539	540	540	540	540	539	537	536	534	532	530	529	527	525	524	524	523	523	522	522	521	519	517	515	512	510	508	506	504	502	500	498	497	495	493	492	490	489	487	485	482	479	477	474	472	469	466	463	461	458	455	453	451	449	447	445	443	441	439	437	436	434	433	431	430	429	427	426	425	423	422	421	419	417	416	414	413	411	410	408	406	405	403	402	400	398	397	395	394	392	391	389	387	385	383	382	380	378	378	377	376	374	373	372	372	372	372	372	372	372	372	372	371	371	370	369	367	366	365	364	363	361	360	358	356	355	353	352	351	349	348	346	345	343	340	336	333	329	326	323	320	316	313	310	307	306	305	303	302	300	298	296	295	294	294	294	294	293	293	292	291	290	289	288	287	285	284	283	282	280	279	278	277	276	275	273	272	270	268	267	265	263	260	257	255	254	254	253	252	251	251	250	250	250	250	250	249	249	248	249	249	250	250	250	250	250	250	249	249	248	247	247	246	245	244	244	243	242	242	241	241	240	240	239	239	238	238	237	237	236	235	234	234	233	232	231	230	230	229	228	227	226	225	224	223	222	221	220	219	217	216	214	212	210	208	206	204	203	202	202	200	199	198	197	197	196	196	196	197	197	197	196	195	194	193
