53	53	53	53	53	54	54	54	55	57	60	62	65	67	68	70	71	71	72	73	73	73	73	73	73	73	73	74	74	75	75	76	76	76	75	75	76	79	83	86	89	92	95	95	95	96	96	96	97	97	97	98	98	98	98	99	100	101	105	112	115	116	117	118	119	120	120	119	117	116	114	112	111	109	108	107	107	107	107	107	107	107	107	107	107	107	107	107	108	108	108	109	110	110	111	112	114	116	117	118	118	119	120	120	121	122	122	123	124	125	126	128	129	130	131	131	132	133	133	134	134	135	135	136	136	136	137	137	137	138	138	138	139	139	139	138	138	138	137	136	136	135	135	134	134	134	134	134	134	134	135	138	143	146	149	152	155	159	163	166	169	171	174	177	181	185	188	190	193	195	196	196	197	198	198	197	196	195	195	194	194	194	195	197	198	199	201	202	204	205	208	211	214	215	217	218	219	220	221	221	221	222	222	223	225	226	228	229	230	231	230	228	227	227	226	224	223	220	219	218	218	218	218	218	217	217	216	216	216	216	215	215	214	214	214	213	212	211	210	210	209	209	208	207	207	206	206	205	204	203	202	201	200	199	198	197	197	197	196	196	196	196	197	197	198	198	198	198	198	198	198	197	197	196	196	195	195	194	194	193	193	193	193	190	188	187	186	185	182	180	177	175	174	172	171	170	169	168	167	165	164	163	162	161	161	160	160	160	159	159	158	158	157	157	157	156	155	152	150	146	143	141	140	139	138	136	135	134	133	133	132	132	131	129	126	125	125	125	125	127	130	132	133	134	136	137	137	138	138	138	138	138	138	137	136	135	134	132	131	130	128	127	126	124	122	121	120	118	118	117	116	115	114	113	112	110	108	106	104	102	100	99	99	100	101	101	101	101	101	101	101	101	101	102	104	106	107	108	109	110	110	111	112	113	114	115	116	118	120	122	125	127	130	133	135	137	138	139	141	142	144	145	145	146	147	147	148	149	150	151	152	153	153	154	155	155	156	156	157	157	158	158	158	159	159	160	160	160	161	161	161	161	161	162	162	163	164	164	165	166	166	166	167	167	167	167	168	168	169	169	169	170	170	170	170	170	170	170	169	169	168	168	168	167	167	167	167	167	166	166	165	165	164	164	163	162	162	161	160	159	159	158	157	157	156	156	155	155	154	154	154	154	153	153	153	153	153	152	152	151	151	150	149	149	148	147	146	145	144	143	142	141	141	140	141	141	143	144	145	147	148	150	151	152	154	155	157	158	160	162	164	166	168	169	171	172	174	176	177	179	180	180	179	178	177	176	175	174	174	173	172	171	169	167	165	163	162	160	159	157	156	154	153	151	149	148	146	144	142	140	139	137	135	133	132	130	128	126	125	123	121	119	117	115	113	111	109	107	105	103	100	98	96	95	94	92	91	89	88	86	85	84	83	82	81	81	80	79	79	79	79	79	79	79	79	79	79	79	79	79	79	79	79	79	80	80	80	80	80	80	81	81	81	80	80	80	79	78	77	75	73	71	69	68	66	65	65	65	66	68	69	69	69	68	65	60	55	49	44	41	39	38	37	37	35	34	32	30	28	26	24	22	20	17	15	13	11	10	9	9	9	8	7	7	6	6	6	6	6	6	6	7	7	8	9	9	10	10	10	10	10	10	10	10	9	9	9	9	9	9	9	9	9	9	9	9	9	9	8	8	8	8	8	8	8	8	8	8	8	8	8	8	8	8	9	9	9	9	8	8	8	8	8	8	8	8	8	9	9	9	9	9	10	11	11	10	8	6	5	5	5	5	6	9	12	13	13	13	13	11	9	8	8	8	7	7	7	7	7	7	7	7	7	8	7	7	7	7	7	7	7	7	7	7	7	7	7	7	7	7	7	7	7	7	7	7	7	7	7	7	7	7	7	7	7	7	9	9	9	9	9	8	7	6	6	6	6	6	6	6	6	6	6	6	6	6	6	6	6	6	5	5	5	5	6	6	6	6	6	7	7	7	7	7	7	7	7	7	6	5	6	7	7	7	7	7	7	7	7	7	8	10	9	8	6	6	7	9	10	10	9	8	7	6	5	4	3	1	0	0	0	0	0	0	0	0	0	0	0	0	0	0	0	0	0	0	0	0	0	0	0	0	0	0	0	0	0	0	0	0	0	0	0	0	0	0	0	0	0	0	0	0	0	0	0	0	0	0	0	0	0	0	0	0	0	0	0	0	0	0	0	0	0	0	0	0	0	0	0	0	0	0	0	0	0	0	0	0	0	0	0
52	53	53	53	53	53	54	54	55	56	59	61	64	66	67	69	69	70	71	71	71	71	71	72	72	72	72	72	72	73	73	74	74	73	73	73	75	78	83	87	90	93	95	95	96	96	96	96	97	97	97	98	98	98	98	99	101	102	107	112	115	116	117	117	118	119	119	118	116	115	113	110	108	107	106	105	104	104	104	103	103	103	103	103	103	103	103	103	103	104	106	106	106	107	108	109	111	113	115	116	117	118	118	119	119	120	120	121	122	123	124	125	126	127	128	129	129	130	131	131	132	132	133	133	134	134	135	135	135	136	136	137	137	137	137	136	136	136	135	135	134	134	134	133	133	133	133	133	133	133	135	139	143	147	149	152	155	159	163	166	169	172	175	178	182	185	188	190	193	195	196	196	196	196	196	194	193	191	191	190	190	191	193	195	197	199	200	202	203	205	207	210	213	215	216	217	218	218	219	219	219	220	220	221	223	224	226	228	228	229	228	227	226	226	225	223	222	220	218	218	218	218	218	218	217	217	216	216	216	216	215	215	215	214	214	213	213	212	211	210	210	209	209	208	208	207	207	207	207	206	204	203	202	201	201	200	199	199	198	198	197	197	198	198	198	198	199	199	199	199	199	199	198	198	198	197	197	196	196	195	195	195	193	191	187	186	185	184	182	179	177	175	174	173	172	171	170	169	168	167	165	165	164	163	163	162	162	162	161	161	160	160	159	159	158	157	156	154	151	147	143	141	140	139	138	136	135	134	134	133	132	132	131	130	127	126	125	125	126	129	131	133	134	135	137	138	139	139	140	140	140	140	139	139	138	137	135	134	133	132	130	129	127	126	124	123	122	120	120	119	118	117	116	115	114	113	111	109	106	103	101	99	98	99	99	99	98	98	98	99	99	99	99	99	100	101	104	106	108	108	109	110	111	112	113	114	115	117	120	122	124	127	129	132	134	136	137	138	140	141	142	143	144	144	145	146	147	148	148	149	150	150	151	152	152	153	153	154	154	155	155	155	156	156	157	157	157	157	158	158	158	158	158	159	159	160	161	161	162	163	163	163	164	164	164	164	165	165	165	166	166	167	167	168	168	168	168	167	167	167	166	166	165	165	165	165	164	164	164	163	163	162	162	161	161	160	159	158	158	157	156	156	155	154	154	153	153	152	152	151	151	151	150	150	150	150	150	149	149	149	148	147	147	146	145	144	143	142	141	140	139	138	137	137	137	138	140	141	143	145	147	148	150	152	153	155	156	158	160	162	164	166	168	169	171	172	173	174	176	177	177	177	177	176	175	174	173	172	172	171	170	168	166	165	163	161	159	158	156	155	153	152	150	149	147	145	143	142	140	138	136	135	133	131	130	128	126	124	123	121	119	117	115	114	112	109	107	105	103	101	99	97	95	93	92	91	89	87	86	84	83	82	81	80	80	80	79	79	79	79	79	79	79	79	79	79	79	79	79	79	79	79	79	79	79	79	79	80	80	80	81	81	81	81	81	81	81	81	80	78	76	74	72	69	66	64	63	64	65	66	68	68	68	67	64	60	56	51	47	44	42	42	41	39	38	36	34	32	30	28	25	23	21	18	16	14	12	11	10	10	9	9	8	7	7	6	6	6	6	6	7	7	7	8	9	9	10	10	10	10	10	10	10	10	9	9	9	9	9	9	9	9	9	9	9	9	9	9	8	8	8	8	8	8	8	8	8	8	8	8	8	8	8	8	9	9	9	9	8	8	8	8	8	8	8	8	8	8	9	9	9	10	11	12	12	9	6	5	5	6	7	6	6	7	9	12	13	13	13	12	11	9	7	7	7	7	7	7	7	7	7	7	7	7	7	7	7	7	7	7	7	7	7	7	7	7	7	7	7	7	7	7	7	6	7	7	7	7	7	7	7	7	7	7	7	7	9	10	9	9	8	7	6	6	6	6	7	7	7	7	7	7	7	7	7	7	7	7	6	6	6	6	5	5	5	5	6	6	6	6	6	7	7	7	7	6	7	7	6	6	6	7	7	7	7	7	7	7	8	8	8	8	7	7	6	6	7	9	10	9	7	7	6	3	2	2	1	0	0	0	0	0	0	0	0	0	0	0	0	0	0	0	0	0	0	0	0	0	0	0	0	0	0	0	0	0	0	0	0	0	0	0	0	0	0	0	0	0	0	0	0	0	0	0	0	0	0	0	0	0	0	0	0	0	0	0	0	0	0	0	0	0	0	0	0	0	0	0	0	0	0	0	0	0	0	0	0	0	0	0	0
50	51	52	52	52	53	53	54	54	55	57	60	62	65	66	67	68	69	70	70	70	70	70	70	70	70	70	70	70	71	71	71	71	71	71	73	75	79	84	88	91	93	95	95	96	96	96	97	97	97	97	98	98	98	98	100	101	103	107	112	115	116	116	117	118	118	118	117	116	114	111	109	106	105	104	103	102	101	100	99	99	99	99	99	99	99	99	99	99	101	104	104	105	105	105	106	108	110	112	114	115	116	117	117	118	118	118	119	120	121	122	123	124	124	125	126	127	127	128	129	129	130	130	131	131	132	132	133	133	134	134	135	135	135	135	134	134	134	133	133	133	133	133	133	132	132	132	132	132	133	136	139	144	147	150	152	156	159	163	166	169	172	175	179	182	185	187	190	192	193	194	195	194	193	192	190	189	187	187	187	187	188	190	194	196	198	199	201	202	204	206	209	211	213	214	215	216	216	216	217	217	217	218	219	221	223	225	226	227	227	227	226	225	225	223	222	220	219	218	218	218	218	218	217	217	217	216	216	216	216	215	215	215	215	215	214	214	213	212	212	211	210	209	207	207	206	207	207	207	206	205	205	204	203	202	202	201	201	200	199	199	198	199	199	199	200	201	201	202	202	202	202	201	201	200	200	199	199	198	198	198	197	195	191	187	185	185	184	182	179	177	175	175	174	173	172	171	170	169	168	167	166	166	165	165	165	164	164	163	163	162	161	161	160	159	157	156	154	151	146	142	140	140	139	138	137	135	134	134	133	132	132	131	129	128	127	126	127	128	131	132	133	135	136	138	139	140	141	141	142	142	142	141	140	139	138	137	136	135	133	132	130	129	127	126	125	124	123	122	121	120	119	118	117	117	116	114	112	109	106	103	100	98	97	97	96	95	95	95	95	96	97	98	98	97	98	99	102	105	107	108	108	110	111	112	113	115	117	119	122	124	127	129	131	133	135	136	137	138	139	140	141	142	143	144	144	145	146	147	147	148	148	149	150	150	151	151	151	152	152	153	153	153	153	154	154	155	155	155	155	155	155	155	156	156	157	158	159	159	160	160	161	161	161	161	161	161	162	162	163	163	164	164	165	165	165	165	165	164	164	163	163	163	163	162	162	162	162	161	161	161	160	159	159	158	157	157	156	155	155	154	153	153	152	151	151	150	149	149	148	148	148	147	147	147	147	147	147	146	146	145	145	144	143	142	141	140	139	138	137	135	135	134	134	134	135	137	139	141	143	145	147	149	151	152	154	156	158	160	161	163	165	167	168	170	171	171	172	173	174	174	174	174	173	172	171	171	170	169	168	167	166	164	162	160	159	157	155	154	152	151	149	148	146	145	143	141	140	138	136	134	133	131	129	128	126	124	122	121	119	117	116	114	112	110	108	106	104	102	100	98	96	94	92	91	89	88	86	84	83	81	80	79	79	79	79	79	79	78	78	78	79	79	79	79	79	79	79	79	79	79	79	79	79	79	79	79	79	80	80	80	81	81	81	82	82	82	83	82	81	79	77	75	71	68	65	63	63	63	65	66	66	66	65	64	61	57	54	51	48	47	46	44	43	41	38	36	34	31	29	27	24	22	19	17	15	13	12	11	10	10	9	8	8	7	7	7	7	7	7	7	7	7	8	9	9	9	10	10	10	10	10	10	9	9	9	9	9	9	9	9	9	9	9	9	9	9	9	8	8	8	8	8	8	8	8	8	8	8	8	8	8	8	8	8	9	9	8	8	8	8	8	8	8	8	8	8	9	9	9	9	10	11	11	11	9	6	5	6	7	8	7	7	6	7	10	12	12	12	12	11	10	8	7	7	8	7	7	7	7	7	7	7	7	7	7	7	7	7	7	7	7	7	7	7	7	7	7	7	7	7	7	7	7	7	7	7	7	7	7	7	7	7	7	7	7	8	9	8	7	6	6	6	6	7	7	7	7	7	7	7	7	7	7	7	7	7	7	7	7	7	6	6	5	5	5	5	5	6	6	6	6	7	7	7	7	7	7	6	6	6	7	7	7	7	7	8	8	8	8	7	6	6	6	6	6	6	8	8	7	6	5	4	1	0	0	0	0	0	0	0	0	0	0	0	0	0	0	0	0	0	0	0	0	0	0	0	0	0	0	0	0	0	0	0	0	0	0	0	0	0	0	0	0	0	0	0	0	0	0	0	0	0	0	0	0	0	0	0	0	0	0	0	0	0	0	0	0	0	0	0	0	0	0	0	0	0	0	0	0	0	0	0	0	0	0	0	0	0	0	0
50	50	51	51	52	52	53	53	54	54	56	58	60	63	65	66	67	68	68	69	69	69	69	69	69	69	69	69	69	69	69	68	69	69	71	74	76	80	85	88	91	94	95	95	96	96	96	97	97	97	98	98	98	98	98	100	101	103	106	111	114	116	116	117	117	117	117	116	115	113	110	107	105	104	102	101	100	98	97	97	97	97	97	97	97	97	97	97	97	100	103	104	104	104	105	105	105	107	109	111	113	114	115	115	116	116	116	117	118	119	120	121	121	122	123	124	124	125	125	126	126	127	128	128	129	129	130	130	131	131	132	132	133	133	133	133	132	132	132	132	132	131	131	131	131	131	131	131	132	133	136	140	144	147	150	153	156	159	162	166	169	172	175	179	182	185	187	189	191	191	192	191	190	189	188	186	184	183	183	183	184	185	188	192	195	197	199	200	202	203	205	207	209	210	211	212	213	214	214	214	215	215	216	217	219	220	222	224	225	225	225	225	224	223	222	221	219	218	218	218	218	218	218	217	217	217	216	216	216	216	215	215	215	215	215	215	215	214	214	213	212	211	209	208	207	206	206	206	206	206	205	205	204	203	203	203	202	202	201	201	200	200	199	199	201	202	203	204	204	204	204	204	204	204	203	203	202	202	202	201	201	199	197	193	188	185	185	184	182	179	176	175	175	175	174	173	172	171	170	170	169	168	168	167	167	167	166	166	165	164	164	163	162	161	159	158	156	154	151	145	141	140	140	139	138	137	136	134	134	133	132	131	130	129	128	127	127	128	130	132	133	134	136	137	139	140	141	142	143	143	143	143	143	142	141	140	139	138	136	135	133	132	130	129	128	127	125	124	124	123	122	121	121	120	119	118	117	116	113	110	106	102	100	98	96	95	94	93	93	93	94	95	96	96	96	96	96	97	101	105	107	107	109	110	111	113	114	116	119	122	124	126	128	130	132	133	134	135	136	137	138	139	140	141	142	143	143	144	145	145	146	147	147	148	148	148	149	149	149	150	150	150	150	151	151	152	152	152	152	152	152	152	152	153	153	154	155	156	157	157	157	158	158	158	158	157	158	158	159	160	160	161	162	162	163	163	162	162	162	161	161	160	160	160	160	160	160	159	159	159	158	158	157	156	156	155	154	154	153	152	152	151	150	150	149	148	147	146	146	145	145	144	144	144	144	144	144	144	143	143	142	142	141	140	139	138	137	136	135	134	132	132	131	131	131	133	134	136	139	141	143	146	148	150	152	154	155	157	159	161	163	164	166	168	169	169	170	170	171	171	171	171	171	170	169	169	168	167	167	166	164	163	161	160	158	156	154	153	151	150	148	147	145	144	142	141	139	137	136	134	132	131	129	127	126	124	122	121	119	118	116	114	112	110	108	106	104	102	100	98	96	94	93	91	90	88	87	85	83	81	80	79	78	78	78	78	78	78	78	78	78	78	78	78	79	79	79	79	79	79	79	79	79	79	79	78	79	79	79	80	80	81	81	82	82	83	84	84	84	83	82	80	78	74	70	66	64	62	62	63	64	65	65	64	63	61	59	56	54	53	51	50	48	46	43	41	38	35	33	30	28	25	23	20	18	16	14	13	12	11	10	9	9	8	8	7	7	7	7	7	7	7	8	8	9	9	9	10	10	10	10	10	10	9	9	9	9	9	9	9	9	9	9	9	9	8	8	8	8	8	8	8	8	8	8	8	8	8	8	8	8	8	8	8	8	9	9	8	8	8	8	8	8	8	8	8	8	9	9	9	9	10	10	11	10	9	7	6	7	8	8	7	7	6	7	8	10	12	12	12	11	10	9	8	8	8	8	7	7	7	7	7	7	7	7	7	7	7	7	7	7	7	7	7	7	7	7	7	7	7	7	7	7	7	7	7	7	7	7	7	7	7	7	8	7	7	7	7	6	6	6	6	6	7	7	7	7	7	7	7	7	7	7	7	7	7	7	7	7	7	7	7	7	6	6	5	5	5	5	6	6	6	6	7	7	7	6	6	6	6	6	7	7	7	7	7	8	8	8	7	6	6	5	5	5	5	6	6	6	5	4	2	1	0	0	0	0	0	0	0	0	0	0	0	0	0	0	0	0	0	0	0	0	0	0	0	0	0	0	0	0	0	0	0	0	0	0	0	0	0	0	0	0	0	0	0	0	0	0	0	0	0	0	0	0	0	0	0	0	0	0	0	0	0	0	0	0	0	0	0	0	0	0	0	0	0	0	0	0	0	0	0	0	0	0	0	0	0	0	0	0
50	50	50	50	51	51	52	52	53	53	54	56	58	61	63	65	66	67	67	68	68	68	68	68	68	68	67	67	67	66	66	66	67	69	73	75	78	82	85	88	91	94	95	95	96	96	96	96	97	97	98	98	98	98	99	100	101	102	105	109	113	115	116	116	116	117	116	116	114	112	108	106	104	103	101	100	98	97	97	97	97	97	97	97	97	97	97	97	97	99	102	103	104	104	105	105	105	105	106	109	111	112	113	113	113	114	114	115	115	116	117	118	119	120	121	121	122	123	123	124	124	125	125	126	126	127	127	128	128	129	129	130	130	130	131	130	130	130	130	130	130	130	130	130	130	130	130	130	132	134	137	141	145	148	150	153	156	159	162	166	169	172	175	178	182	184	186	188	189	188	188	187	186	184	183	181	180	179	179	180	181	183	185	190	194	196	198	199	201	202	204	205	206	207	208	209	210	211	211	212	212	213	214	215	216	218	220	222	223	223	224	223	223	222	221	219	218	218	218	218	218	218	217	217	217	217	216	216	216	216	215	215	215	215	215	215	215	215	215	215	214	212	211	209	209	208	208	207	207	206	206	205	205	204	204	203	203	202	201	201	201	200	200	201	203	205	205	206	206	206	206	206	206	205	205	205	205	204	204	204	203	202	199	196	190	186	185	184	183	180	178	176	175	175	175	174	173	172	172	171	171	170	169	169	169	168	168	168	167	166	165	164	163	161	160	158	157	155	150	144	141	140	140	139	138	137	136	134	133	133	132	131	130	129	128	127	128	129	131	132	133	135	137	138	140	142	143	144	144	145	145	145	144	144	143	142	141	139	138	136	135	133	132	131	129	128	127	126	126	125	124	124	123	122	121	120	119	118	117	114	110	105	102	100	98	96	94	93	92	92	92	93	94	94	95	96	96	96	97	101	105	107	108	110	111	113	114	116	119	122	124	126	128	130	131	132	133	134	135	136	137	138	139	140	141	141	142	143	143	144	144	145	145	146	146	146	146	147	147	147	147	147	148	148	148	149	149	150	150	150	150	150	150	150	151	152	153	154	154	154	155	155	154	154	154	154	154	155	155	156	157	158	159	159	160	160	160	160	159	159	158	158	157	157	157	157	157	157	156	156	155	155	154	154	153	152	152	151	151	150	149	149	148	147	146	145	145	144	143	142	141	141	141	141	141	141	141	141	140	140	139	139	138	137	136	135	134	133	132	131	130	129	128	128	129	130	132	134	137	139	142	144	146	149	151	153	155	157	158	160	162	163	165	166	167	167	168	168	168	168	168	168	168	167	167	166	166	165	164	163	162	160	159	157	156	154	152	151	149	147	146	145	143	142	140	138	137	135	134	132	130	129	127	126	124	123	121	119	118	116	114	112	110	108	106	105	103	101	99	97	95	93	92	90	89	87	86	84	82	80	79	78	77	77	77	78	78	78	78	78	78	78	78	78	78	78	79	79	79	79	79	79	79	78	78	78	78	78	79	79	80	80	81	82	83	84	85	85	86	85	85	83	80	77	73	68	65	63	62	62	62	63	64	63	63	62	60	59	57	56	55	53	51	49	46	43	40	37	34	31	29	26	24	21	19	17	15	13	12	11	10	10	9	8	8	7	7	7	7	8	8	8	8	8	9	9	9	10	10	10	10	10	9	9	9	9	9	9	9	9	9	9	9	8	8	8	8	8	8	8	8	8	8	8	8	8	8	8	8	8	8	8	8	8	8	8	8	8	8	8	8	8	8	8	8	8	8	9	9	9	9	9	10	10	10	9	8	8	8	9	8	7	7	7	7	7	8	10	11	11	11	11	10	8	8	8	8	7	7	7	7	7	7	7	7	7	7	7	7	7	7	7	7	7	7	7	7	6	6	7	7	7	7	7	6	6	6	7	7	6	6	6	6	7	7	7	6	6	6	6	7	7	7	7	7	7	7	7	7	7	7	7	7	7	7	7	7	7	7	7	7	7	7	7	7	6	6	5	5	5	6	6	6	7	7	7	6	6	6	6	7	7	7	7	8	8	8	7	7	6	6	6	5	3	3	5	6	6	5	2	1	0	0	0	0	0	0	0	0	0	0	0	0	0	0	0	0	0	0	0	0	0	0	0	0	0	0	0	0	0	0	0	0	0	0	0	0	0	0	0	0	0	0	0	0	0	0	0	0	0	0	0	0	0	0	0	0	0	0	0	0	0	0	0	0	0	0	0	0	0	0	0	0	0	0	0	0	0	0	0	0	0	0	0	0	0	0	0	0	0	0
51	50	49	50	50	51	51	51	52	53	53	55	56	58	60	62	64	65	66	66	66	67	67	67	67	66	66	65	65	64	64	65	67	71	74	77	80	83	86	88	91	94	95	95	96	96	96	96	97	97	98	98	98	99	100	101	102	103	105	108	111	114	115	116	116	116	115	114	113	110	107	105	103	102	101	99	98	97	97	97	96	96	96	96	96	96	96	96	97	98	101	102	103	104	104	105	105	105	105	107	109	110	110	111	111	111	111	112	113	114	115	116	117	118	118	119	120	121	121	122	123	123	124	124	124	125	125	125	126	126	127	127	128	128	128	128	128	128	128	129	129	129	129	129	129	129	129	130	132	135	138	141	145	148	151	153	156	159	162	166	169	172	175	178	181	183	185	186	187	186	185	183	181	180	178	177	176	176	176	177	179	181	184	188	192	195	197	198	199	200	202	203	204	204	205	206	207	207	208	209	210	210	211	212	214	215	218	220	221	221	222	222	222	221	220	218	218	218	218	218	217	217	217	217	217	216	216	216	216	216	215	215	215	215	215	215	215	215	215	215	215	214	212	211	211	210	210	209	209	208	208	207	207	206	206	205	204	203	201	201	201	200	201	203	206	207	207	207	207	207	207	207	207	206	206	206	206	206	205	205	205	204	201	197	193	188	185	185	184	183	181	179	177	176	176	175	175	174	173	173	172	172	171	171	171	171	170	170	169	168	166	165	164	162	161	159	158	156	150	143	141	140	140	138	138	137	136	135	133	132	131	130	130	129	128	128	129	130	131	132	134	135	137	140	142	143	144	145	145	145	145	145	145	145	144	143	142	141	139	138	136	135	134	132	131	130	129	128	127	127	126	125	125	124	123	122	121	120	119	117	115	110	105	102	100	97	95	94	92	91	91	91	92	93	94	95	95	95	95	96	103	106	108	109	111	113	115	117	119	122	124	126	128	129	130	131	132	132	133	134	135	136	138	139	139	140	141	141	142	142	142	143	143	144	144	144	144	144	144	144	144	145	145	145	146	146	147	147	147	147	147	147	147	148	149	150	150	151	152	152	152	152	151	151	150	150	150	151	152	153	154	155	156	157	157	157	157	157	157	156	155	155	154	154	154	154	154	154	154	153	153	152	152	151	150	150	149	149	148	148	147	146	146	145	144	143	142	141	140	139	138	137	137	137	138	138	138	138	137	137	136	136	135	135	134	133	132	131	130	129	128	127	126	126	127	128	130	132	135	138	140	143	145	147	150	152	154	156	158	159	161	162	163	164	165	165	165	165	166	165	165	165	165	164	164	164	163	162	161	160	159	158	156	155	153	151	149	148	147	145	144	142	141	139	138	136	135	133	132	130	128	127	125	124	122	121	119	118	116	114	112	110	109	107	105	103	101	99	98	96	94	92	90	89	87	86	85	83	82	80	79	78	77	77	77	77	78	78	78	78	78	78	78	78	78	78	79	79	79	79	79	79	79	78	78	78	78	78	79	79	79	80	81	82	83	84	85	86	86	86	86	85	82	79	75	71	67	64	62	62	62	62	63	63	63	62	61	61	60	59	58	57	55	52	49	46	42	39	35	32	30	27	25	22	20	18	16	14	12	11	10	9	9	8	8	7	7	7	8	8	8	8	8	8	9	9	9	9	9	10	9	9	9	9	9	9	9	9	9	9	9	9	8	8	8	8	8	8	8	8	8	8	8	8	8	8	8	8	8	8	8	8	8	8	8	8	8	8	8	8	8	8	8	8	8	8	8	9	9	9	9	9	9	9	9	9	8	8	9	9	8	7	6	6	7	7	7	8	10	11	10	10	10	9	8	8	8	8	7	7	7	7	7	7	7	7	7	7	7	7	7	7	7	7	6	6	6	6	6	6	7	7	7	7	6	6	7	7	6	6	6	6	6	7	7	7	7	6	6	7	7	7	7	7	7	7	7	7	7	7	7	7	7	7	7	7	7	7	7	7	7	7	7	7	7	7	6	6	6	6	6	7	7	7	7	7	7	7	7	7	7	7	7	8	8	8	7	7	6	6	5	6	7	3	2	4	6	5	3	0	0	0	0	0	0	0	0	0	0	0	0	0	0	0	0	0	0	0	0	0	0	0	0	0	0	0	0	0	0	0	0	0	0	0	0	0	0	0	0	0	0	0	0	0	0	0	0	0	0	0	0	0	0	0	0	0	0	0	0	0	0	0	0	0	0	0	0	0	0	0	0	0	0	0	0	0	0	0	0	0	0	0	0	0	0	0	0	0	0	0	0
52	51	50	50	49	49	50	50	51	52	53	53	54	56	57	60	62	63	65	65	65	65	65	65	65	65	64	63	62	62	63	65	68	72	76	79	81	84	86	88	91	93	95	95	95	96	96	96	97	97	97	98	98	99	100	101	101	102	104	106	109	112	114	114	115	115	114	113	111	108	106	104	102	101	100	98	97	97	97	96	96	96	96	96	96	96	96	96	97	98	99	101	102	104	104	104	104	105	105	106	107	108	108	108	108	108	108	109	110	111	112	113	114	115	116	117	118	119	119	120	121	122	122	123	123	123	124	124	124	125	125	125	126	126	126	126	127	127	127	127	128	128	128	128	128	128	129	130	133	135	138	142	145	148	151	154	156	159	162	165	168	171	174	177	179	182	183	184	184	184	182	180	177	175	174	173	173	173	174	175	177	180	183	187	190	193	195	195	196	197	199	200	201	202	202	203	204	205	206	207	207	208	208	209	211	213	216	218	219	219	220	220	220	220	219	218	218	218	217	217	217	217	217	217	216	216	216	216	216	216	215	215	215	215	215	215	215	215	215	215	215	215	214	213	213	212	212	212	211	211	211	210	210	209	209	208	208	206	204	203	202	203	204	206	208	209	209	209	208	208	208	208	207	207	207	206	206	206	206	205	205	205	202	199	195	190	187	185	184	184	183	182	180	179	178	177	176	176	175	175	174	174	173	173	172	172	173	172	171	170	168	166	165	163	162	160	158	156	150	143	141	141	140	139	138	137	136	135	133	132	131	130	129	128	128	128	129	130	131	133	134	136	138	141	143	144	145	145	145	145	145	145	145	145	145	145	144	143	141	140	138	137	135	134	132	131	130	129	128	128	127	126	126	125	125	124	123	122	120	118	117	115	110	105	102	99	97	95	94	92	91	90	90	91	92	93	94	95	94	94	100	106	108	109	111	113	115	117	119	122	124	126	127	128	129	129	130	131	132	133	134	135	137	138	138	139	140	140	140	140	141	141	141	142	142	142	142	142	141	141	141	142	142	142	143	144	144	145	145	145	145	145	145	146	147	147	148	149	149	150	149	149	148	148	147	147	147	148	149	150	151	152	153	154	155	155	155	155	154	153	153	152	151	151	150	150	150	150	150	150	150	149	149	148	148	147	147	146	146	145	145	144	143	142	141	140	139	138	137	136	135	134	134	134	134	134	135	134	134	134	133	133	133	132	132	131	130	129	128	127	126	126	125	125	125	127	129	131	133	136	139	141	144	146	148	151	153	155	157	158	159	160	161	162	163	163	163	163	163	163	163	162	162	162	161	161	160	159	159	158	157	155	154	152	150	149	147	146	144	143	141	140	138	137	136	134	133	131	130	128	127	125	124	122	120	119	118	116	114	112	110	109	107	105	103	101	99	98	96	94	92	91	89	88	86	85	84	83	81	80	79	78	77	77	77	77	77	78	78	78	78	78	78	78	78	78	79	79	79	79	79	79	79	78	78	78	78	78	78	79	79	80	81	81	82	84	85	86	86	86	86	85	83	81	77	73	69	65	63	62	61	61	62	62	63	63	62	62	62	61	61	59	57	55	51	48	44	40	37	33	30	28	25	23	20	18	16	14	13	11	10	9	9	8	8	8	7	8	8	8	8	8	8	9	9	9	9	9	9	9	9	9	9	9	9	9	9	9	9	9	9	8	8	8	8	8	7	7	7	7	7	8	8	8	8	8	8	8	8	8	8	8	8	8	8	8	8	8	8	8	8	8	8	8	8	8	9	9	9	9	9	9	9	9	9	9	9	9	9	9	8	7	6	6	7	7	7	7	9	10	10	10	10	9	8	8	7	8	7	7	7	7	7	7	7	7	7	7	7	7	7	7	7	6	6	6	6	6	6	7	7	7	6	7	7	7	7	7	6	6	6	6	6	6	6	7	7	7	7	7	7	7	7	7	7	7	7	7	7	7	7	7	7	7	7	7	7	7	7	7	7	7	7	7	7	7	7	7	7	7	7	7	7	7	7	7	7	7	7	7	7	7	7	8	8	7	7	6	6	5	6	8	7	2	0	2	3	3	2	0	0	0	0	0	0	0	0	0	0	0	0	0	0	0	0	0	0	0	0	0	0	0	0	0	0	0	0	0	0	0	0	0	0	0	0	0	0	0	0	0	0	0	0	0	0	0	0	0	0	0	0	0	0	0	0	0	0	0	0	0	0	0	0	0	0	0	0	0	0	0	0	0	0	0	0	0	0	0	0	0	0	0	0	0	0	0	0	0	0	0	0
53	52	51	50	49	49	49	49	50	51	52	52	53	54	55	57	59	61	63	64	64	64	63	63	63	62	61	61	61	62	64	66	70	74	77	80	82	85	87	89	91	93	95	95	95	96	96	96	96	96	97	97	97	99	100	100	100	101	102	104	107	110	112	112	113	113	113	111	109	107	105	104	102	100	99	98	97	96	96	96	96	96	96	95	96	96	96	96	96	97	98	99	101	102	104	104	104	104	104	105	105	106	106	106	105	105	106	106	107	108	109	111	112	113	114	115	116	117	118	119	119	120	121	121	122	122	123	123	123	124	124	124	124	124	125	125	125	125	126	126	126	126	127	127	127	127	128	131	133	135	139	142	146	149	151	154	157	160	162	165	168	171	173	176	178	180	181	181	181	180	179	176	174	172	171	171	171	171	172	173	175	178	182	185	189	191	192	193	194	195	196	197	198	199	200	201	202	202	203	204	205	205	206	206	208	211	214	216	217	217	218	218	219	219	218	218	217	217	217	217	217	217	216	216	216	216	216	216	216	216	215	215	215	215	215	215	215	215	215	215	215	215	215	215	214	214	214	214	214	214	213	213	213	212	212	212	212	211	209	208	208	208	209	209	211	210	210	210	210	209	209	209	208	208	208	207	207	206	206	206	206	205	203	199	196	192	189	187	185	185	184	183	182	180	180	179	178	178	177	176	176	175	175	174	174	174	174	173	173	172	170	168	166	164	162	161	159	157	150	143	143	142	142	140	139	138	136	135	134	133	131	130	129	128	128	129	130	130	132	133	134	137	139	142	144	145	145	145	145	145	145	145	145	145	145	145	145	144	143	142	140	138	137	135	134	132	131	130	129	129	128	127	126	126	126	125	125	123	122	120	118	117	114	109	105	101	99	97	95	93	91	90	89	90	91	92	93	93	94	93	96	105	107	109	111	113	115	117	119	121	123	125	126	127	127	128	129	129	130	131	133	134	136	137	138	138	138	139	139	139	139	140	140	140	140	140	139	139	139	138	138	138	139	139	140	141	142	142	143	143	143	144	144	144	145	146	146	147	147	147	147	146	145	145	144	143	144	144	145	147	148	150	151	152	152	153	152	152	151	151	150	149	148	147	147	146	146	146	146	146	146	146	146	145	145	145	144	144	143	143	142	141	141	140	139	138	137	135	134	133	132	131	131	131	131	131	131	131	131	131	130	130	130	129	129	129	128	127	127	126	125	125	124	124	125	126	128	130	132	135	138	140	142	145	147	149	151	154	155	157	158	159	159	160	160	161	161	161	161	160	160	160	160	159	159	158	158	157	156	155	154	152	151	149	148	146	145	143	142	140	139	138	136	135	133	132	131	129	128	126	125	123	122	120	119	117	116	114	112	110	109	107	105	103	101	100	98	96	94	93	91	89	88	86	85	84	83	82	81	80	79	78	78	77	77	77	77	78	78	78	78	78	78	78	78	78	79	79	79	79	79	79	79	78	78	78	78	78	78	79	79	79	80	81	82	83	84	85	86	86	86	85	84	81	78	74	70	67	64	62	61	61	62	62	62	63	63	63	63	63	63	61	60	57	53	50	45	41	37	34	31	28	25	23	20	18	16	14	12	11	10	9	8	8	8	8	8	8	8	8	8	8	9	9	9	9	9	9	9	9	9	9	9	9	9	9	9	9	9	9	8	8	8	8	8	7	7	7	7	7	7	7	8	8	8	8	8	8	8	8	8	8	8	8	8	8	8	8	8	8	8	8	8	8	8	8	9	9	9	9	9	9	9	9	9	9	9	9	9	9	9	8	7	7	7	7	7	7	7	9	9	9	9	9	9	8	7	7	7	7	7	7	7	7	7	7	7	7	7	7	7	7	6	6	6	6	6	6	7	7	6	6	6	6	7	7	7	6	6	6	6	6	6	6	6	7	7	7	7	7	7	7	7	7	7	7	7	7	7	7	7	7	6	6	6	7	7	7	7	7	7	7	7	7	7	7	7	7	7	7	7	7	7	7	7	7	8	8	7	6	7	7	7	7	7	7	6	6	4	4	6	7	3	0	0	0	1	1	0	0	0	0	0	0	0	0	0	0	0	0	0	0	0	0	0	0	0	0	0	0	0	0	0	0	0	0	0	0	0	0	0	0	0	0	0	0	0	0	0	0	0	0	0	0	0	0	0	0	0	0	0	0	0	0	0	0	0	0	0	0	0	0	0	0	0	0	0	0	0	0	0	0	0	0	0	0	0	0	0	0	0	0	0	0	0	0	0	0	0	0	0
53	52	52	51	50	48	48	48	49	50	50	51	51	52	53	55	57	60	62	63	62	61	60	60	59	59	59	59	62	64	65	68	71	75	78	80	83	85	87	89	91	93	95	95	95	95	96	96	96	96	96	96	96	97	98	98	99	99	100	102	105	108	110	110	111	111	111	110	108	107	105	103	101	100	98	97	96	96	96	96	95	95	95	95	95	95	95	95	95	96	96	97	99	101	102	103	103	104	104	104	104	104	104	103	103	103	103	104	104	105	107	108	110	111	112	113	114	115	116	117	118	119	119	120	121	121	122	122	122	123	123	123	124	124	124	124	124	124	124	125	125	125	125	126	126	127	129	131	133	136	139	143	146	149	152	154	157	160	162	165	168	170	172	175	177	178	178	178	178	177	175	173	170	169	168	168	169	169	171	172	174	177	180	184	187	189	190	191	192	193	194	195	196	197	198	198	199	200	201	202	202	203	203	204	206	209	212	215	216	216	217	217	218	218	218	218	217	217	217	216	216	216	216	216	216	216	216	216	215	215	215	215	215	215	215	215	215	215	215	215	214	214	214	214	214	214	214	214	214	214	214	214	214	214	214	214	214	214	214	214	213	213	213	212	212	212	211	211	210	210	210	209	209	208	208	207	207	207	206	206	205	204	202	200	197	194	191	189	187	186	185	184	183	181	180	180	179	179	178	178	177	176	175	175	174	174	174	174	173	172	171	169	168	165	163	161	159	157	152	144	144	144	143	141	140	139	137	136	134	133	132	131	130	129	128	129	130	130	132	133	134	137	140	143	145	145	145	145	145	145	145	145	145	145	145	145	145	145	144	143	142	140	138	136	135	133	132	131	130	129	128	127	127	127	126	126	125	125	123	121	119	118	116	112	107	104	101	99	97	95	92	90	88	89	89	90	91	92	93	93	93	101	107	108	110	112	114	116	118	120	122	123	124	125	126	127	127	128	129	130	132	134	135	136	137	137	138	138	138	138	138	138	138	138	138	137	137	136	136	136	135	135	135	136	137	138	139	140	141	141	142	142	142	143	143	144	144	145	145	145	144	144	143	142	141	141	141	142	143	144	146	147	148	149	150	150	150	150	149	148	147	146	145	144	143	142	142	142	142	143	143	143	143	143	142	142	142	141	141	140	140	139	138	137	136	135	134	133	132	130	129	129	128	128	128	128	128	128	128	128	127	127	127	127	127	126	126	126	125	124	124	124	123	124	124	125	127	129	131	134	136	139	141	143	146	148	150	152	154	155	156	157	157	158	158	158	158	158	158	158	158	158	157	157	156	156	155	154	154	152	151	150	148	147	145	144	142	141	140	138	137	136	134	133	131	130	129	127	126	124	123	121	120	119	117	115	114	112	110	109	107	105	103	101	100	98	96	94	93	91	89	87	86	85	84	83	82	81	80	80	79	78	78	78	77	77	78	78	78	78	78	78	78	78	78	79	79	79	79	79	79	79	79	79	78	78	78	78	78	78	79	79	80	81	82	83	83	84	85	85	84	84	83	81	78	75	71	68	65	63	62	61	62	62	62	62	63	63	63	63	64	63	61	59	55	51	46	42	38	34	31	28	25	23	20	18	16	14	12	10	9	8	8	8	7	7	8	8	8	8	8	8	9	9	9	9	9	9	9	9	9	9	9	9	9	9	9	9	9	8	8	8	8	8	7	7	7	7	7	7	7	7	7	8	8	8	8	8	8	8	8	8	8	8	8	8	8	8	8	8	8	8	8	8	8	9	9	9	9	9	9	9	9	9	9	9	9	9	10	10	10	9	8	7	7	7	7	7	7	7	8	9	9	9	9	8	7	7	7	7	7	7	7	7	7	7	7	7	7	6	6	6	6	6	6	6	6	6	6	6	6	6	6	6	6	6	6	6	6	6	6	6	6	6	6	7	7	7	7	7	7	7	7	7	7	7	7	7	7	7	7	6	6	5	6	6	7	7	7	7	7	7	7	7	7	7	7	7	7	7	7	7	7	7	7	7	8	8	7	7	7	7	7	7	7	6	6	4	2	1	2	2	0	0	0	0	0	0	0	0	0	0	0	0	0	0	0	0	0	0	0	0	0	0	0	0	0	0	0	0	0	0	0	0	0	0	0	0	0	0	0	0	0	0	0	0	0	0	0	0	0	0	0	0	0	0	0	0	0	0	0	0	0	0	0	0	0	0	0	0	0	0	0	0	0	0	0	0	0	0	0	0	0	0	0	0	0	0	0	0	0	0	0	0	0	0	0	0	0	0	0
53	53	52	52	51	49	48	47	48	49	49	49	49	50	52	54	56	59	61	62	60	59	58	57	56	56	58	61	64	66	68	70	73	76	79	81	84	86	88	90	92	94	95	95	95	95	96	96	95	96	95	95	95	96	96	96	97	98	99	100	103	106	108	109	109	109	110	109	108	106	105	103	101	99	97	96	96	96	95	95	95	95	95	95	95	95	95	95	95	95	95	96	97	99	101	102	102	103	103	103	102	101	101	101	101	101	102	102	103	103	105	106	108	109	110	112	113	114	115	116	116	117	118	119	119	120	121	121	121	122	122	123	123	123	123	123	123	123	123	124	124	124	124	125	125	126	129	131	133	136	139	143	146	149	152	155	157	160	162	165	167	169	171	173	175	176	176	176	175	174	171	169	167	166	165	165	167	168	170	172	173	176	179	183	186	187	189	190	190	191	192	193	194	195	195	196	197	198	198	199	200	201	202	203	204	207	210	214	216	216	216	217	217	218	218	217	217	217	216	216	216	216	216	216	216	216	215	215	215	215	215	215	215	215	215	215	215	215	214	214	213	212	212	213	213	213	213	213	213	213	213	213	213	213	213	213	213	213	213	213	212	212	212	211	211	211	211	210	210	209	209	209	208	208	207	207	206	205	205	204	204	203	201	199	197	195	193	191	189	187	186	185	184	183	181	180	180	179	179	178	177	176	175	175	175	175	174	174	173	172	171	170	169	167	164	162	160	158	154	146	144	144	144	142	141	139	138	136	135	134	132	131	130	130	129	129	130	131	132	133	134	137	140	143	145	145	145	145	145	145	145	145	145	145	145	145	145	145	145	145	143	141	140	138	136	134	133	132	131	130	129	128	128	127	127	126	126	125	123	121	120	118	116	113	109	106	103	100	98	96	93	91	89	88	88	89	89	90	91	92	92	94	104	107	109	110	112	114	116	118	120	121	123	123	124	125	126	127	128	129	130	133	135	136	136	136	137	137	137	137	137	136	136	136	135	135	135	134	134	133	132	132	132	133	134	136	137	138	139	139	140	140	141	141	142	142	143	143	143	143	142	141	141	140	139	138	139	139	141	142	144	145	146	147	148	148	148	147	147	146	145	143	141	140	139	138	138	138	138	139	139	140	140	140	140	140	139	139	139	138	138	137	136	135	134	133	132	131	129	128	127	126	126	125	125	125	125	125	125	124	124	124	124	124	124	124	124	124	123	123	123	122	122	123	123	125	126	128	130	133	135	137	140	142	144	146	148	150	152	153	154	155	155	156	156	156	156	156	156	156	156	155	155	154	154	153	153	152	151	150	149	147	146	144	143	141	140	139	137	136	135	133	132	131	129	128	127	125	124	122	121	119	118	117	115	114	112	110	109	107	105	103	101	100	98	96	94	93	91	89	87	85	84	83	82	82	81	81	80	79	79	78	78	78	78	78	78	78	78	78	78	78	78	78	78	79	79	79	79	79	80	79	79	79	78	78	78	78	78	78	78	79	79	80	81	82	82	83	83	83	83	82	81	80	78	75	72	69	67	64	63	62	62	62	62	62	62	62	63	63	64	64	62	60	56	52	47	42	37	34	30	27	25	22	20	18	16	13	12	10	8	8	7	7	7	7	7	8	8	8	8	8	9	9	9	9	9	9	9	9	9	9	9	9	9	9	9	9	9	8	8	8	8	7	7	7	7	7	7	7	7	7	7	8	8	8	8	8	8	8	8	8	8	8	8	8	8	8	8	8	8	8	8	8	8	9	9	9	9	9	9	9	9	9	9	9	9	10	10	11	10	9	8	8	7	7	7	7	7	7	7	8	9	9	8	8	7	7	7	7	7	7	7	7	7	7	7	7	7	6	6	6	6	7	7	6	6	6	6	6	6	6	6	6	6	6	6	6	6	6	6	6	6	6	6	6	7	7	7	7	7	7	7	7	7	7	7	7	7	7	7	6	5	4	5	6	6	7	7	7	7	7	7	7	7	7	7	7	7	7	7	7	7	7	7	8	7	7	7	7	7	7	7	6	6	5	4	3	1	0	0	0	0	0	0	0	0	0	0	0	0	0	0	0	0	0	0	0	0	0	0	0	0	0	0	0	0	0	0	0	0	0	0	0	0	0	0	0	0	0	0	0	0	0	0	0	0	0	0	0	0	0	0	0	0	0	0	0	0	0	0	0	0	0	0	0	0	0	0	0	0	0	0	0	0	0	0	0	0	0	0	0	0	0	0	0	0	0	0	0	0	0	0	0	0	0	0	0	0	0	0
53	52	52	52	51	50	48	47	47	48	48	48	48	49	51	54	56	59	61	61	58	57	56	55	54	55	58	62	65	67	69	72	74	77	79	82	84	87	90	92	94	95	95	95	95	95	95	95	95	95	95	94	93	93	94	94	95	96	97	98	99	102	106	107	108	108	108	108	107	106	105	103	101	100	98	96	95	95	95	95	95	95	95	95	95	95	94	94	94	94	95	95	96	97	98	100	100	101	101	100	100	99	99	99	99	99	100	101	101	102	103	105	106	107	109	110	111	112	113	114	115	116	117	117	118	119	119	120	121	121	121	122	122	122	122	122	122	122	122	123	123	123	123	123	124	126	128	130	133	136	139	143	147	149	152	155	157	160	162	164	166	168	170	171	172	173	173	173	172	170	168	165	164	164	163	164	165	167	169	171	173	175	178	182	184	186	187	188	189	190	190	191	192	193	194	194	195	195	196	197	197	198	200	201	203	205	209	212	215	216	216	217	217	218	218	217	217	216	216	216	216	216	216	216	215	215	215	215	215	215	215	215	215	215	215	215	215	214	213	212	212	211	211	211	211	211	211	211	211	211	211	211	211	210	210	210	210	210	210	210	209	209	209	209	208	209	209	209	208	208	208	208	207	207	206	206	205	203	202	201	200	200	199	198	196	195	193	191	189	187	185	185	185	184	183	182	181	179	178	178	177	176	175	175	175	175	175	175	174	172	171	170	169	167	165	163	161	159	156	149	145	145	145	143	142	140	139	137	135	134	133	132	131	130	130	130	130	131	132	133	134	137	140	144	145	145	145	145	145	145	145	145	145	145	145	145	145	145	145	145	144	142	140	138	136	135	134	133	132	131	130	129	128	128	127	127	126	125	124	122	120	118	117	114	111	107	104	102	99	96	94	91	89	87	87	87	88	89	90	90	91	91	95	103	106	108	110	112	114	116	118	119	121	122	123	123	124	125	126	127	129	132	135	136	136	136	136	136	136	135	135	135	134	134	133	133	132	132	131	130	130	129	130	131	132	133	134	136	137	137	138	138	139	139	140	140	141	141	141	141	140	140	139	138	137	137	137	138	139	140	142	143	144	145	146	146	146	145	145	143	142	140	139	137	136	135	134	134	135	135	136	137	137	137	137	137	137	137	136	136	135	135	134	133	132	131	130	129	128	126	125	124	124	123	123	123	123	122	122	121	121	121	121	121	121	122	122	122	122	122	121	121	121	121	122	123	125	127	129	132	134	136	138	140	142	144	146	148	150	151	152	153	153	154	154	154	154	154	154	154	154	153	153	152	152	151	150	150	149	148	146	145	143	142	140	139	138	137	135	134	133	131	130	129	127	126	124	123	122	120	119	118	116	115	113	112	110	109	107	105	103	102	100	98	97	95	93	91	89	87	85	83	82	81	81	80	80	80	80	79	79	78	78	78	78	78	78	78	78	78	78	78	78	78	78	79	79	79	79	80	80	80	79	79	78	78	78	78	77	78	78	78	79	79	80	81	81	82	82	81	81	80	80	79	77	76	73	71	68	66	64	63	62	62	61	62	62	62	62	63	64	64	63	61	57	52	46	41	36	33	30	27	24	22	20	17	15	13	11	9	8	7	7	7	7	7	7	8	8	8	8	8	8	9	9	9	9	9	9	9	9	9	9	9	9	9	9	9	8	8	8	8	8	7	7	7	7	7	7	7	7	7	7	8	8	8	8	8	8	7	7	7	7	7	7	7	7	8	8	8	8	8	8	8	9	9	9	9	9	9	9	9	9	9	9	9	9	10	10	10	10	9	9	8	8	7	7	7	7	7	7	7	8	8	8	8	7	7	7	7	8	7	7	7	7	7	7	7	7	6	6	6	7	7	7	6	6	6	6	6	6	6	6	6	6	6	6	6	6	6	6	6	6	6	6	6	7	7	7	7	7	7	7	7	7	7	7	6	6	6	6	6	5	4	5	5	6	6	7	7	7	7	7	7	7	7	7	7	7	7	7	7	7	7	9	10	7	7	7	7	6	6	6	6	5	4	3	2	1	0	0	0	0	0	0	0	0	0	0	0	0	0	0	0	0	0	0	0	0	0	0	0	0	0	0	0	0	0	0	0	0	0	0	0	0	0	0	0	0	0	0	0	0	0	0	0	0	0	0	0	0	0	0	0	0	0	0	0	0	0	0	0	0	0	0	0	0	0	0	0	0	0	0	0	0	0	0	0	0	0	0	0	0	0	0	0	0	0	0	0	0	0	0	0	0	0	0	0	0	0	0
53	52	52	52	52	51	48	47	47	48	48	48	47	48	50	53	57	59	60	59	57	55	54	54	54	55	58	62	65	68	70	73	75	78	80	82	85	88	91	93	95	95	95	95	95	95	95	95	95	94	93	91	90	90	91	91	92	94	95	96	97	99	102	105	106	107	107	107	106	106	104	103	101	100	98	96	95	95	95	95	95	95	95	95	94	94	93	93	93	93	94	95	96	96	97	98	98	98	98	98	98	97	97	97	97	98	99	99	100	100	102	103	104	106	107	108	109	110	111	113	114	115	116	116	117	118	119	120	120	121	121	121	121	121	121	121	121	121	121	122	122	122	122	122	123	125	128	130	133	136	140	144	147	149	152	155	157	159	161	163	165	167	168	169	170	170	170	170	169	167	165	163	162	162	162	162	164	166	168	170	172	174	177	180	182	184	185	186	187	188	189	190	190	191	192	193	193	194	194	195	196	197	198	200	202	204	207	211	214	216	216	217	217	218	218	217	217	216	216	216	215	215	215	215	215	215	215	214	214	214	214	214	214	214	214	213	213	212	211	211	210	210	209	209	209	209	209	209	209	209	209	209	209	208	208	208	207	207	207	206	206	206	206	206	206	207	207	207	207	207	207	207	206	206	205	204	202	200	199	198	197	197	196	196	195	194	193	191	188	186	185	185	185	185	184	183	181	179	178	177	177	176	175	175	175	175	175	175	174	173	171	170	169	168	166	164	162	160	157	152	147	146	146	144	142	141	140	138	136	135	134	133	132	131	131	131	131	131	132	133	134	137	140	144	145	145	145	145	145	145	145	145	145	145	145	145	145	145	145	145	144	142	140	138	137	135	134	133	132	131	130	130	129	128	128	127	126	125	124	122	120	118	117	115	112	108	106	103	100	97	94	91	89	86	86	86	87	87	88	89	90	91	91	94	101	106	108	110	112	114	116	117	119	120	121	122	123	124	125	126	128	132	134	136	136	136	136	135	135	134	134	133	133	132	132	131	130	129	129	128	127	127	127	128	130	131	132	134	135	135	136	137	137	138	138	139	139	139	139	139	139	138	137	136	136	136	136	137	138	139	140	142	142	143	144	144	144	143	142	141	140	138	136	135	133	132	131	131	132	132	133	134	134	134	135	135	135	134	134	134	133	133	132	131	130	129	128	127	126	125	123	123	122	121	121	121	120	120	119	119	118	118	118	118	119	119	120	120	120	120	120	119	119	120	120	122	124	126	128	131	133	135	137	139	141	143	144	146	148	149	150	151	151	152	152	152	153	153	152	152	152	151	150	150	149	149	148	147	147	146	144	143	142	140	138	137	136	134	133	132	131	129	128	127	125	124	122	121	120	118	117	116	114	113	111	110	108	107	105	103	101	100	98	97	95	93	91	89	87	85	83	81	80	80	79	79	80	79	79	79	78	78	78	78	78	78	78	78	78	78	78	78	78	78	78	79	79	79	80	80	80	80	80	79	78	78	77	77	77	77	78	78	78	79	79	80	80	81	80	80	79	79	78	78	77	76	74	72	70	67	65	63	62	61	61	61	61	61	62	62	63	63	62	60	56	51	45	39	35	31	29	26	24	21	19	17	15	13	11	9	8	7	7	6	7	7	7	8	8	8	8	8	8	9	9	9	9	8	8	9	9	9	9	9	9	9	9	9	8	8	8	8	8	8	7	7	7	6	7	7	7	7	7	7	8	8	8	7	7	7	7	7	7	7	7	7	7	7	8	8	8	8	8	8	9	9	9	9	9	9	9	9	9	9	9	9	9	9	9	9	9	9	8	8	8	8	7	7	7	7	7	7	7	8	8	8	7	7	7	7	7	7	7	7	7	7	6	6	7	7	7	7	6	7	6	6	6	6	6	6	6	6	6	6	6	6	6	6	6	6	6	6	6	6	6	6	6	7	7	7	7	6	7	7	7	6	6	5	4	4	5	5	5	5	5	5	5	6	7	7	7	7	7	7	7	7	7	7	7	7	7	7	7	8	11	13	8	7	7	6	6	6	5	4	3	2	1	1	0	0	0	0	0	0	0	0	0	0	0	0	0	0	0	0	0	0	0	0	0	0	0	0	0	0	0	0	0	0	0	0	0	0	0	0	0	0	0	0	0	0	0	0	0	0	0	0	0	0	0	0	0	0	0	0	0	0	0	0	0	0	0	0	0	0	0	0	0	0	0	0	0	0	0	0	0	0	0	0	0	0	0	0	0	0	0	0	0	0	0	0	0	0	0	0	0	0	0	0	0	0	0
53	52	52	52	52	51	49	47	46	47	48	48	48	47	49	53	56	58	59	58	56	54	53	53	54	55	57	61	65	68	71	73	76	78	81	83	86	90	93	95	95	95	95	95	95	95	95	95	94	92	90	88	87	87	88	89	90	91	92	94	95	97	99	101	103	105	105	106	106	105	104	102	101	99	98	96	95	95	95	95	95	95	95	94	94	93	93	92	92	92	93	94	95	95	96	96	97	97	97	97	96	96	95	95	96	97	98	98	99	100	101	102	103	104	105	106	107	109	110	111	112	114	114	115	116	117	118	119	120	120	121	121	121	121	121	120	120	120	120	120	121	121	121	122	123	125	127	130	133	136	140	144	147	149	151	154	156	158	160	161	163	165	166	167	167	167	167	167	166	164	163	161	161	160	160	161	163	165	167	169	171	173	176	179	181	182	183	184	185	186	187	188	189	190	190	191	192	192	193	194	195	195	197	199	201	203	206	210	214	215	216	217	217	218	218	217	217	216	216	215	215	214	214	214	213	213	213	212	212	212	212	212	212	211	211	211	210	210	209	209	209	208	208	208	208	208	208	208	208	207	207	207	207	206	206	205	205	204	203	203	203	203	203	203	204	204	205	206	206	206	206	205	205	204	203	201	199	197	196	195	194	194	194	194	193	193	192	190	188	186	185	185	185	185	184	183	180	178	177	177	177	176	175	175	175	175	175	175	175	174	172	170	169	168	167	165	163	161	158	155	150	148	147	146	143	142	140	139	137	136	135	134	133	132	132	131	132	132	133	134	135	137	140	143	145	145	145	145	145	145	145	145	145	145	145	145	145	145	145	144	143	142	140	139	137	136	135	134	133	132	131	130	130	129	128	127	126	125	124	122	120	118	116	115	112	109	107	104	101	98	94	91	88	86	85	85	86	86	87	88	89	90	91	91	94	100	106	108	110	112	114	115	117	118	119	120	121	122	123	125	128	131	133	135	136	136	136	135	134	133	132	131	131	130	130	129	128	127	127	126	125	125	126	127	128	129	130	132	133	134	134	135	135	136	136	137	137	137	137	137	137	136	136	135	135	135	135	136	137	138	139	140	141	141	142	142	142	141	140	139	138	136	135	133	131	130	129	129	130	130	131	131	132	132	132	132	132	132	132	131	131	130	130	129	128	127	126	125	124	123	122	121	120	119	119	118	118	117	116	116	115	115	115	115	116	117	118	118	118	118	118	118	118	118	119	120	123	125	127	130	132	134	136	138	139	141	142	144	145	147	148	149	149	150	150	151	151	151	151	150	150	149	148	148	147	147	146	145	145	143	142	141	140	138	137	135	134	132	131	130	128	127	126	125	123	122	120	119	118	116	115	114	112	111	109	108	106	105	103	101	100	98	97	95	93	92	90	88	86	84	82	80	79	78	78	79	79	79	79	78	78	78	78	78	78	78	78	78	78	78	78	78	78	78	78	78	79	79	79	80	80	80	80	79	78	77	77	77	77	77	77	77	78	78	79	79	79	79	79	79	78	78	77	78	77	77	76	74	72	69	66	64	62	61	61	61	61	61	61	61	62	62	61	58	54	49	43	37	33	30	27	25	23	21	19	17	15	13	11	9	8	7	7	7	7	7	7	8	8	8	8	8	8	8	9	8	8	8	8	8	8	8	8	8	8	8	8	8	8	8	8	8	8	8	7	7	7	7	7	7	7	7	7	7	7	7	7	7	7	7	7	7	7	7	7	7	7	7	8	8	8	8	8	8	8	8	8	8	9	9	9	9	9	9	9	9	9	9	9	9	9	8	8	8	8	8	8	7	7	7	7	7	7	7	7	7	7	7	7	7	7	7	8	7	7	7	6	7	7	7	6	6	6	6	6	6	6	6	6	6	6	6	6	6	6	6	6	6	6	6	6	6	6	6	6	6	6	6	7	6	6	6	6	6	6	5	4	2	1	3	4	5	6	6	5	5	5	6	7	7	7	7	7	7	7	7	7	7	6	6	6	6	7	8	9	9	7	6	6	6	5	5	4	4	3	1	0	0	0	0	0	0	0	0	0	0	0	0	0	0	0	0	0	0	0	0	0	0	0	0	0	0	0	0	0	0	0	0	0	0	0	0	0	0	0	0	0	0	0	0	0	0	0	0	0	0	0	0	0	0	0	0	0	0	0	0	0	0	0	0	0	0	0	0	0	0	0	0	0	0	0	0	0	0	0	0	0	0	0	0	0	0	0	0	0	0	0	0	0	0	0	0	0	0	0	0	0	0	0	0	0
52	52	52	51	51	51	50	47	45	46	48	48	48	47	48	51	55	57	57	56	55	53	52	52	53	54	57	61	65	68	71	73	76	78	81	84	87	91	94	95	95	95	95	95	95	95	95	93	91	88	87	86	85	85	86	86	87	88	89	91	93	95	97	98	100	101	103	104	104	104	103	101	100	99	97	96	95	95	95	95	95	95	95	94	93	93	92	91	91	91	92	93	94	95	95	96	96	96	96	96	95	95	95	95	95	95	96	98	99	99	100	101	102	103	104	105	106	107	109	110	111	112	113	114	115	116	117	119	120	120	120	120	120	120	120	120	120	119	119	119	119	119	120	121	123	125	127	130	132	136	139	143	146	148	150	152	154	156	157	158	160	161	162	163	164	164	164	164	163	162	161	159	158	158	158	160	162	165	167	169	171	173	175	177	179	180	182	183	184	185	185	186	187	188	189	189	190	191	192	193	194	195	196	198	200	202	205	209	213	215	216	217	217	218	218	217	216	216	215	215	213	213	212	211	211	210	210	209	209	209	209	209	209	209	209	208	208	207	207	207	207	207	207	207	207	207	207	206	206	205	205	204	204	203	202	202	201	200	200	199	199	198	199	199	200	201	203	204	204	205	204	203	202	201	200	198	196	195	194	193	192	192	192	192	191	191	190	189	187	185	185	185	185	185	184	182	179	177	177	176	176	176	175	175	175	175	175	175	175	175	173	170	169	168	167	166	164	162	159	156	153	150	149	147	145	142	141	140	139	138	136	135	134	133	133	132	132	133	133	134	135	137	140	143	145	145	145	145	145	145	145	145	145	145	145	145	145	144	144	144	143	141	140	139	137	136	135	134	133	132	131	131	130	129	128	127	126	125	123	122	120	118	117	115	112	110	107	105	101	98	94	90	86	85	84	84	85	85	85	86	87	89	90	91	91	94	102	106	109	110	112	114	115	116	117	118	120	121	122	124	127	130	133	134	135	135	135	134	133	132	131	130	129	128	127	127	126	125	125	124	124	124	124	125	126	127	129	130	131	132	132	133	134	134	134	135	135	135	136	136	135	135	135	134	134	134	134	135	136	137	137	138	139	140	140	140	140	139	139	137	136	134	133	131	130	129	128	128	128	128	129	129	130	130	130	130	130	130	130	129	129	128	128	127	126	125	124	123	122	121	120	119	118	118	117	116	116	115	114	113	112	112	112	113	114	115	116	116	117	117	117	116	116	117	118	119	122	124	126	128	130	133	134	136	138	139	141	142	143	144	146	147	147	148	148	149	149	149	148	148	148	147	146	146	145	144	144	143	142	141	140	139	138	136	135	133	132	130	129	128	126	125	124	123	121	120	118	117	116	114	113	112	110	109	107	106	104	103	101	100	98	97	95	93	92	90	88	87	85	82	81	79	78	78	78	78	78	78	78	78	78	78	78	78	78	78	78	78	78	78	78	78	78	78	78	78	79	79	79	80	80	80	79	79	78	77	77	76	76	76	77	77	77	78	78	78	79	79	78	78	77	77	77	77	78	78	77	75	73	70	67	65	63	61	61	60	61	61	61	61	61	61	59	56	52	46	40	35	31	28	26	24	22	20	19	17	15	13	11	10	8	7	7	7	7	7	7	8	8	8	8	8	8	8	8	8	8	8	8	8	8	8	8	8	8	8	8	8	8	8	8	8	8	8	8	7	7	7	7	7	7	7	7	7	7	7	7	7	7	7	7	7	7	7	7	7	7	7	7	8	8	8	8	8	8	8	8	8	8	8	8	8	9	8	8	8	8	8	8	8	8	8	8	8	8	8	8	7	7	7	7	7	7	7	7	7	7	7	7	7	7	7	8	8	7	7	7	7	7	6	6	6	6	5	5	6	6	6	6	6	6	6	6	6	6	6	6	6	6	6	6	6	6	6	6	6	6	6	6	5	5	5	5	4	3	2	1	1	1	3	5	6	6	6	6	5	5	6	7	7	7	7	7	7	7	7	7	7	6	5	5	6	6	7	7	7	6	6	6	5	4	4	4	4	3	1	0	0	0	0	0	0	0	0	0	0	0	0	0	0	0	0	0	0	0	0	0	0	0	0	0	0	0	0	0	0	0	0	0	0	0	0	0	0	0	0	0	0	0	0	0	0	0	0	0	0	0	0	0	0	0	0	0	0	0	0	0	0	0	0	0	0	0	0	0	0	0	0	0	0	0	0	0	0	0	0	0	0	0	0	0	0	0	0	0	0	0	0	0	0	0	0	0	0	0	0	0	0	0	0	0
52	52	51	51	51	51	50	47	45	45	47	48	48	48	47	50	54	55	55	54	53	51	51	52	53	54	57	61	65	68	71	73	76	79	81	84	88	92	95	96	95	95	95	95	95	94	92	91	88	86	85	85	85	85	85	85	85	86	87	88	90	92	95	97	97	99	100	101	103	103	102	100	99	98	96	95	95	95	95	94	94	94	94	94	93	92	91	91	91	91	91	92	93	94	95	95	95	95	95	95	95	94	94	95	95	95	96	97	98	99	99	100	101	102	103	104	105	106	107	109	110	111	111	112	114	116	117	118	120	120	120	120	120	119	119	119	119	118	118	118	118	118	118	120	122	124	127	129	132	136	139	142	145	147	148	150	152	153	154	155	156	157	158	159	160	161	161	161	160	159	158	157	156	156	157	159	161	164	166	168	170	172	174	176	178	179	180	181	182	183	184	185	186	186	187	188	189	190	191	192	194	195	196	198	200	202	205	208	212	215	216	216	217	218	218	217	216	216	215	214	212	210	210	209	208	207	207	207	207	207	207	207	207	206	206	206	205	205	205	205	205	205	205	205	205	204	204	203	203	202	201	200	199	199	198	198	197	196	196	195	195	195	195	196	197	198	199	200	201	201	201	200	199	198	197	195	194	193	192	191	191	190	190	190	189	189	189	188	187	186	185	185	185	184	182	181	179	177	176	176	175	175	175	175	175	175	175	175	175	175	174	171	169	168	167	166	165	163	160	157	154	152	150	149	147	144	142	141	140	139	138	136	135	134	134	133	133	134	134	134	135	137	140	143	145	146	146	145	145	145	145	145	145	145	145	145	144	142	142	142	142	140	139	138	137	136	135	134	133	133	132	131	130	129	128	126	126	124	123	121	120	118	116	114	112	110	107	105	101	98	94	89	85	84	84	84	84	84	85	85	86	87	89	90	91	91	96	103	107	109	110	112	114	115	116	117	118	120	122	123	126	129	132	133	134	134	133	133	132	130	129	128	127	126	125	125	124	123	123	122	122	122	123	124	125	126	127	128	129	130	130	131	132	132	133	133	133	134	134	134	133	133	133	133	133	133	133	134	135	135	136	137	138	138	139	139	138	138	137	136	134	133	131	130	128	127	127	126	126	126	127	127	128	128	128	128	128	128	128	127	127	126	126	125	124	123	122	121	120	119	118	117	116	116	115	114	113	112	112	111	110	110	110	111	112	113	114	115	115	115	115	115	115	116	117	119	121	123	125	127	129	131	133	135	136	138	139	140	141	142	144	145	145	146	146	147	147	147	146	146	146	145	145	144	143	142	142	141	141	140	139	138	136	135	133	132	130	128	127	126	124	123	122	121	119	118	116	115	114	112	111	110	108	107	106	104	103	101	99	98	96	95	93	92	90	89	87	85	84	82	80	79	78	78	78	78	78	78	78	78	78	78	78	78	78	78	78	78	78	78	78	78	78	78	78	78	78	79	79	79	79	79	79	78	78	77	76	76	76	76	76	76	77	77	78	78	78	78	78	77	77	76	76	77	77	78	77	76	74	71	68	65	63	61	61	60	61	61	60	61	60	60	58	55	50	45	39	34	30	27	25	23	22	20	18	17	15	13	12	10	9	8	8	7	7	7	8	8	8	8	8	8	8	8	8	8	8	8	8	8	8	8	8	8	8	8	8	8	8	8	8	8	8	8	8	8	7	7	7	7	8	8	7	7	7	7	7	7	7	7	7	7	7	7	7	7	7	7	7	8	8	8	8	8	8	8	8	8	8	8	8	8	8	8	8	8	8	8	8	8	8	7	7	7	8	8	8	7	7	7	7	7	6	6	7	7	7	7	7	7	7	7	7	7	8	8	7	7	7	6	6	6	6	5	6	6	6	6	6	6	6	6	6	6	6	6	6	6	6	6	6	6	6	6	6	6	6	6	6	4	3	4	4	2	1	1	1	1	4	5	6	6	6	6	6	6	5	6	7	7	7	7	7	7	7	6	6	7	7	7	6	6	7	6	6	6	6	6	5	5	4	3	4	3	1	0	0	0	0	0	0	0	0	0	0	0	0	0	0	0	0	0	0	0	0	0	0	0	0	0	0	0	0	0	0	0	0	0	0	0	0	0	0	0	0	0	0	0	0	0	0	0	0	0	0	0	0	0	0	0	0	0	0	0	0	0	0	0	0	0	0	0	0	0	0	0	0	0	0	0	0	0	0	0	0	0	0	0	0	0	0	0	0	0	0	0	0	0	0	0	0	0	0	0	0	0	0	0	0	0	0
52	51	51	51	51	51	50	48	45	44	46	48	48	47	47	49	51	53	53	52	50	49	50	52	53	54	57	61	65	68	70	73	76	79	82	85	89	93	95	96	96	96	95	95	93	91	90	88	86	85	85	85	85	85	85	85	85	85	85	86	87	89	92	95	96	97	98	99	101	102	101	99	98	97	96	95	95	95	94	93	92	92	92	92	92	91	91	91	91	91	91	91	92	93	93	94	94	94	94	93	94	94	94	94	95	95	95	96	97	98	99	100	100	101	102	103	104	105	106	108	109	110	110	111	113	115	116	118	119	120	120	119	119	119	119	118	118	117	117	117	117	117	117	118	120	123	126	129	132	135	138	141	143	145	146	148	149	150	151	152	153	153	154	155	156	157	157	157	157	156	155	155	155	155	155	157	159	162	165	167	169	171	173	175	176	178	179	180	181	182	183	183	184	185	186	187	188	189	190	192	193	195	197	199	201	203	205	208	212	215	216	216	217	218	217	217	216	216	215	213	211	209	207	206	206	205	205	204	204	204	204	204	204	203	203	202	202	202	201	201	201	201	201	201	201	200	200	199	198	197	197	196	195	195	194	194	194	193	193	192	192	192	193	193	194	195	196	197	198	198	197	197	196	195	195	194	193	192	191	190	189	189	188	188	187	187	187	186	186	185	185	184	183	181	179	179	178	176	176	175	175	175	175	175	175	175	175	175	175	175	174	172	169	168	167	166	165	164	162	159	156	153	152	151	149	147	144	143	142	141	139	138	136	135	135	134	134	135	135	135	136	138	140	142	145	146	147	147	147	147	147	147	147	147	146	145	143	142	141	141	141	140	139	138	137	136	135	134	134	134	133	132	130	129	128	126	125	124	122	121	119	118	116	114	112	109	107	104	101	98	94	88	85	84	84	83	83	84	84	84	85	86	87	89	90	90	92	99	105	107	109	111	112	113	114	116	117	119	121	123	125	128	130	131	132	132	132	131	130	129	127	126	125	124	123	122	122	121	121	120	120	121	121	122	123	124	125	126	127	128	129	129	130	130	131	131	132	132	132	132	132	132	132	132	132	132	132	133	133	134	135	135	136	136	137	137	137	136	135	134	132	131	130	128	127	126	125	125	125	125	125	125	126	126	126	126	126	126	126	125	125	124	124	123	122	121	120	119	118	117	116	115	115	114	113	112	111	110	110	109	108	108	108	109	110	111	112	113	113	114	114	114	115	116	117	119	121	123	124	126	128	130	132	133	135	136	137	138	139	140	141	142	143	144	144	144	144	144	144	144	144	143	143	142	141	141	140	139	139	138	137	136	135	133	132	130	128	126	125	123	122	121	120	119	117	116	115	113	112	111	109	108	107	105	104	102	101	99	98	96	94	93	92	90	89	87	86	84	83	81	80	79	78	78	78	78	78	78	78	78	78	78	78	78	78	78	78	78	78	78	78	78	78	78	78	78	78	78	79	79	79	79	78	78	77	76	75	75	75	75	75	76	76	77	77	77	78	78	77	77	76	76	76	77	77	78	77	76	74	71	68	65	63	62	61	61	61	61	61	60	60	59	57	54	50	44	39	34	30	27	25	23	22	20	18	17	15	14	12	11	9	9	8	8	8	8	8	8	8	8	8	8	8	8	8	8	8	7	7	8	8	8	8	8	8	8	8	8	8	8	8	8	8	8	8	8	8	8	8	8	8	8	8	7	7	7	7	7	7	7	7	7	7	7	7	7	7	7	7	8	8	8	7	7	7	7	8	8	8	7	7	7	8	8	8	8	8	8	8	7	7	7	7	7	7	7	7	7	7	7	7	7	6	6	6	6	7	7	7	7	7	6	6	7	7	7	7	6	6	6	6	6	6	6	6	6	6	6	6	6	6	6	6	6	6	6	6	6	6	6	6	6	6	6	6	6	6	6	5	2	1	2	3	1	1	1	1	2	4	6	6	6	6	7	7	6	5	6	7	7	7	7	7	7	6	6	7	8	9	8	7	7	6	6	6	6	6	5	5	4	3	3	3	2	0	0	0	0	0	0	0	0	0	0	0	0	0	0	0	0	0	0	0	0	0	0	0	0	0	0	0	0	0	0	0	0	0	0	0	0	0	0	0	0	0	0	0	0	0	0	0	0	0	0	0	0	0	0	0	0	0	0	0	0	0	0	0	0	0	0	0	0	0	0	0	0	0	0	0	0	0	0	0	0	0	0	0	0	0	0	0	0	0	0	0	0	0	0	0	0	0	0	0	0	0	0	0	0	0	0	0
51	51	51	51	51	51	51	49	46	44	45	47	48	47	47	48	49	50	50	49	48	48	50	52	53	54	57	60	64	67	70	73	76	79	82	85	90	94	95	96	96	96	95	93	90	88	87	85	84	84	84	84	85	85	85	85	85	85	85	85	85	87	89	92	95	96	97	98	100	101	100	99	98	97	96	95	94	93	92	91	91	91	91	91	91	91	91	90	90	90	90	90	91	92	92	92	92	92	92	92	92	92	93	94	94	95	95	95	97	98	99	99	100	100	101	102	103	104	105	107	108	109	110	111	113	115	115	116	118	119	119	119	119	118	118	118	117	117	116	116	116	115	115	116	118	121	124	128	131	135	137	139	141	143	144	145	147	148	148	149	150	150	151	152	153	154	154	154	154	154	153	153	153	153	154	155	157	160	163	166	168	170	172	173	175	176	177	178	179	180	181	182	183	184	185	186	187	188	190	191	193	195	197	200	202	204	206	208	212	214	216	216	217	218	218	217	216	216	215	212	209	207	205	205	204	203	203	202	202	201	201	201	201	200	200	199	199	198	198	197	197	196	196	196	196	195	195	195	194	193	193	192	192	191	191	191	191	190	190	190	190	190	191	192	192	193	194	194	195	195	195	195	194	194	193	192	191	190	189	188	187	187	186	186	185	184	183	182	182	181	180	179	178	177	176	176	176	175	175	175	175	175	175	175	175	175	175	175	175	175	175	173	170	167	167	166	166	165	163	159	154	153	152	151	151	149	146	144	143	142	141	139	138	137	136	136	136	136	136	137	138	139	141	143	145	147	148	149	150	150	150	150	150	149	148	146	145	144	144	143	143	142	141	140	139	138	137	136	135	135	134	132	131	129	128	126	125	123	121	120	119	117	115	113	111	109	106	104	100	98	93	88	84	84	83	83	83	83	84	84	85	85	86	88	89	90	91	96	103	107	108	110	111	112	113	115	116	118	120	122	124	126	128	129	130	130	130	129	128	126	125	124	123	122	121	120	119	119	118	118	118	119	120	120	121	122	123	124	125	126	127	127	128	129	129	129	130	130	130	130	130	131	131	131	131	131	131	132	132	133	133	134	134	135	135	135	135	134	133	132	131	129	128	127	126	125	124	124	123	124	123	124	124	124	124	124	124	124	124	123	123	122	122	121	120	119	118	117	116	115	114	113	113	112	111	110	109	108	108	107	106	106	107	108	109	110	111	112	112	113	113	113	114	115	117	119	120	122	123	125	127	128	130	132	133	134	135	136	137	138	139	140	141	142	142	142	143	143	143	143	142	142	141	140	140	139	138	138	137	137	136	135	133	132	130	128	126	124	123	122	120	119	118	117	116	114	113	111	110	109	107	106	105	103	102	100	99	97	96	94	92	91	90	88	87	86	85	83	82	81	80	79	78	78	78	78	78	78	78	78	78	78	78	78	78	78	78	78	78	78	77	77	77	77	77	78	78	78	78	78	78	78	77	77	76	75	74	74	74	75	75	75	76	76	77	77	77	78	77	77	76	76	76	77	77	77	77	76	74	71	68	66	64	62	62	61	61	61	61	61	60	59	57	54	50	46	40	36	32	28	26	24	22	20	19	17	15	14	12	11	10	9	8	8	8	8	8	8	8	8	8	8	8	8	8	8	7	7	7	7	7	7	7	8	8	8	8	8	8	8	8	8	8	8	8	8	8	8	8	8	8	8	8	7	7	7	7	7	7	6	6	7	7	7	7	7	7	7	8	8	8	8	7	7	7	7	7	7	7	7	7	7	7	7	7	7	7	7	7	7	7	7	7	7	7	7	7	7	7	7	7	7	6	6	6	6	6	6	6	7	7	6	6	6	6	6	6	6	6	6	6	6	6	6	6	6	6	6	6	6	6	6	6	6	6	6	6	6	6	6	6	6	6	6	6	6	6	4	3	2	1	2	2	1	1	1	1	1	3	4	5	6	6	7	7	6	5	5	6	7	7	7	6	6	7	8	10	11	10	9	8	7	7	7	7	7	6	5	5	4	3	3	3	1	0	0	0	0	0	0	0	0	0	0	0	0	0	0	0	0	0	0	0	0	0	0	0	0	0	0	0	0	0	0	0	0	0	0	0	0	0	0	0	0	0	0	0	0	0	0	0	0	0	0	0	0	0	0	0	0	0	0	0	0	0	0	0	0	0	0	0	0	0	0	0	0	0	0	0	0	0	0	0	0	0	0	0	0	0	0	0	0	0	0	0	0	0	0	0	0	0	0	0	0	0	0	0	0	0	0	0
51	51	51	51	51	51	51	50	47	44	44	46	48	48	47	47	48	48	48	47	47	48	50	52	53	54	56	60	64	67	70	73	76	79	82	86	90	94	95	95	95	95	93	90	87	85	84	83	82	81	81	82	83	84	85	85	85	85	85	85	85	85	87	90	93	95	97	98	99	100	100	98	97	96	95	94	93	92	91	90	91	91	91	91	91	90	90	89	89	89	89	90	91	91	91	91	91	91	91	91	91	92	93	94	94	95	95	95	96	97	98	99	99	100	101	102	103	104	105	106	107	109	110	110	113	115	115	115	116	117	117	117	117	118	118	117	117	116	116	115	115	115	115	115	116	118	122	127	130	133	136	137	139	140	142	143	144	145	145	146	147	147	148	149	150	151	151	152	152	152	151	151	152	152	153	154	155	158	162	165	167	169	170	172	173	175	176	177	178	179	180	180	181	182	183	184	186	187	189	191	193	196	198	200	202	205	206	209	212	214	215	216	217	218	218	217	216	216	214	212	208	206	204	203	202	202	201	200	199	199	198	198	197	197	196	196	195	195	194	193	193	192	192	192	191	191	191	191	191	190	190	189	189	188	188	188	188	188	188	188	188	188	189	190	190	191	192	192	192	193	193	193	193	192	192	191	190	189	188	187	186	184	183	182	181	179	178	177	176	175	175	174	174	174	174	174	174	174	174	175	175	175	175	175	175	175	175	175	175	175	175	174	171	168	166	166	166	165	161	155	152	152	152	152	152	151	149	146	145	144	142	141	140	139	138	138	137	138	138	138	139	140	142	144	146	147	149	151	152	152	153	152	152	152	150	149	148	148	147	146	146	145	144	143	141	140	138	137	136	135	134	133	131	130	128	126	124	122	120	119	118	116	115	112	110	108	105	102	99	96	92	87	84	84	83	82	82	83	83	84	84	85	86	87	88	89	90	94	101	106	107	108	109	110	112	114	115	117	119	120	122	124	125	126	127	127	127	126	125	124	123	122	121	120	119	118	117	116	116	115	116	116	117	118	119	120	121	122	123	124	125	126	126	127	127	128	128	128	128	129	129	129	129	129	129	130	130	130	131	131	132	132	133	133	133	134	133	132	131	130	129	128	126	125	124	123	123	122	122	122	122	122	122	122	122	122	122	122	122	121	121	120	120	119	118	118	117	116	115	114	113	112	111	110	109	108	107	107	106	105	105	105	106	106	108	109	110	110	111	111	112	112	113	114	116	118	119	121	122	124	125	127	128	130	131	132	133	133	134	135	136	138	139	140	140	140	141	141	141	141	141	140	140	139	138	137	137	136	136	135	135	133	132	130	128	126	124	123	121	120	119	118	117	115	114	112	111	109	108	107	106	104	103	102	100	98	97	95	94	92	90	89	88	87	86	85	84	83	81	80	80	79	78	78	78	78	78	78	78	78	78	78	78	78	78	78	78	78	78	78	77	77	77	77	77	77	78	78	78	78	77	77	76	76	75	74	74	74	74	74	74	75	75	76	76	77	77	78	78	77	77	77	77	77	77	77	76	75	73	71	68	66	64	63	62	62	62	62	61	61	61	60	58	56	52	48	43	38	34	30	27	25	22	21	19	17	15	14	12	11	10	9	8	8	8	8	8	8	8	8	8	8	8	8	8	8	7	7	7	7	7	7	7	7	7	7	8	8	8	8	8	8	8	9	9	8	8	8	8	8	8	8	8	7	7	7	7	7	6	6	6	6	7	7	7	7	7	8	8	8	8	8	7	7	7	7	7	7	7	7	7	7	7	7	7	7	7	7	7	7	7	7	7	7	7	7	7	7	7	7	7	7	7	6	6	6	6	6	6	7	7	6	7	8	7	6	6	6	6	6	6	6	6	6	6	6	6	6	6	6	6	6	6	6	6	6	6	6	6	6	6	6	6	6	6	5	4	2	1	1	1	2	2	1	1	1	1	1	1	2	5	7	7	7	7	6	5	5	6	6	6	6	7	8	9	10	13	12	10	9	8	8	7	6	6	6	5	5	4	4	3	2	2	1	0	0	0	0	0	0	0	0	0	0	0	0	0	0	0	0	0	0	0	0	0	0	0	0	0	0	0	0	0	0	0	0	0	0	0	0	0	0	0	0	0	0	0	0	0	0	0	0	0	0	0	0	0	0	0	0	0	0	0	0	0	0	0	0	0	0	0	0	0	0	0	0	0	0	0	0	0	0	0	0	0	0	0	0	0	0	0	0	0	0	0	0	0	0	0	0	0	0	0	0	0	0	0	0	0	0	0
51	51	51	50	50	50	50	50	47	45	44	45	47	48	47	47	47	47	47	46	47	49	51	52	53	55	56	60	63	66	69	72	76	79	82	86	90	93	94	94	94	91	89	86	84	83	82	81	80	80	79	80	80	81	82	84	85	85	85	85	85	85	86	89	93	95	96	97	98	99	99	98	97	96	95	93	91	90	90	89	89	89	89	89	89	89	88	88	89	89	89	90	90	91	90	90	90	90	90	90	91	91	93	94	94	94	95	95	95	97	98	98	99	100	100	101	102	103	104	105	107	108	109	110	113	114	115	115	115	116	116	116	116	117	117	117	117	116	116	115	115	115	115	115	115	116	120	124	128	131	134	135	137	138	139	140	141	142	143	143	144	144	145	146	147	148	149	149	150	150	150	150	150	151	152	153	154	156	160	163	166	167	169	170	172	173	175	176	177	177	178	179	180	181	182	183	185	187	189	191	194	196	198	200	202	205	207	209	211	214	215	216	217	217	218	217	216	216	214	211	207	205	203	202	201	200	199	198	197	196	196	195	195	194	193	193	192	192	191	190	189	189	188	188	188	188	188	188	187	187	187	186	186	186	185	185	185	185	185	186	186	186	187	188	188	189	190	190	190	191	191	191	191	191	190	189	188	187	186	185	183	181	179	178	176	175	174	173	172	172	172	172	172	172	172	172	172	172	173	173	174	174	175	175	175	175	175	175	175	175	175	174	172	169	167	166	165	163	157	153	152	153	153	154	153	152	150	148	147	145	144	143	142	141	140	140	139	140	140	140	141	142	144	145	147	148	150	152	153	154	155	155	155	154	153	152	151	150	149	148	148	147	146	144	143	141	139	138	137	136	135	133	131	129	127	125	123	121	119	117	116	115	113	111	109	107	104	101	98	94	90	86	84	83	82	81	81	82	82	83	84	84	85	86	88	89	90	94	99	104	106	107	108	109	110	112	114	116	118	119	120	121	122	123	124	124	124	123	122	121	120	119	118	117	116	115	114	114	113	113	113	114	115	116	117	118	119	120	121	122	123	123	124	125	125	126	126	126	126	127	127	127	127	127	128	128	128	129	129	130	130	131	131	131	132	132	131	130	129	128	127	126	124	123	122	122	121	120	120	120	120	120	120	120	120	120	120	120	120	119	119	118	118	117	116	116	115	114	113	112	111	110	109	108	107	106	106	105	105	104	104	104	105	105	106	107	108	109	109	110	110	111	112	113	114	116	118	119	121	122	123	125	126	128	129	130	130	131	132	133	134	135	136	137	138	139	139	139	139	139	139	139	139	138	137	136	135	135	135	134	134	133	131	129	127	125	123	121	120	118	117	116	115	114	112	111	109	108	107	105	104	103	102	100	99	97	95	93	91	90	88	87	86	85	84	83	82	82	81	80	79	79	78	78	78	78	78	78	78	78	78	78	78	78	78	78	78	78	78	77	77	77	77	77	77	77	78	78	78	77	77	77	76	75	74	74	73	73	73	74	74	74	75	76	76	77	77	78	78	78	77	77	77	77	77	77	76	74	73	70	68	66	64	63	63	62	62	62	62	61	61	61	59	58	55	51	46	41	37	33	29	26	23	21	19	17	15	14	12	11	9	9	8	8	8	7	8	8	8	8	8	8	8	8	8	7	7	7	7	7	7	7	7	7	7	7	7	8	8	8	8	8	8	9	9	9	9	9	9	8	8	8	8	7	7	7	6	6	6	6	6	6	6	7	7	7	7	8	8	8	7	7	7	7	7	7	7	7	7	7	7	7	7	7	7	7	7	7	7	7	7	7	7	7	7	7	7	7	7	7	7	7	7	7	6	6	6	6	6	6	6	6	7	8	8	6	6	6	6	6	6	6	6	6	6	6	6	6	6	6	6	6	6	6	6	6	6	6	6	6	6	6	6	5	4	3	2	1	1	1	1	1	1	1	0	0	0	1	1	1	4	6	7	7	7	6	5	5	5	5	5	7	8	9	8	8	10	10	8	7	7	6	6	5	5	4	4	3	3	3	3	2	2	1	0	0	0	0	0	0	0	0	0	0	0	0	0	0	0	0	0	0	0	0	0	0	0	0	0	0	0	0	0	0	0	0	0	0	0	0	0	0	0	0	0	0	0	0	0	0	0	0	0	0	0	0	0	0	0	0	0	0	0	0	0	0	0	0	0	0	0	0	0	0	0	0	0	0	0	0	0	0	0	0	0	0	0	0	0	0	0	0	0	0	0	0	0	0	0	0	0	0	0	0	0	0	0	0	0	0	0
51	51	50	50	49	50	50	49	48	45	43	44	47	47	47	46	46	46	47	47	48	49	51	53	54	55	56	59	63	66	69	72	75	79	82	85	88	91	92	92	90	87	85	83	82	81	80	79	79	79	79	79	79	79	80	81	83	85	85	85	85	85	87	90	93	95	96	97	98	98	98	97	96	95	94	91	89	88	88	88	88	88	88	88	88	87	88	88	88	88	89	89	90	90	90	90	90	90	90	90	90	91	92	94	94	94	95	95	95	96	97	98	99	100	100	101	102	103	104	105	106	108	109	110	112	114	115	114	115	115	115	116	116	116	117	117	116	116	115	115	115	115	115	115	115	115	117	121	126	129	131	132	134	135	137	138	139	139	140	140	141	141	142	143	144	145	146	147	148	148	148	148	149	150	151	152	154	155	158	161	164	166	167	168	170	171	173	174	175	176	177	178	179	180	181	182	184	185	188	191	194	196	198	200	202	204	206	208	210	213	215	216	217	217	218	217	217	216	214	210	206	204	203	201	200	198	197	196	195	195	194	193	193	192	191	190	189	189	188	187	186	185	185	185	185	185	185	185	184	184	184	184	183	183	183	183	183	183	183	184	184	185	185	186	186	187	188	188	189	189	189	190	190	189	189	188	187	186	184	182	180	177	175	174	173	172	171	170	170	170	170	170	170	170	170	170	171	171	171	172	173	173	173	174	174	175	175	175	175	175	175	174	172	170	168	166	165	160	154	152	155	157	157	157	155	154	152	150	149	147	146	144	143	143	142	141	141	141	142	142	143	144	145	147	148	149	151	153	154	155	156	156	156	156	156	155	153	152	151	150	149	148	146	145	144	142	140	139	138	136	135	132	130	127	125	123	121	119	117	116	114	113	111	109	107	105	103	99	96	92	88	85	84	83	82	81	81	81	82	82	83	84	84	85	87	88	89	93	98	102	104	105	106	108	109	111	113	115	117	118	119	119	120	120	121	121	121	120	119	118	117	117	116	115	114	113	112	111	111	111	111	112	113	114	115	116	117	118	119	120	121	121	122	122	123	123	124	124	124	125	125	125	125	126	126	126	127	127	127	128	129	129	129	130	130	130	129	128	127	126	125	124	123	122	121	120	119	119	119	118	118	118	118	118	118	118	118	118	117	117	117	116	116	115	114	114	113	112	111	110	109	108	107	107	106	105	104	104	103	103	103	103	104	105	106	106	107	107	108	108	108	109	110	112	113	115	116	118	119	120	122	123	124	126	127	128	128	129	129	130	131	133	134	135	136	137	137	138	138	138	138	138	138	137	136	136	135	134	134	134	133	132	130	128	126	124	122	120	118	117	116	115	114	112	111	109	108	106	105	104	103	101	100	99	97	95	93	91	89	88	86	85	84	83	82	82	81	81	80	80	79	79	78	78	78	78	78	78	78	78	77	77	77	78	78	78	78	78	78	77	77	77	77	77	77	78	78	78	78	77	77	76	76	75	74	73	73	73	73	73	74	74	75	75	76	77	77	78	78	78	78	78	78	78	77	77	76	74	72	70	68	66	65	64	63	62	62	62	62	62	62	61	61	59	57	54	49	44	39	35	31	27	24	21	19	17	15	13	12	10	9	8	8	7	7	7	7	7	8	8	8	8	8	8	8	7	7	7	7	7	7	7	7	7	7	7	7	7	7	8	8	8	8	9	9	9	9	9	9	8	8	8	8	7	7	7	6	6	6	6	6	6	6	7	7	7	8	8	8	8	7	7	7	7	7	7	7	7	7	7	7	7	7	7	7	7	7	7	7	7	6	7	7	7	7	7	6	6	7	7	7	6	6	6	6	6	6	7	7	6	6	5	6	7	7	6	6	6	6	6	6	6	6	6	6	6	6	6	6	6	6	6	6	6	6	6	6	6	6	6	6	6	5	4	3	2	1	1	1	1	1	1	0	0	0	0	0	1	1	1	2	5	7	7	7	7	6	5	4	4	5	8	10	9	6	5	7	7	7	6	6	6	5	5	4	4	3	3	3	3	2	2	2	1	0	0	0	0	0	0	0	0	0	0	0	0	0	0	0	0	0	0	0	0	0	0	0	0	0	0	0	0	0	0	0	0	0	0	0	0	0	0	0	0	0	0	0	0	0	0	0	0	0	0	0	0	0	0	0	0	0	0	0	0	0	0	0	0	0	0	0	0	0	0	0	0	0	0	0	0	0	0	0	0	0	0	0	0	0	0	0	0	0	0	0	0	0	0	0	0	0	0	0	0	0	0	0	0	0	0	0
51	50	50	49	49	49	49	49	48	46	43	43	46	47	47	46	46	48	49	49	49	51	52	53	54	54	55	58	63	66	69	72	75	78	81	84	87	88	88	88	86	84	82	80	80	79	79	79	79	79	79	79	80	79	79	79	81	83	85	85	85	85	87	90	93	95	96	96	97	97	97	96	95	94	93	89	87	86	86	87	87	87	87	87	87	87	87	87	88	88	88	88	89	90	90	90	90	90	90	90	90	90	92	93	94	94	94	95	95	96	97	98	99	100	100	101	102	103	103	104	105	107	109	110	112	114	114	114	114	115	115	115	116	116	116	116	116	116	115	115	115	115	115	115	115	115	115	118	123	126	127	129	130	132	134	135	136	137	137	137	138	138	139	140	141	143	144	144	145	146	147	147	148	149	151	152	153	155	157	160	162	164	165	166	168	169	171	172	173	174	175	176	177	178	179	181	182	184	186	189	192	195	197	199	201	203	205	207	209	212	214	216	216	217	218	217	217	216	213	209	205	203	202	200	199	197	196	195	194	193	193	192	191	190	189	188	187	186	185	184	184	183	182	182	182	182	182	182	182	182	182	181	181	181	181	181	181	181	182	182	183	183	183	184	184	185	186	186	187	187	188	188	188	187	187	187	186	184	182	179	176	174	172	171	170	169	168	168	168	168	168	168	168	168	168	169	169	169	170	171	171	171	171	172	172	173	173	173	173	173	173	172	171	170	168	166	163	156	152	154	158	161	161	159	157	155	154	152	151	150	148	147	146	145	144	143	143	143	143	144	144	146	147	148	149	151	153	154	156	157	157	158	157	157	157	156	155	153	152	151	150	148	147	146	144	142	141	139	137	135	133	131	128	126	124	122	120	118	116	114	112	111	109	107	106	103	101	98	94	90	86	84	83	82	81	80	80	81	81	82	83	83	84	85	86	87	89	92	96	100	102	103	104	106	107	109	111	113	115	116	117	117	118	118	118	118	118	118	117	116	115	114	113	112	111	111	110	109	108	108	109	110	110	111	112	114	115	116	117	118	118	119	120	120	121	121	122	122	122	122	122	123	123	123	124	124	125	125	126	126	127	127	127	128	128	127	127	126	125	124	123	121	121	120	119	118	117	117	117	116	116	116	116	116	116	116	116	116	115	115	115	114	114	113	113	112	111	110	109	108	108	107	106	105	104	104	103	103	103	102	102	102	103	104	105	105	106	106	106	106	107	107	108	110	112	113	115	116	118	119	120	121	123	124	125	126	127	127	127	128	129	131	133	134	135	135	136	136	137	137	137	138	138	137	136	135	135	134	133	133	132	131	129	127	125	123	121	119	118	116	115	114	112	111	110	108	106	105	104	102	101	100	98	97	95	94	92	89	87	85	84	82	81	81	80	80	80	80	79	79	78	78	78	78	78	77	77	77	77	77	77	77	77	77	77	77	77	77	77	77	77	77	77	77	78	78	78	78	78	78	77	76	76	75	74	73	72	72	72	73	73	73	74	75	76	77	78	78	79	79	79	79	78	78	78	77	75	74	72	70	68	66	65	63	63	62	62	62	62	62	62	62	61	61	59	56	51	46	41	36	32	28	25	21	19	16	14	13	11	9	8	7	7	7	7	7	7	7	8	8	8	8	8	8	7	7	7	7	7	7	7	7	7	7	7	7	7	7	7	7	8	8	8	8	9	9	9	9	9	8	8	8	7	7	7	6	6	6	6	6	6	6	6	7	7	7	8	8	8	8	7	7	7	7	7	7	7	7	6	6	6	7	7	7	7	7	7	7	7	7	7	7	7	7	8	8	7	6	6	7	7	6	6	6	6	6	7	7	7	6	6	6	6	6	6	6	6	6	6	6	6	6	6	6	6	6	6	6	6	6	6	6	6	6	6	6	6	6	6	6	5	5	4	3	2	2	1	1	1	1	1	0	0	1	0	0	0	0	1	1	2	5	6	7	7	7	7	6	5	6	8	9	8	7	6	6	6	6	6	7	6	6	6	5	4	3	3	3	3	3	2	2	1	1	0	0	0	0	0	0	0	0	0	0	0	0	0	0	0	0	0	0	0	0	0	0	0	0	0	0	0	0	0	0	0	0	0	0	0	0	0	0	0	0	0	0	0	0	0	0	0	0	0	0	0	0	0	0	0	0	0	0	0	0	0	0	0	0	0	0	0	0	0	0	0	0	0	0	0	0	0	0	0	0	0	0	0	0	0	0	0	0	0	0	0	0	0	0	0	0	0	0	0	0	0	0	0	0	0	0	0
51	50	50	50	49	49	49	49	49	46	43	42	45	47	46	45	46	49	50	50	50	52	52	53	53	54	55	57	62	66	69	71	74	77	80	82	84	85	85	84	82	80	79	78	77	77	78	79	79	79	79	79	80	80	80	79	79	81	83	85	85	85	87	90	93	94	95	95	96	96	96	95	95	94	92	88	86	85	85	86	86	86	87	87	87	87	87	87	87	87	87	87	88	89	89	90	90	89	90	90	90	90	91	92	93	94	94	95	95	96	97	99	99	100	101	101	102	103	103	104	105	107	109	110	112	113	114	114	114	114	115	115	115	116	116	116	116	116	115	115	115	115	115	115	115	114	115	116	119	122	124	126	127	128	130	132	133	134	134	134	135	135	136	137	138	139	141	142	143	144	145	146	147	149	150	151	153	154	156	158	161	162	164	165	166	167	169	170	171	173	174	175	176	177	178	180	181	183	184	187	190	193	195	197	199	201	203	206	208	210	213	215	216	217	218	218	217	215	212	208	205	203	201	200	198	197	195	194	193	192	191	190	190	188	187	186	185	184	183	183	182	181	180	180	180	180	180	180	180	180	179	179	179	179	179	179	179	180	180	181	181	181	182	182	183	183	184	184	185	185	186	186	186	186	185	185	184	182	180	177	174	172	170	169	168	167	166	166	166	166	166	166	166	166	167	167	168	168	169	169	170	170	169	169	170	170	170	170	170	170	170	170	169	168	167	165	160	155	153	157	162	164	163	161	159	157	156	155	153	152	151	149	148	147	146	145	145	145	145	146	146	148	149	150	151	152	154	155	157	158	159	159	159	158	158	157	156	154	153	152	150	149	147	146	144	142	140	137	135	133	131	129	127	124	122	120	118	116	114	112	111	109	107	106	104	101	99	97	93	88	85	84	83	82	81	80	80	80	81	82	82	83	84	85	86	87	89	91	95	98	100	101	103	104	105	106	108	110	112	113	114	115	115	115	116	116	115	115	114	113	112	111	111	110	109	108	108	107	107	107	107	107	108	109	110	111	112	113	114	115	116	117	117	118	118	119	119	119	120	120	120	120	121	121	122	122	122	123	123	124	124	125	125	125	125	125	125	124	123	122	121	119	118	118	117	116	116	115	115	115	115	114	114	114	114	114	114	114	113	113	113	112	112	111	111	110	109	108	107	107	106	105	105	104	103	103	102	102	102	102	102	102	102	103	104	104	105	105	105	105	105	106	107	108	110	112	114	115	116	117	119	120	121	123	124	125	125	126	126	127	128	130	132	133	134	134	135	135	136	136	137	137	138	137	137	135	134	133	133	132	131	129	128	126	124	122	120	118	117	115	114	113	111	110	108	107	105	104	102	101	100	98	97	95	94	92	90	88	86	84	82	80	80	79	79	78	78	78	78	78	77	77	77	77	76	76	76	76	76	76	76	76	76	76	76	76	76	76	76	76	76	77	77	77	78	78	78	79	78	78	77	77	76	75	74	73	72	72	72	72	72	73	73	74	75	76	78	79	79	79	79	79	79	79	78	77	75	73	72	70	68	66	65	63	62	62	62	62	62	62	62	62	61	61	59	56	52	47	42	38	33	30	26	22	19	16	14	12	11	9	8	7	6	6	6	7	7	7	7	8	8	8	8	8	7	7	7	7	7	7	7	7	7	7	7	7	7	7	7	7	7	8	8	8	8	9	9	9	9	8	8	8	7	7	7	6	6	6	6	6	6	6	6	7	7	7	8	8	8	8	7	7	7	7	7	7	7	6	6	6	6	7	7	7	7	7	7	7	7	7	7	8	8	8	9	10	9	7	6	6	7	7	6	6	6	7	7	7	7	7	7	7	7	7	6	6	6	6	6	6	6	6	6	6	6	6	6	6	6	6	6	6	6	6	6	6	6	6	6	5	4	4	3	3	3	2	1	0	0	0	0	0	0	1	1	0	0	1	4	2	4	6	7	7	7	7	7	7	8	9	9	8	6	5	6	6	5	4	5	6	6	6	5	5	4	3	3	2	2	2	2	2	1	1	0	0	0	0	0	0	0	0	0	0	0	0	0	0	0	0	0	0	0	0	0	0	0	0	0	0	0	0	0	0	0	0	0	0	0	0	0	0	0	0	0	0	0	0	0	0	0	0	0	0	0	0	0	0	0	0	0	0	0	0	0	0	0	0	0	0	0	0	0	0	0	0	0	0	0	0	0	0	0	0	0	0	0	0	0	0	0	0	0	0	0	0	0	0	0	0	0	0	0	0	0	0	0	0	0	0	0
51	51	50	50	50	49	49	49	48	46	44	42	44	46	46	45	46	49	50	50	51	51	52	52	53	54	54	56	61	66	69	71	73	76	78	80	81	81	80	79	78	77	76	75	75	76	77	79	79	79	79	79	80	80	80	80	79	79	81	84	85	85	87	89	92	94	95	95	96	96	95	95	94	93	91	88	85	85	85	85	85	86	86	86	86	86	86	86	86	86	87	87	87	88	89	89	89	89	89	89	90	90	90	91	92	93	94	95	95	96	97	99	100	101	101	101	102	103	104	104	104	106	108	110	111	112	113	114	114	114	114	114	115	115	115	116	116	115	115	115	114	114	114	114	114	114	114	115	117	120	122	123	124	125	127	128	130	131	132	132	132	133	134	135	136	137	139	140	141	143	144	145	147	148	150	151	153	154	156	157	159	161	162	163	164	165	167	168	170	171	172	173	174	175	177	178	179	181	183	185	187	190	193	195	197	199	202	204	206	209	212	215	216	217	218	218	217	215	212	207	204	203	201	199	198	196	195	193	192	191	190	189	188	187	186	184	183	183	182	181	180	179	178	178	177	177	177	177	177	177	177	177	177	177	177	177	178	178	179	179	179	180	180	180	181	181	182	182	183	183	184	184	184	184	184	183	182	180	178	175	172	170	168	166	165	165	164	164	164	164	164	164	164	164	165	165	166	167	168	168	168	168	168	167	167	166	166	167	167	167	167	168	167	166	166	164	158	154	154	160	165	165	164	163	161	160	158	157	156	155	153	152	151	149	148	148	148	148	148	148	149	150	151	151	152	154	155	157	158	159	160	160	160	159	159	158	156	155	154	152	150	149	147	145	143	140	137	135	133	131	129	127	125	123	121	118	116	114	113	111	109	108	106	104	102	100	98	95	91	87	84	83	82	81	80	79	79	80	81	82	82	83	84	85	85	86	88	91	94	96	98	99	101	102	103	104	105	107	108	110	111	112	112	113	113	113	113	112	111	111	110	109	108	108	107	106	106	105	105	105	105	105	106	107	108	109	110	111	112	113	113	114	115	115	116	117	117	117	117	118	118	118	118	119	119	120	120	121	121	122	122	123	123	123	123	123	122	122	121	119	118	117	116	116	115	114	114	113	113	113	113	112	112	112	112	112	112	111	111	111	111	110	110	109	109	108	107	107	106	105	105	104	103	103	102	102	101	101	101	101	101	101	102	102	103	103	104	104	104	104	104	105	106	107	109	111	113	114	115	116	117	119	120	121	123	124	124	125	126	127	128	130	131	133	133	133	134	134	134	135	136	137	138	138	137	135	134	133	132	131	129	128	126	125	123	121	119	117	116	115	113	112	111	109	107	106	104	103	101	100	99	97	96	94	92	91	88	86	84	82	80	79	78	77	77	77	77	77	77	76	76	75	75	75	75	74	74	74	74	74	74	74	74	74	75	75	75	75	75	75	76	76	76	77	78	78	79	79	79	78	78	77	76	75	74	73	72	72	71	71	71	72	72	73	74	76	77	78	79	79	79	79	79	79	78	77	75	73	72	70	68	66	64	63	62	62	61	61	61	61	61	61	61	60	59	56	52	48	43	39	35	31	26	22	19	16	14	12	11	9	7	6	6	6	6	7	7	7	7	8	8	8	8	7	7	7	7	7	7	7	6	6	6	6	6	6	6	7	7	7	7	7	8	8	8	8	8	8	8	8	8	8	7	7	6	6	6	6	6	6	6	6	7	7	7	7	8	8	8	8	7	7	7	7	7	7	7	6	6	6	6	7	7	7	7	7	7	8	8	8	8	8	9	9	10	10	9	7	6	6	6	7	7	6	6	6	7	7	7	8	9	8	7	7	6	6	6	6	6	6	6	7	6	6	6	6	6	6	6	6	6	6	6	6	6	6	6	6	6	5	4	3	3	3	3	3	1	0	0	0	0	0	0	0	0	0	0	3	7	4	5	7	7	7	7	6	7	8	9	9	9	8	6	5	5	6	6	5	4	5	5	5	5	4	4	4	3	2	2	2	2	1	1	0	0	0	0	0	0	0	0	0	0	0	0	0	0	0	0	0	0	0	0	0	0	0	0	0	0	0	0	0	0	0	0	0	0	0	0	0	0	0	0	0	0	0	0	0	0	0	0	0	0	0	0	0	0	0	0	0	0	0	0	0	0	0	0	0	0	0	0	0	0	0	0	0	0	0	0	0	0	0	0	0	0	0	0	0	0	0	0	0	0	0	0	0	0	0	0	0	0	0	0	0	0	0	0	0	0	0	0
51	51	50	50	50	50	49	49	48	46	44	42	44	46	46	45	47	49	50	51	51	51	51	51	52	53	54	56	61	65	68	70	72	74	76	77	78	77	76	75	75	74	74	74	75	75	77	79	79	79	79	80	80	80	80	80	80	79	80	82	85	86	87	89	91	93	94	95	95	95	95	94	94	92	90	87	85	85	85	85	85	85	85	86	86	85	85	85	86	86	86	86	86	87	87	88	89	88	88	88	89	90	90	91	91	92	94	95	95	96	97	99	101	101	101	101	102	103	103	104	104	105	107	108	110	111	112	113	113	113	113	114	114	115	115	115	115	115	114	114	114	114	114	114	114	114	114	114	116	117	119	121	122	123	124	125	127	128	129	130	131	132	133	134	135	137	138	140	142	143	144	145	147	149	150	152	153	154	155	157	158	159	160	162	163	164	165	166	168	170	171	172	173	174	175	176	178	179	181	183	185	188	191	193	196	198	200	202	205	208	212	215	216	217	218	218	217	214	211	206	204	202	201	199	197	196	195	193	192	191	190	188	187	186	185	183	182	182	181	180	179	177	176	176	175	175	175	175	175	175	175	175	175	175	175	175	176	177	177	178	178	178	178	179	179	179	180	180	181	181	182	182	182	182	182	181	180	179	177	174	171	168	166	165	164	163	163	163	162	162	162	162	163	163	163	164	165	166	167	167	167	167	166	165	165	164	164	164	163	164	164	165	165	165	164	162	157	153	157	163	165	165	165	164	163	162	160	159	158	157	156	154	153	152	151	151	150	150	150	151	151	152	153	153	154	155	157	158	160	161	161	162	161	160	159	158	157	156	154	152	150	148	146	144	141	138	135	133	132	129	127	125	123	121	119	117	115	113	112	110	108	106	104	102	100	98	96	93	89	85	84	83	82	81	79	78	78	79	80	81	82	83	84	84	85	86	88	91	93	94	96	97	99	100	100	101	102	103	105	106	108	109	110	111	111	111	111	110	109	108	107	107	106	106	105	105	104	104	103	103	103	104	104	105	106	107	108	109	109	110	111	112	113	113	114	114	114	115	115	115	115	116	116	116	117	117	118	118	119	119	120	120	120	121	120	120	120	119	118	117	116	115	114	114	113	112	112	111	111	111	111	110	110	110	110	110	110	109	109	109	109	108	108	107	107	106	106	105	104	104	103	102	102	101	101	101	100	100	100	100	100	101	101	101	102	102	103	103	103	104	104	104	105	107	109	111	112	114	115	116	117	118	119	121	122	123	124	125	126	127	129	130	132	133	133	133	132	132	133	134	135	136	137	137	137	135	133	132	131	129	128	127	125	123	121	120	118	117	115	114	112	111	110	108	107	105	103	102	100	99	97	96	94	93	91	89	87	85	83	81	79	78	77	76	76	76	76	75	75	75	74	73	73	72	72	72	72	72	72	72	72	72	72	72	73	73	73	73	74	74	74	75	76	77	77	78	79	79	79	79	78	77	76	74	73	72	71	71	71	71	70	71	71	72	73	74	75	77	77	78	78	78	78	78	78	77	75	73	72	70	68	66	64	63	62	61	61	61	61	61	61	60	60	59	57	55	51	47	43	40	36	32	28	23	20	17	15	13	11	9	7	6	6	6	6	7	7	7	7	8	8	8	8	7	7	7	7	7	7	6	6	6	6	6	6	6	6	6	6	7	7	7	7	8	8	8	8	8	8	8	8	7	7	7	6	6	6	6	6	6	6	6	7	7	7	8	8	8	8	8	7	7	7	7	7	7	7	6	6	6	6	7	7	7	7	7	8	8	8	9	9	9	9	9	8	7	7	7	7	6	6	7	7	6	6	6	6	7	8	9	10	9	7	7	6	7	7	6	6	6	6	7	6	6	6	6	6	6	6	6	6	6	6	6	6	6	6	6	5	5	5	4	4	3	4	3	1	0	0	0	0	0	1	0	0	0	0	2	4	3	5	7	7	6	7	7	8	9	9	8	8	9	8	6	5	6	6	5	4	4	4	4	5	4	3	3	3	2	2	2	2	1	1	0	0	0	0	0	0	0	0	0	0	0	0	0	0	0	0	0	0	0	0	0	0	0	0	0	0	0	0	0	0	0	0	0	0	0	0	0	0	0	0	0	0	0	0	0	0	0	0	0	0	0	0	0	0	0	0	0	0	0	0	0	0	0	0	0	0	0	0	0	0	0	0	0	0	0	0	0	0	0	0	0	0	0	0	0	0	0	0	0	0	0	0	0	0	0	0	0	0	0	0	0	0	0	0	0	0	0	0
51	51	50	50	50	50	49	49	48	46	45	44	45	46	46	45	47	49	50	50	50	50	50	50	51	52	54	57	61	65	67	69	70	72	74	74	74	74	73	73	73	73	73	74	74	74	76	78	79	79	79	79	79	79	79	80	80	79	79	80	84	86	87	89	90	92	93	94	94	94	94	94	92	91	88	86	84	84	84	84	84	85	85	85	85	85	85	85	85	85	85	85	85	86	87	87	88	88	87	88	88	89	90	90	91	92	93	94	95	96	98	100	101	101	101	101	102	102	103	103	104	104	105	107	108	109	110	111	112	112	113	113	113	114	114	114	114	114	114	113	113	113	113	113	113	113	114	114	115	117	118	119	121	122	123	124	125	127	128	129	131	132	133	134	136	138	140	141	143	144	144	146	147	149	151	152	153	154	156	157	159	160	161	161	162	163	164	165	167	168	170	171	172	173	174	175	176	178	180	182	184	186	189	192	194	197	199	202	204	208	212	215	216	217	218	217	216	214	210	206	204	202	201	199	197	196	195	193	192	191	190	188	187	186	184	183	182	181	179	178	177	176	175	174	174	173	173	174	174	174	173	173	174	174	173	174	174	175	175	176	176	176	177	177	177	178	178	178	179	179	180	180	180	181	181	180	179	178	175	173	170	167	165	164	163	162	162	161	161	161	160	160	161	161	161	162	163	164	165	166	166	165	164	164	163	163	162	161	161	160	160	161	161	161	161	159	155	154	160	165	165	165	165	165	165	164	162	161	160	159	158	156	155	154	154	153	153	153	153	153	153	154	155	155	156	157	159	160	161	162	163	163	162	161	160	159	157	156	154	152	150	148	145	143	139	136	133	132	130	128	126	124	122	120	117	115	114	112	110	109	107	105	103	100	99	96	93	90	86	84	83	82	81	80	79	78	77	78	80	81	82	83	84	84	85	86	88	90	92	93	94	95	97	98	98	99	100	101	102	103	105	106	107	108	109	109	108	107	106	106	105	104	104	104	103	103	103	102	102	102	102	102	103	103	104	104	105	106	107	108	109	109	110	111	111	112	112	112	113	113	113	113	114	114	115	115	116	116	117	117	117	118	118	118	118	118	117	117	116	115	114	113	112	111	111	110	110	110	109	109	109	108	108	108	108	108	107	107	107	107	107	106	106	105	105	105	104	103	103	102	101	101	101	100	100	100	99	99	99	99	99	100	100	100	101	101	102	102	103	103	104	104	106	107	109	111	112	113	115	116	117	118	119	121	122	123	124	125	126	127	129	131	132	132	132	132	131	131	132	132	134	135	136	136	136	134	132	131	129	128	127	125	124	122	120	119	117	116	114	113	111	110	109	107	106	104	102	101	99	98	96	95	93	92	90	88	86	84	82	81	79	77	76	76	75	75	74	74	74	73	72	71	70	70	69	69	69	69	70	70	70	70	70	70	71	71	71	71	72	72	73	74	75	76	77	78	79	79	79	79	78	77	75	74	73	72	71	70	70	69	69	69	70	70	71	72	73	74	75	75	76	77	77	77	77	76	75	73	72	70	68	66	64	63	62	62	61	61	61	61	60	60	59	58	56	53	50	47	43	40	36	33	28	24	21	18	16	14	12	10	8	7	7	7	7	7	7	7	7	8	8	8	8	7	7	7	7	7	6	6	6	6	6	6	6	6	6	6	6	6	7	7	7	7	7	8	8	8	8	8	7	7	7	6	6	6	6	6	6	6	6	6	7	7	7	8	8	8	8	8	7	7	7	7	7	7	7	6	6	6	6	7	7	7	7	7	8	8	9	9	9	9	8	8	7	6	6	7	7	6	6	7	6	6	6	6	7	7	8	9	9	8	7	7	7	7	7	7	6	6	6	6	6	6	6	6	6	6	6	6	6	6	6	6	6	6	6	5	5	5	5	4	2	2	3	3	1	0	0	0	0	0	0	0	0	0	1	2	3	4	6	7	7	7	8	9	9	9	8	7	8	8	8	7	6	5	5	5	4	3	3	3	4	4	3	3	3	2	2	2	1	1	1	0	0	0	0	0	0	0	0	0	0	0	0	0	0	0	0	0	0	0	0	0	0	0	0	0	0	0	0	0	0	0	0	0	0	0	0	0	0	0	0	0	0	0	0	0	0	0	0	0	0	0	0	0	0	0	0	0	0	0	0	0	0	0	0	0	0	0	0	0	0	0	0	0	0	0	0	0	0	0	0	0	0	0	0	0	0	0	0	0	0	0	0	0	0	0	0	0	0	0	0	0	0	0	0	0	0	0	0
51	51	51	50	50	50	50	49	48	46	45	45	45	46	46	46	47	48	48	48	49	49	49	49	50	50	53	58	62	65	66	66	68	69	71	71	71	71	71	72	72	72	72	73	73	74	75	77	79	79	79	79	79	79	79	80	80	80	79	80	84	87	88	89	89	90	91	92	92	93	93	92	90	89	87	85	84	83	83	83	84	84	85	85	85	84	84	84	84	84	84	84	85	85	86	86	87	87	87	87	88	88	89	90	90	91	92	94	95	96	98	100	101	101	101	101	101	102	102	103	103	104	105	105	107	108	109	109	110	111	112	112	113	113	113	113	113	113	113	112	112	112	112	112	113	113	114	114	115	117	118	119	121	122	123	124	126	127	129	130	132	133	134	135	137	139	140	142	144	144	146	147	148	150	152	153	154	155	156	159	160	161	162	163	163	164	164	165	166	168	169	170	171	172	173	174	175	176	179	181	183	186	188	191	193	196	198	201	204	207	211	214	216	217	217	217	216	213	209	206	204	202	201	199	198	196	195	193	192	191	190	188	187	186	184	183	182	181	179	177	176	175	174	173	172	172	172	172	172	172	172	172	172	172	172	172	172	173	173	173	174	174	174	175	175	175	176	176	177	177	178	178	179	179	179	178	178	176	174	171	168	165	164	163	162	161	160	160	159	159	159	159	159	159	159	160	160	161	162	163	163	163	163	162	162	161	161	160	159	159	158	158	158	158	157	157	155	155	163	165	165	165	165	165	165	165	164	163	162	161	160	159	158	157	156	156	156	156	156	156	156	156	157	158	159	160	161	162	163	164	164	164	163	162	161	159	157	155	153	151	149	147	144	141	137	134	132	130	128	126	124	122	120	118	116	114	112	111	109	107	106	103	101	99	97	94	90	86	84	83	82	82	81	80	78	77	77	77	79	80	81	82	84	84	85	86	88	89	91	92	93	94	95	95	96	97	97	98	99	100	102	103	104	105	106	106	105	104	104	103	102	102	102	102	101	101	101	101	101	101	101	101	101	101	102	102	103	104	105	106	107	107	108	108	109	109	110	110	110	111	111	111	112	112	113	113	113	114	114	115	115	115	116	115	115	115	115	114	113	113	112	111	110	109	109	108	108	108	107	107	107	106	106	106	106	106	105	105	105	105	104	104	104	103	103	103	102	102	101	100	100	100	99	99	99	98	98	98	98	98	98	99	99	99	100	100	101	101	102	103	104	105	106	107	109	111	112	114	115	116	117	118	120	121	122	123	124	125	126	127	129	130	132	132	131	131	130	130	130	131	132	133	134	134	134	133	131	130	128	127	125	124	122	120	119	118	116	115	113	112	111	109	108	106	105	103	101	100	98	96	95	93	92	90	89	87	86	84	82	80	79	77	76	75	75	74	73	73	72	71	70	69	67	67	66	66	66	67	67	67	68	68	68	68	68	68	69	69	70	71	72	73	74	75	77	78	78	79	79	78	77	76	75	74	72	71	70	69	69	68	68	68	68	68	69	69	70	71	71	72	74	75	76	76	76	75	74	73	72	70	68	66	65	63	62	62	62	61	61	60	60	59	58	57	55	52	50	46	43	40	37	33	29	25	22	19	17	15	13	11	9	8	7	7	7	7	7	7	8	8	8	8	7	7	7	7	7	7	6	6	6	6	6	6	6	6	6	6	6	6	7	7	7	7	7	7	8	8	8	7	7	7	7	6	6	6	6	5	6	6	6	6	7	7	7	8	8	8	8	7	7	7	7	7	7	7	7	6	6	6	6	7	7	7	7	8	8	8	8	8	8	8	8	7	7	6	6	7	7	7	6	6	6	6	6	8	9	9	8	7	7	7	6	7	7	7	7	7	6	6	6	6	6	6	6	6	6	6	6	6	6	6	6	6	6	6	6	5	5	5	5	2	0	0	1	1	0	0	0	0	0	0	0	0	0	1	2	3	4	6	7	7	7	8	9	9	9	8	7	7	7	7	7	6	6	5	5	4	4	3	3	3	3	3	3	3	2	2	2	1	1	1	0	0	0	0	0	0	0	0	0	0	0	0	0	0	0	0	0	0	0	0	0	0	0	0	0	0	0	0	0	0	0	0	0	0	0	0	0	0	0	0	0	0	0	0	0	0	0	0	0	0	0	0	0	0	0	0	0	0	0	0	0	0	0	0	0	0	0	0	0	0	0	0	0	0	0	0	0	0	0	0	0	0	0	0	0	0	0	0	0	0	0	0	0	0	0	0	0	0	0	0	0	0	0	0	0	0	0	0	0
52	51	51	50	50	50	50	49	48	46	44	44	45	46	46	46	47	48	48	48	48	48	48	48	48	49	53	58	62	64	65	65	66	67	67	67	68	68	69	71	71	71	71	72	73	74	74	76	78	79	79	79	79	79	79	79	80	79	79	80	85	88	89	88	88	89	89	89	90	91	91	90	89	87	86	84	84	83	82	82	83	83	84	84	84	84	84	83	83	83	84	84	84	84	85	85	86	86	87	87	87	88	88	89	90	91	92	94	95	96	97	98	99	101	101	101	101	101	102	102	103	103	104	104	105	106	107	108	109	109	110	111	111	112	112	112	112	112	112	112	112	112	112	112	112	113	114	115	116	117	119	120	121	123	124	125	127	128	130	131	133	134	135	137	138	140	142	143	145	146	147	149	150	151	153	154	155	156	158	160	162	163	164	164	164	165	165	166	167	168	169	170	171	172	173	173	174	176	179	181	183	185	188	190	193	195	198	201	204	207	211	214	216	217	217	217	215	213	209	206	204	202	201	200	198	196	195	193	192	191	190	189	187	186	185	184	182	181	179	177	176	174	173	172	171	170	171	171	171	171	171	171	171	171	171	170	170	171	171	170	170	170	171	171	172	172	173	173	174	175	175	176	177	177	177	177	176	175	173	169	166	164	163	162	161	160	159	159	158	158	157	157	157	157	157	157	157	158	158	158	159	160	161	161	161	160	160	160	159	159	158	158	157	157	157	156	155	158	165	165	165	165	165	165	165	165	165	165	164	163	162	162	161	160	159	159	159	159	159	158	159	159	160	160	161	162	163	164	165	165	165	165	164	162	160	159	157	155	153	150	148	145	143	139	136	133	131	129	127	125	123	121	119	117	115	113	111	109	108	106	104	102	100	97	95	91	87	84	83	82	82	81	80	79	77	76	76	76	77	79	80	82	83	84	84	85	87	88	89	90	91	92	93	93	94	94	95	95	96	97	99	100	101	101	102	102	102	101	101	100	100	100	100	100	100	100	100	100	100	100	99	99	99	99	100	100	101	102	103	104	104	105	106	106	107	107	108	108	108	109	109	109	110	110	111	111	112	112	112	113	113	113	114	113	113	113	113	112	111	111	110	109	108	107	107	106	106	106	105	105	104	104	104	104	104	103	103	103	103	103	102	102	102	102	101	101	101	100	99	99	99	98	98	98	97	97	97	97	97	97	97	97	98	98	99	99	100	101	102	103	104	105	106	108	110	111	113	114	115	117	118	119	120	121	122	123	124	125	126	127	129	130	131	131	130	129	128	128	128	129	130	131	132	133	132	131	130	128	127	125	124	122	121	119	118	116	115	114	112	111	110	108	107	105	103	102	100	98	97	95	94	92	91	89	88	86	85	83	81	80	78	77	76	75	74	74	73	72	71	69	68	66	65	64	63	63	64	64	65	65	65	65	66	66	66	66	66	67	68	69	70	71	73	74	76	77	78	78	78	78	76	75	74	72	71	70	69	68	67	67	66	66	66	66	66	67	67	68	68	69	71	72	73	74	74	74	74	73	71	70	68	66	65	64	63	62	62	62	61	61	60	59	58	56	54	52	49	46	43	40	36	33	29	26	23	20	18	15	13	12	10	9	8	8	8	8	8	8	8	8	8	8	7	7	7	7	7	7	6	6	6	6	6	6	6	6	6	6	6	6	7	7	7	7	7	7	7	7	7	7	7	7	7	6	6	6	6	5	6	6	6	6	7	7	7	7	8	8	8	7	7	7	7	7	7	7	7	7	6	6	6	7	7	7	7	8	8	8	8	8	8	8	8	7	7	7	6	7	7	7	6	6	6	6	7	9	10	10	8	7	7	7	7	7	7	7	7	6	6	6	6	6	6	6	6	6	6	6	6	6	6	6	6	6	6	6	5	5	5	6	5	2	0	0	0	0	0	1	1	0	0	0	0	0	2	3	3	3	5	6	7	8	9	9	9	8	8	7	7	7	7	6	6	6	5	5	5	4	4	3	3	2	2	2	2	3	2	2	2	1	1	1	0	0	0	0	0	0	0	0	0	0	0	0	0	0	0	0	0	0	0	0	0	0	0	0	0	0	0	0	0	0	0	0	0	0	0	0	0	0	0	0	0	0	0	0	0	0	0	0	0	0	0	0	0	0	0	0	0	0	0	0	0	0	0	0	0	0	0	0	0	0	0	0	0	0	0	0	0	0	0	0	0	0	0	0	0	0	0	0	0	0	0	0	0	0	0	0	0	0	0	0	0	0	0	0	0	0	0	0	0
51	51	51	51	50	50	50	49	47	45	43	43	44	46	45	45	47	48	48	48	48	48	48	48	48	48	52	57	61	64	65	65	65	65	65	65	65	66	67	69	70	70	71	72	73	73	74	75	77	78	79	79	79	79	79	79	80	79	79	82	87	89	89	88	88	88	88	88	88	89	89	88	87	86	85	84	83	82	82	82	82	82	83	84	84	83	83	83	82	83	83	83	83	83	84	84	85	86	86	87	87	88	88	89	91	92	93	94	94	95	95	95	96	99	101	101	100	101	101	102	102	102	103	103	104	105	106	106	107	108	109	109	110	111	111	111	111	112	112	112	112	112	112	112	112	113	114	115	116	118	119	121	122	123	124	126	127	129	131	132	134	135	137	138	140	142	143	145	146	148	149	151	152	153	154	156	157	159	161	162	164	165	165	166	166	167	167	168	169	170	171	171	172	172	173	174	175	177	179	181	183	185	188	190	193	196	198	201	204	208	212	215	216	217	217	217	215	212	209	206	204	203	201	200	198	197	195	194	193	192	191	190	188	187	185	184	183	181	179	177	176	174	173	171	170	170	170	170	170	169	169	169	170	170	169	169	169	168	168	167	167	167	167	167	167	168	169	170	171	172	173	174	175	175	176	175	175	174	171	167	164	163	162	161	160	159	158	157	157	156	156	156	155	155	155	155	155	155	155	155	156	158	159	160	160	160	160	160	160	159	159	158	158	157	157	156	155	160	165	165	165	165	165	165	165	165	165	165	165	165	164	164	164	163	162	162	162	162	161	161	162	162	162	163	163	164	165	166	166	165	165	165	164	162	160	158	156	154	152	149	147	144	141	138	134	132	129	127	125	124	122	120	118	116	114	112	110	108	106	104	101	99	97	95	91	87	84	84	84	84	82	81	80	78	76	75	75	75	76	77	78	81	83	84	84	85	85	87	88	89	90	90	91	91	91	92	92	93	94	95	95	96	97	97	97	98	98	98	97	97	97	98	98	98	98	99	99	99	99	98	98	98	97	97	98	98	99	100	101	101	102	103	103	104	105	105	105	106	106	106	107	107	108	108	109	109	109	110	110	111	111	111	111	111	111	111	110	110	109	108	108	107	106	105	105	104	104	103	103	103	102	102	102	102	102	101	101	101	101	101	100	100	100	100	99	99	99	98	98	98	97	97	96	96	96	96	96	96	96	96	96	96	97	97	97	98	99	100	101	103	104	105	107	108	110	112	113	115	116	117	119	120	121	122	123	123	124	125	125	127	128	129	130	129	129	128	127	126	127	127	128	129	130	131	131	130	129	127	125	124	122	121	120	118	117	115	114	113	111	110	109	107	106	104	102	100	99	97	95	94	92	91	89	88	87	85	84	82	81	79	78	77	76	75	74	74	73	71	70	68	66	64	63	62	61	61	61	62	62	63	63	63	63	63	64	64	64	65	66	67	68	70	71	73	74	76	76	77	77	76	75	74	73	71	70	69	68	67	66	66	65	65	65	65	65	65	66	66	66	67	69	70	71	72	73	73	72	72	71	69	68	66	65	64	64	63	63	62	62	61	60	59	58	57	55	52	49	46	43	39	36	32	29	26	23	20	18	16	14	12	11	10	9	9	8	8	8	8	8	8	8	8	7	7	7	7	7	7	6	6	6	6	6	6	6	6	6	6	6	6	7	7	7	7	7	7	7	7	7	7	7	7	6	6	6	6	5	6	6	6	6	6	7	7	7	7	8	8	7	7	7	7	7	7	7	7	7	7	7	7	7	7	7	7	7	8	8	8	8	8	8	8	8	7	7	7	7	7	7	7	6	6	6	6	7	8	9	8	7	7	8	8	7	7	7	7	6	6	6	6	6	6	6	6	7	6	6	6	6	6	6	6	6	6	6	6	5	5	5	6	6	3	0	0	1	1	0	0	1	0	0	0	1	2	3	3	3	3	5	6	8	9	9	9	8	7	7	7	7	7	6	6	5	5	5	5	5	4	3	2	2	2	2	2	2	2	2	2	1	1	1	0	0	0	0	0	0	0	0	0	0	0	0	0	0	0	0	0	0	0	0	0	0	0	0	0	0	0	0	0	0	0	0	0	0	0	0	0	0	0	0	0	0	0	0	0	0	0	0	0	0	0	0	0	0	0	0	0	0	0	0	0	0	0	0	0	0	0	0	0	0	0	0	0	0	0	0	0	0	0	0	0	0	0	0	0	0	0	0	0	0	0	0	0	0	0	0	0	0	0	0	0	0	0	0	0	0	0	0	0	0
51	51	51	51	50	50	50	49	47	45	43	42	44	45	45	45	46	47	47	47	48	48	48	48	48	48	51	57	61	63	65	65	65	64	64	64	64	65	66	68	69	70	71	72	72	73	74	75	76	78	78	78	78	79	79	79	79	79	81	85	88	89	88	88	88	88	88	88	88	88	89	88	87	86	84	83	82	82	81	81	81	81	82	83	83	83	82	82	82	82	82	83	83	83	83	84	85	85	86	86	87	87	88	89	91	91	92	93	94	94	95	95	95	96	99	100	100	100	100	101	101	102	102	102	103	103	104	105	106	106	107	108	108	109	110	110	110	111	111	112	112	112	112	112	113	114	114	115	117	118	120	121	123	124	125	127	128	130	132	133	135	137	138	140	142	144	145	147	148	150	151	153	154	155	157	159	161	162	164	165	166	167	168	168	169	169	169	170	171	172	172	172	173	173	174	175	177	179	181	183	184	186	189	191	193	196	199	202	205	208	212	215	216	217	217	217	215	212	209	207	205	204	202	201	199	198	197	196	195	194	193	191	190	188	186	185	183	181	180	178	176	174	172	171	170	170	170	170	169	168	168	168	168	168	168	167	167	166	165	165	164	164	164	164	164	165	166	167	168	169	170	171	172	173	173	173	173	171	169	166	163	162	161	160	159	158	157	157	156	155	155	154	154	154	154	155	155	155	154	155	155	156	157	159	160	160	161	161	161	161	160	160	159	159	157	156	156	161	165	165	165	165	165	165	165	165	165	165	165	165	165	165	165	165	165	164	164	164	164	164	164	164	164	165	165	166	166	166	166	166	165	165	164	162	160	157	155	153	151	149	146	143	140	137	134	131	128	126	124	123	121	119	117	115	113	111	109	107	104	101	98	95	94	91	87	85	85	86	88	87	84	81	79	77	75	74	74	74	75	75	77	79	81	83	84	84	84	85	86	87	88	88	89	89	89	90	90	91	91	92	92	93	93	93	93	94	94	94	94	94	95	95	96	96	97	97	97	97	97	97	96	96	96	96	96	96	97	98	98	99	100	100	101	102	102	103	103	103	104	104	105	105	105	106	106	107	107	108	108	109	109	109	109	109	109	109	108	108	107	106	105	105	104	103	103	102	102	101	101	101	100	100	100	100	99	99	99	99	99	99	99	98	98	98	98	97	97	97	96	96	96	95	95	95	95	95	94	94	94	94	95	95	95	96	96	97	98	100	101	103	104	106	107	109	111	112	114	115	117	118	120	121	122	123	123	124	124	124	125	126	127	128	128	128	127	126	125	125	125	125	126	127	128	129	129	128	127	126	124	123	121	120	118	117	116	114	113	112	110	109	107	106	104	102	100	99	97	96	94	92	91	89	88	87	85	84	82	81	80	79	78	77	76	75	75	74	73	71	69	67	65	63	61	60	59	59	60	60	61	61	61	62	62	61	61	62	62	63	64	65	66	68	70	71	73	74	75	75	75	75	74	72	71	70	69	68	67	66	65	65	65	64	64	64	64	64	64	65	65	66	67	68	69	70	71	71	71	71	70	69	67	66	65	65	64	64	63	63	62	61	61	60	59	57	55	53	49	46	42	38	35	31	28	25	22	20	18	16	14	13	11	10	10	9	8	8	8	8	8	8	8	8	7	7	7	7	7	7	6	6	6	6	6	6	6	6	6	6	6	6	7	7	7	7	7	7	7	7	7	7	7	7	6	6	6	6	5	6	6	6	6	7	7	7	7	7	8	8	7	7	7	7	7	7	7	7	7	7	7	7	7	7	7	7	8	8	8	8	8	8	8	8	7	7	7	7	7	6	7	7	6	5	5	6	6	7	7	7	7	8	8	8	7	7	7	7	6	6	6	6	6	6	6	7	7	7	7	6	6	6	6	6	6	6	6	6	5	5	5	5	6	4	2	1	2	2	1	1	0	0	0	1	2	3	3	3	3	3	5	7	9	9	8	8	7	7	7	7	7	6	5	5	4	4	4	4	5	4	3	2	2	2	2	1	1	2	2	2	1	1	1	0	0	0	0	0	0	0	0	0	0	0	0	0	0	0	0	0	0	0	0	0	0	0	0	0	0	0	0	0	0	0	0	0	0	0	0	0	0	0	0	0	0	0	0	0	0	0	0	0	0	0	0	0	0	0	0	0	0	0	0	0	0	0	0	0	0	0	0	0	0	0	0	0	0	0	0	0	0	0	0	0	0	0	0	0	0	0	0	0	0	0	0	0	0	0	0	0	0	0	0	0	0	0	0	0	0	0	0	0	0
51	51	51	51	50	50	49	48	46	44	43	42	43	45	45	45	46	46	46	46	46	47	47	48	48	48	50	56	60	62	64	64	64	63	63	63	63	63	64	66	68	70	71	72	73	73	74	75	76	77	78	78	79	79	79	79	79	80	84	88	89	88	88	88	88	88	88	88	88	88	89	88	87	85	83	82	81	81	80	80	80	80	81	82	83	83	82	81	81	81	82	82	83	83	83	83	84	85	85	86	86	87	88	89	90	91	92	93	93	94	95	95	95	95	98	100	100	100	100	100	100	101	101	101	101	101	102	102	103	104	105	106	107	108	108	109	109	110	111	112	112	112	112	112	113	114	115	116	118	119	121	122	123	125	126	128	130	131	133	134	136	138	140	142	144	146	147	149	151	152	153	155	156	158	160	162	164	166	167	168	169	170	170	171	171	171	172	172	173	173	173	174	174	175	176	178	179	181	183	185	186	188	190	192	194	196	199	202	205	209	213	215	216	217	218	217	215	212	210	208	206	205	203	202	201	200	198	198	196	195	194	193	191	189	188	186	184	182	180	178	176	174	172	171	170	170	170	169	168	167	167	167	167	167	166	166	166	165	164	163	162	162	162	163	163	163	164	164	165	166	167	168	169	169	170	170	170	169	167	164	162	160	159	159	158	158	157	156	155	154	154	153	153	153	154	154	154	154	154	155	155	155	156	158	160	161	162	162	162	162	162	161	161	161	160	159	159	162	164	165	165	165	165	165	165	165	165	165	165	165	165	165	165	165	165	165	165	165	165	165	165	165	165	165	166	167	167	167	167	166	166	165	164	162	159	157	154	152	150	148	146	143	140	137	134	130	127	125	123	122	120	118	117	115	112	110	108	105	102	98	95	92	90	87	86	86	87	89	89	89	86	82	79	78	75	74	73	73	74	74	75	76	78	81	82	83	82	83	84	85	86	86	87	87	88	88	88	89	89	89	90	90	90	90	90	90	90	91	91	92	92	93	93	94	95	95	96	96	95	95	95	94	94	94	94	94	95	95	96	97	97	98	99	99	100	100	101	101	101	102	102	103	103	104	104	105	105	106	106	107	107	107	107	107	107	107	106	106	105	104	103	102	102	101	101	100	100	99	99	98	98	98	97	97	97	97	97	97	97	97	97	97	96	96	96	96	96	95	95	95	94	94	94	94	93	93	93	93	93	93	93	94	94	94	95	96	97	99	101	103	105	106	108	109	111	113	115	116	118	119	121	122	123	123	124	124	124	124	124	125	126	126	126	126	125	124	123	123	123	124	124	125	126	127	127	127	126	125	123	122	120	119	117	116	115	113	112	110	109	108	106	104	103	101	99	97	96	94	92	91	89	88	86	85	84	83	81	80	79	78	77	77	76	76	75	74	73	71	69	67	64	62	60	59	58	58	58	59	59	60	60	60	60	59	59	60	60	61	62	63	65	66	68	70	71	72	73	74	74	73	72	70	69	68	67	66	66	65	65	65	64	64	64	64	64	64	64	64	64	65	66	67	68	69	69	69	69	69	68	67	66	66	65	65	65	64	64	63	63	62	61	61	60	58	56	54	50	46	42	38	34	30	27	24	22	19	17	15	14	13	12	11	10	9	8	8	8	8	8	8	8	8	7	7	7	7	7	7	6	6	6	6	6	6	6	6	6	6	6	7	7	7	7	7	7	7	7	7	7	7	7	6	6	6	6	6	6	6	6	6	6	7	7	7	7	7	7	7	7	7	7	7	7	7	7	7	7	7	7	7	7	7	7	7	8	8	8	8	8	8	7	7	7	7	7	6	6	6	6	6	6	6	6	5	6	6	6	6	7	7	8	7	7	7	7	6	6	6	6	6	6	7	7	7	7	7	7	6	6	6	6	6	6	6	6	6	5	5	5	6	6	6	6	6	7	7	6	5	3	1	1	1	2	3	3	3	3	5	7	9	9	8	7	7	7	7	7	6	5	5	5	5	4	3	3	3	4	3	3	2	2	2	2	1	1	1	1	1	1	1	0	0	0	0	0	0	0	0	0	0	0	0	0	0	0	0	0	0	0	0	0	0	0	0	0	0	0	0	0	0	0	0	0	0	0	0	0	0	0	0	0	0	0	0	0	0	0	0	0	0	0	0	0	0	0	0	0	0	0	0	0	0	0	0	0	0	0	0	0	0	0	0	0	0	0	0	0	0	0	0	0	0	0	0	0	0	0	0	0	0	0	0	0	0	0	0	0	0	0	0	0	0	0	0	0	0	0	0	0	0	0
