7	7	7	6	6	7	8	10	10	8	7	7	7	7	7	8	8	7	7	7	7	7	8	10	10	7	7	7	7	7	6	6	4	1	-1	0	0	0	0	0	0	0	0	0	0	0	0	0	0	0	0	0	0	0	0	0	0	0	0	0	0	0	0	0	0	0	0	0	0	0	0	0	0	0	0	0	0	0	0	0	0	0	0	0	0	0	0	0	0	0	0	0	0	0	0	0	0	0	0	0	0	0	0	0	0	0	0	0	0	0	0	0	0	0	0	0	0	0	0	0	0	0	0	0	0	0	0	0	0	0	0	0	0	0	0	0	0	0	0	0	0	0	0	0	0	0	0	0	0	0	0	0	0	0	0	0	0	0	0	0	0	0	0	0	0	0	0	0	0	0	0	0	0	0	0	0	0	0	0	0	0	0	0	0	0	0	0	0	0	0	0	0	3	6	7	7	8	8	8	7	7	7	7	8	8	9	9	9	9	9	9	9	8	8	8	8	9	9	8	9	9	9	9	9	9	9	9	9	9	9	9	9	9	9	9	9	9	9	9	7	5	5	8	18	20	20	19	9	8	16	18	14	9	8	8	8	8	8	8	8	8	8	7	7	7	7	7	7	7	7	7	7	7	7	8	8	8	7	7	7	7	7	7	7	7	7	7	7	7	7	7	8	8	8	8	8	8	8	8	8	9	8	8	8	8	8	8	8	8	8	8	8	8	8	8	8	8	8	8	8	8	8	8	8	8	8	8	8	8	8	8	8	8	8	9	9	9	9	9	9	9	11	12	12	12	13	15	17	19	22	24	27	30	30	31	31	30	28	26	25	27	29	31	34	36	37	37	37	37	36	33	31	32	34	38	43	44	44	45	46	48	51	55	57	53	54	61	68	70	71	72	76	80	81	82	84	87	89	90	93	97	104	105	106	107	107	104	103	108	114	117	120	124	128	131	135	138	140	141	143	143	145	147	150	154	158	162	167	172	175	178	180	180	181	182	183	183	185	186	186	185	183	182	181	179	177	175	174	173	173	173	173	174	174	174	174	175	175	173	171	170	171	171	172	172	172	172	172	172	170	169	168	171	175	178	182	186	190	194	197	200	203	206	208	210	210	212	216	219	220	221	222	222	223	223	223	223	223	222	222	222	222	221	220	220	221	220	220	221	223	223	223	221	218	218	217	215	211	207	203	198	195	197	203	207	211	214	214	214	215	215	212	208	209	211	214	217	217	217	217	217	216	217	218	219	221	225	231	234	232	231	231	233	235	238	240	241	241	242	242	242	241	242	245	248	251	254	256	257	259	261	265	269	272	275	277	280	286	292	295	297	300	304	309	313	317	319	322	325	328	333	341	347	354	359	363	368	374	377	379	385	387	388	390	391	389	388	388	392	394	395	398	402	408	412	411	408	405	403	397	390	386	382	382	383	388	395	410	417	424	431	433	433	433	431	427	423	421	418	414	412	416	418	418	415	414	415	415	413	411	407	402	398	399	401	404	404	403	403	403	404	403	400	397	394	392	391	391	391	393	396	398	399	402	405	405	404	402	401	405	411	414	416	418	422	424	429	434	437	440	446	451	456	460	464	467	472	476	481	485	488	492	496	499	500	503	506	509	512	517	521	521	518	525	542	548	535	536	542	545	550	553	558	561	569	578	584	589	593	598	604	609	614	619	624	628	631	632	630	627	622	617	612	607	602	597	592	586	578	570	565	561	556	551	546	541	535	530	527	524	519	515	511	508	506	504	502	499	495	492	488	484	481	478	474	470	466	464	462	460	458	454	451	448	444	438	433	429	423	414	406	401	397	393	388	384	376	369	359	346	340	332	322	307	299	293	288	282	279	273	270	269	267	265	264	261	258	254	250	248	245	241	235	229	221	213	207	201	192	186	175	168	165	165	164	161	160	164	168	169	172	172	173	171	168	166	166	165	165	165	166	165	164	162	161	161	161	160	160	159	157	156	158	163	164	163	163	165	167	169	172	174	176	177	179	180	181	183	185	188	192	198	202	203	203	204	204	204	205	207	210	209	206	203	202	200	198	196	194	191	188	186	182	178	175	171	168	166	165	162	159	157	155	154	153	151	150	148	146	143	141	139	136	134	132	130	127	125	121	118	116	113	111	109	107	105	104	103	102	100	100	99	98	98	98	97	95	94	93	93	92	92	91	91	90	90	90	91	89	86	83	82	81	80	80	83	88	91	92	93	93	94	95	96	95	94	90	82	77	78	81	83	87	89	90	90	90	87	86	86	88	91	93	94	94	94	95	96	96	96
7	7	7	6	6	7	8	10	10	9	7	7	7	7	8	8	8	7	7	7	7	7	9	10	8	7	7	7	7	7	6	5	3	1	0	0	0	0	0	0	0	0	0	0	0	0	0	0	0	0	0	0	0	0	0	0	0	0	0	0	0	0	0	0	0	0	0	0	0	0	0	0	0	0	0	0	0	0	0	0	0	0	0	0	0	0	0	0	0	0	0	0	0	0	0	0	0	0	0	0	0	0	0	0	0	0	0	0	0	0	0	0	0	0	0	0	0	0	0	0	0	0	0	0	0	0	0	0	0	0	0	0	0	0	0	0	0	0	0	0	0	0	0	0	0	0	0	0	0	0	0	0	0	0	0	0	0	0	0	0	0	0	0	0	0	0	0	0	0	0	0	0	0	0	0	0	0	0	0	0	0	0	0	0	0	0	0	0	0	0	0	0	2	5	6	7	8	8	8	8	7	7	7	8	8	9	9	9	9	9	9	9	9	8	8	8	8	8	8	8	9	9	9	9	9	9	9	9	9	9	9	9	9	9	9	9	9	9	9	9	8	6	7	16	20	20	19	11	7	15	18	15	9	8	8	8	8	8	8	8	8	7	7	7	7	7	7	7	7	7	7	7	7	7	7	7	7	7	7	8	8	8	7	7	7	7	7	7	7	8	8	8	8	8	8	8	8	8	8	8	8	8	8	8	8	8	8	8	8	8	8	8	8	8	8	8	8	8	8	8	8	8	8	8	8	8	8	8	9	9	8	8	8	8	9	9	9	9	9	9	9	10	12	12	12	12	13	15	16	18	20	23	27	29	30	31	31	30	29	26	26	26	27	31	35	36	36	36	36	33	30	29	32	36	40	44	45	45	46	47	49	52	56	58	56	54	56	64	68	69	70	73	77	78	81	84	86	88	89	91	94	101	105	107	106	105	103	102	108	113	116	120	124	128	132	135	137	138	139	140	141	143	145	148	152	155	158	162	167	171	175	176	177	179	180	180	180	181	182	182	181	179	178	176	174	173	173	172	172	171	171	171	170	170	170	171	171	170	169	167	166	167	168	168	169	170	169	169	168	166	165	166	170	174	178	182	187	191	195	197	200	202	204	206	208	209	211	214	217	218	219	219	220	220	220	221	220	220	219	219	219	219	218	218	218	218	218	218	218	219	220	218	216	214	213	213	210	208	205	201	196	194	196	201	206	209	210	211	211	213	213	210	206	207	209	212	216	217	215	214	214	214	215	216	217	219	221	225	231	231	228	227	229	231	233	235	236	237	237	238	238	239	241	245	248	251	253	255	258	261	262	266	270	273	277	280	282	288	294	297	300	304	308	312	316	320	321	324	327	331	336	344	352	357	360	365	370	374	377	379	383	385	386	388	388	386	384	385	390	394	395	396	396	399	403	401	399	397	393	386	380	379	378	380	383	388	399	409	415	420	426	429	430	428	425	423	420	415	412	408	404	406	410	409	409	410	412	412	411	411	406	398	394	393	395	400	401	399	399	399	399	399	397	394	392	389	387	386	387	388	391	393	394	398	400	400	398	398	399	402	406	411	415	420	423	425	428	435	439	441	446	451	454	458	462	465	469	472	476	481	484	487	492	494	494	495	500	505	509	514	519	517	514	519	535	542	535	537	544	545	549	552	557	560	565	575	582	589	593	598	605	611	615	620	625	629	630	629	627	623	619	614	610	604	599	594	588	582	575	568	562	557	552	547	542	537	532	527	525	521	517	512	507	503	502	501	499	496	493	490	486	483	479	476	472	466	462	460	458	458	456	452	448	445	440	435	431	427	421	413	406	401	396	391	387	382	373	366	352	339	333	327	317	304	294	285	280	274	270	269	268	266	263	260	259	257	255	250	247	245	242	239	234	228	221	214	209	199	190	181	173	169	165	162	160	159	156	160	162	158	160	161	164	164	163	162	162	161	161	160	161	161	160	159	159	157	156	157	157	156	155	154	154	157	159	158	159	161	162	163	165	169	172	173	175	176	178	181	183	187	190	194	200	201	202	201	199	199	199	200	201	201	201	199	200	198	197	196	194	191	188	186	183	180	176	173	169	168	167	165	163	160	158	156	155	154	152	150	147	145	143	141	138	136	134	132	130	127	123	120	118	116	113	110	108	107	105	104	102	100	99	98	97	97	96	96	95	94	93	92	92	91	90	90	89	89	89	90	88	85	83	82	81	79	79	81	84	87	89	90	90	93	94	95	95	92	83	77	76	76	78	80	86	89	89	89	88	86	86	87	88	90	92	95	97	98	99	100	99	99
7	7	7	6	6	7	8	10	10	9	8	7	7	7	8	8	8	7	7	7	7	8	10	9	7	7	7	7	7	6	6	5	3	2	1	0	0	0	0	0	0	0	0	0	0	0	0	0	0	0	0	0	0	0	0	0	0	0	0	0	0	0	0	0	0	0	0	0	0	0	0	0	0	0	0	0	0	0	0	0	0	0	0	0	0	0	0	0	0	0	0	0	0	0	0	0	0	0	0	0	0	0	0	0	0	0	0	0	0	0	0	0	0	0	0	0	0	0	0	0	0	0	0	0	0	0	0	0	0	0	0	0	0	0	0	0	0	0	0	0	0	0	0	0	0	0	0	0	0	0	0	0	0	0	0	0	0	0	0	0	0	0	0	0	0	0	0	0	0	0	0	0	0	0	0	0	0	0	0	0	0	0	0	0	0	0	0	0	0	0	0	0	1	4	6	7	7	8	8	8	7	7	7	7	8	8	9	9	9	9	9	9	9	8	8	8	8	8	8	8	8	9	9	9	9	9	9	9	9	9	9	9	9	9	9	9	9	9	9	14	14	8	7	14	20	20	19	15	7	12	17	15	9	8	9	8	9	9	8	8	7	7	7	7	7	7	7	7	7	7	7	7	7	7	7	7	7	7	7	8	8	8	8	7	7	7	7	7	7	8	8	8	8	8	8	8	8	8	8	8	8	8	8	8	8	8	8	8	8	8	8	8	8	8	8	8	8	8	8	8	8	8	8	8	8	8	8	8	9	9	9	8	8	9	9	9	9	9	9	9	9	9	10	11	12	12	12	12	13	14	16	19	22	25	29	31	31	32	31	30	27	26	26	28	31	33	34	33	32	29	28	30	32	37	41	44	45	46	47	49	52	55	57	57	58	57	57	62	66	68	68	71	74	75	78	82	85	88	90	90	91	95	102	105	105	104	104	102	106	112	116	120	125	129	133	135	136	137	137	137	138	140	143	146	149	152	154	156	160	165	169	171	173	175	177	178	178	177	177	177	176	175	174	173	172	170	170	170	169	169	169	168	168	168	167	167	166	166	165	165	165	165	165	166	166	166	167	166	164	162	163	165	170	174	178	182	187	191	194	196	198	201	203	204	206	208	210	212	215	217	217	217	217	218	217	217	216	216	216	216	216	216	216	215	216	216	215	215	215	215	215	214	212	211	210	209	207	205	202	198	194	193	195	199	204	206	206	207	208	210	209	207	206	206	207	210	215	217	213	211	212	213	214	215	216	219	220	221	223	225	225	225	227	230	231	232	233	235	236	238	239	239	242	246	249	251	252	255	259	262	264	267	271	275	279	282	285	289	294	298	302	306	309	312	316	320	322	324	327	332	337	346	354	358	362	367	371	374	377	380	383	385	385	386	385	382	379	378	385	392	394	393	390	389	389	387	388	386	381	378	375	375	374	377	381	390	402	409	413	418	421	424	426	422	419	418	416	412	408	404	399	399	402	405	407	408	408	409	409	408	402	396	391	389	391	395	396	396	397	396	396	395	394	392	389	385	381	382	384	384	386	386	386	388	389	389	391	396	399	402	406	410	415	420	424	426	430	435	439	441	446	450	453	457	460	462	465	468	471	476	480	482	486	488	488	489	494	501	509	513	516	510	505	515	528	533	532	535	539	542	548	553	557	559	562	569	579	589	593	599	606	612	616	621	626	630	629	627	624	620	616	611	607	602	596	591	584	578	573	567	560	554	549	544	539	535	530	526	523	519	514	510	505	501	499	499	497	494	491	487	484	480	477	473	469	464	460	457	455	454	452	448	444	441	436	432	429	424	418	412	407	400	394	390	385	380	371	362	342	333	328	321	311	301	289	278	271	266	264	265	264	261	258	257	256	253	250	245	242	240	238	236	233	228	222	216	211	199	189	179	174	171	167	162	159	157	154	153	151	152	154	156	155	155	157	157	157	157	158	157	157	157	156	156	156	155	154	154	153	153	152	152	152	154	155	155	156	158	158	159	161	164	167	169	171	173	176	179	182	186	189	191	196	198	197	196	195	195	195	194	193	193	194	195	196	196	196	196	193	190	188	186	184	180	178	175	171	170	169	168	166	164	161	158	156	155	154	151	149	146	144	142	140	138	136	134	132	129	125	123	121	118	115	112	110	108	106	104	102	100	99	98	97	96	95	95	95	95	94	93	91	90	88	88	89	88	88	89	87	84	83	82	80	79	79	80	82	84	86	87	88	91	93	93	93	89	79	76	76	76	77	81	86	87	87	87	86	86	86	87	88	90	93	96	99	101	102	101	101	101
7	7	7	6	6	6	8	10	10	9	8	7	8	8	8	8	7	7	7	7	8	10	10	8	7	7	7	7	7	6	6	5	3	2	1	0	0	0	0	0	0	0	0	0	0	0	0	0	0	0	0	0	0	0	0	0	0	0	0	0	0	0	0	0	0	0	0	0	0	0	0	0	0	0	0	0	0	0	0	0	0	0	0	0	0	0	0	0	0	0	0	0	0	0	0	0	0	0	0	0	0	0	0	0	0	0	0	0	0	0	0	0	0	0	0	0	0	0	0	0	0	0	0	0	0	0	0	0	0	0	0	0	0	0	0	0	0	0	0	0	0	0	0	0	0	0	0	0	0	0	0	0	0	0	0	0	0	0	0	0	0	0	0	0	0	0	0	0	0	0	0	0	0	0	0	0	0	0	0	0	0	0	0	0	0	0	0	0	0	0	0	0	1	4	6	7	7	8	8	8	7	7	7	7	8	8	9	9	9	9	9	9	9	9	9	8	8	9	8	9	9	9	9	9	9	9	9	9	9	9	9	9	9	9	9	9	9	9	9	15	17	11	7	12	19	20	19	17	9	9	13	13	9	9	9	9	9	8	8	7	7	6	6	6	7	7	7	7	7	7	7	7	7	7	7	7	7	7	7	7	8	8	8	7	7	7	7	7	8	8	8	8	8	9	8	8	8	8	8	8	8	8	8	8	8	8	8	8	8	8	8	8	8	8	8	8	8	8	8	8	8	8	8	8	8	8	8	8	8	9	9	9	9	9	9	9	8	8	9	9	9	9	9	10	11	11	11	11	11	12	14	17	19	20	22	27	31	32	32	32	31	28	27	26	28	30	31	29	27	29	31	32	34	38	41	42	44	45	46	51	55	57	58	58	59	59	60	63	65	65	62	64	69	72	75	78	82	87	89	89	90	91	95	99	102	105	104	101	103	112	117	120	126	130	133	135	136	136	135	134	135	137	139	142	145	148	151	152	156	160	164	167	169	171	173	174	174	173	173	173	173	172	171	170	169	167	167	166	165	166	166	165	165	164	164	163	162	162	162	163	163	163	162	162	162	163	164	164	162	161	162	164	168	173	177	182	186	190	193	195	197	199	201	203	204	206	208	210	212	214	215	215	215	215	214	213	213	213	214	214	214	214	214	213	213	213	213	212	212	212	211	211	209	208	207	206	204	203	200	196	192	192	195	199	202	203	203	204	205	205	204	204	204	204	205	208	211	211	210	210	211	212	213	214	216	218	219	220	221	222	223	224	227	230	231	232	233	235	237	239	240	241	244	247	251	252	253	256	260	263	265	267	271	275	280	283	286	289	293	298	303	306	308	312	317	321	323	325	328	333	339	347	356	360	364	367	370	374	377	380	383	383	383	382	380	377	375	374	379	387	388	387	387	386	385	378	378	378	377	375	372	372	373	376	380	390	403	408	411	413	411	413	415	410	410	413	413	408	402	401	395	394	397	400	404	404	404	404	404	402	398	395	390	387	387	389	390	393	394	394	393	392	391	390	386	381	379	381	386	385	383	381	382	383	384	386	389	395	399	402	407	411	416	421	425	427	429	433	438	440	445	449	452	456	459	460	461	465	468	474	478	479	480	480	482	486	489	496	506	508	508	501	499	508	521	526	528	532	537	541	548	554	558	560	563	569	576	588	593	600	608	613	617	621	626	630	629	627	623	619	614	610	606	600	594	589	582	576	571	565	557	552	548	543	537	533	528	525	521	516	512	509	504	500	499	497	494	490	488	484	480	477	474	471	467	464	460	456	453	451	448	444	441	437	432	429	426	422	416	411	407	400	393	388	383	378	370	359	339	330	324	317	310	300	289	277	268	263	261	258	257	257	257	255	252	248	243	239	237	235	234	233	231	227	222	217	211	200	190	181	177	174	168	162	158	155	153	151	150	151	151	152	150	149	150	151	152	153	154	154	154	154	153	152	152	151	151	150	149	148	148	148	149	150	151	151	152	153	154	156	159	162	164	166	168	170	173	176	178	183	188	190	193	195	195	194	192	191	190	187	183	188	190	191	193	194	195	194	192	190	188	187	184	181	178	176	174	173	171	170	168	166	163	161	158	157	155	153	151	148	146	143	141	139	137	135	133	130	127	125	123	121	118	115	112	110	107	105	103	101	100	98	97	96	95	95	95	95	94	93	92	90	88	88	88	88	88	88	87	84	82	82	81	80	80	81	81	82	83	83	84	90	92	92	91	87	78	76	76	76	76	80	85	86	86	85	84	85	85	87	90	93	95	98	101	102	103	101	100	101
6	7	7	7	7	7	7	10	10	10	8	8	8	8	8	8	7	7	7	8	9	11	9	7	7	7	7	6	6	6	6	5	3	2	1	0	0	0	0	0	0	0	0	0	0	0	0	0	0	0	0	0	0	0	0	0	0	0	0	0	0	0	0	0	0	0	0	0	0	0	0	0	0	0	0	0	0	0	0	0	0	0	0	0	0	0	0	0	0	0	0	0	0	0	0	0	0	0	0	0	0	0	0	0	0	0	0	0	0	0	0	0	0	0	0	0	0	0	0	0	0	0	0	0	0	0	0	0	0	0	0	0	0	0	0	0	0	0	0	0	0	0	0	0	0	0	0	0	0	0	0	0	0	0	0	0	0	0	0	0	0	0	0	0	0	0	0	0	0	0	0	0	0	0	0	0	0	0	0	0	0	0	0	0	0	0	0	0	0	0	0	0	0	3	6	7	7	8	8	8	8	7	7	7	7	8	9	9	9	9	9	9	9	9	9	9	9	9	9	9	9	9	9	9	9	9	9	9	9	9	9	9	9	9	9	9	9	9	9	15	18	13	7	9	17	20	19	18	12	6	7	9	9	9	9	9	8	8	7	6	6	6	6	6	7	7	7	7	7	7	7	7	7	7	7	7	7	7	8	8	8	8	8	8	7	7	8	8	8	8	8	8	8	8	8	8	8	8	8	8	8	8	8	8	8	8	8	8	8	8	8	8	8	8	8	8	8	8	8	8	8	8	8	8	8	8	8	8	8	8	9	9	9	9	9	8	8	8	8	9	9	9	9	9	10	11	11	11	11	11	13	15	17	18	17	18	27	31	32	32	32	31	30	27	26	27	28	27	28	31	33	33	35	38	40	41	42	44	46	51	56	58	59	59	60	60	60	60	64	64	61	60	62	68	72	74	77	82	84	86	88	90	95	97	99	104	105	101	101	110	117	120	124	128	131	133	134	133	132	131	132	134	137	139	141	144	148	150	153	156	160	164	166	167	168	169	169	170	171	170	169	169	168	167	165	163	163	162	162	163	164	162	161	160	160	159	159	159	159	160	160	159	158	159	160	160	159	158	159	160	162	163	166	171	176	181	185	188	191	193	195	197	199	201	202	204	205	207	208	211	212	212	212	212	212	211	211	212	212	212	212	212	212	211	211	210	209	209	209	209	209	208	206	204	203	203	202	200	198	194	191	190	194	198	200	201	201	202	202	202	202	201	201	201	202	205	208	208	209	210	211	211	211	212	214	216	218	219	220	222	224	225	227	230	232	233	235	238	239	241	243	244	246	249	251	253	255	258	262	264	266	268	271	276	279	283	286	290	293	298	303	306	309	313	317	322	324	327	331	337	342	350	358	362	364	365	367	371	375	378	381	381	379	377	374	372	371	369	373	378	379	376	378	382	383	374	371	372	373	372	370	369	372	375	379	389	400	404	405	403	400	403	404	399	401	406	406	401	395	398	393	392	394	396	399	400	399	399	399	397	395	393	388	383	381	383	386	389	389	389	390	389	388	387	384	380	378	382	388	387	383	380	378	382	384	386	389	395	400	403	408	412	416	421	425	426	427	432	438	439	443	447	450	453	456	457	459	462	465	471	475	477	476	477	479	483	485	489	494	496	499	497	498	505	513	518	524	529	537	542	548	555	559	561	565	570	578	589	595	602	609	613	617	621	626	629	630	627	624	620	615	611	606	600	593	587	581	575	569	562	555	550	546	541	535	530	527	523	519	514	510	507	503	500	498	494	489	486	484	481	477	474	472	469	466	463	459	455	451	447	444	440	437	433	429	426	423	419	415	411	407	400	393	387	381	376	368	356	339	329	324	317	309	300	289	279	267	260	257	253	251	252	251	249	245	241	235	231	230	229	229	228	227	225	221	216	210	200	191	184	178	174	168	163	159	156	152	150	149	149	148	147	147	146	147	148	148	148	149	149	149	149	149	147	147	146	146	146	145	143	143	144	145	146	146	147	148	149	151	153	156	159	161	162	164	167	170	172	174	179	185	188	190	193	194	192	189	186	182	180	176	181	185	189	190	192	192	192	191	190	188	186	184	181	179	177	176	175	173	170	169	167	165	163	161	159	157	155	153	150	148	145	143	141	139	137	134	132	129	128	125	123	119	116	114	111	109	107	104	102	101	99	97	96	95	94	94	95	95	94	93	91	89	89	89	89	88	88	88	85	83	82	82	81	80	80	81	80	78	77	78	87	91	90	89	84	77	76	75	75	75	79	85	85	84	83	83	84	86	88	91	94	97	99	102	104	103	101	99	102
6	7	7	7	8	7	7	9	10	10	9	8	8	8	8	7	7	7	7	8	10	10	8	7	7	7	7	6	6	6	6	4	3	1	0	0	0	0	0	0	0	0	0	0	0	0	0	0	0	0	0	0	0	0	0	0	0	0	0	0	0	0	0	0	0	0	0	0	0	0	0	0	0	0	0	0	0	0	0	0	0	0	0	0	0	0	0	0	0	0	0	0	0	0	0	0	0	0	0	0	0	0	0	0	0	0	0	0	0	0	0	0	0	0	0	0	0	0	0	0	0	0	0	0	0	0	0	0	0	0	0	0	0	0	0	0	0	0	0	0	0	0	0	0	0	0	0	0	0	0	0	0	0	0	0	0	0	0	0	0	0	0	0	0	0	0	0	0	0	0	0	0	0	0	0	0	0	0	0	0	0	0	0	0	0	0	0	0	0	0	0	0	0	2	5	7	7	7	8	8	8	7	7	7	7	7	8	8	9	9	9	9	9	9	9	9	9	9	9	9	9	9	9	9	9	9	9	9	8	8	9	9	9	9	9	9	9	9	9	13	17	16	9	6	13	19	20	19	16	9	7	8	9	9	9	9	8	7	6	6	6	6	6	6	7	7	7	7	7	7	7	7	7	7	7	7	8	8	8	8	8	8	8	8	7	7	8	8	8	8	8	8	8	8	8	8	8	8	8	8	8	8	8	8	8	8	8	8	8	8	8	8	8	8	8	8	8	8	8	8	8	8	8	8	8	8	8	8	8	8	9	9	9	9	9	8	8	8	8	8	9	9	9	9	9	10	11	11	11	11	12	13	15	16	16	14	18	27	31	32	32	32	32	30	28	27	27	28	29	31	33	33	35	37	39	40	42	45	48	52	56	58	59	59	60	59	59	58	60	61	62	63	63	64	69	72	76	78	81	85	87	90	95	97	99	104	106	101	101	107	116	120	122	124	127	129	130	129	128	128	131	133	135	137	139	142	145	148	150	153	156	159	161	163	164	165	165	166	166	165	165	164	164	163	161	160	160	159	159	160	161	160	158	156	156	156	156	155	155	156	156	155	154	154	155	153	153	152	154	157	160	162	165	170	175	179	183	186	189	191	193	195	197	199	200	202	203	204	205	207	208	209	209	209	210	210	210	210	210	210	210	210	209	209	208	207	206	206	206	206	206	205	203	201	200	200	199	197	195	193	189	188	192	196	198	199	200	200	200	200	200	199	198	199	200	203	206	207	208	210	210	210	210	211	213	215	217	219	221	224	227	228	230	231	233	235	238	240	241	243	245	247	248	249	252	254	256	259	263	265	268	270	273	276	280	283	286	290	293	298	303	307	310	313	317	322	325	328	333	339	345	352	358	361	363	363	364	365	368	375	376	373	371	370	369	368	367	366	370	370	371	369	368	370	371	367	364	365	368	367	366	365	369	373	377	384	391	393	393	392	392	392	391	388	389	392	395	394	393	390	386	388	391	392	394	396	395	395	395	393	392	390	385	380	377	377	380	384	385	386	386	386	386	384	381	378	376	378	383	382	380	381	380	383	386	387	390	395	400	404	408	412	416	421	426	427	425	429	434	436	439	444	447	449	451	453	455	459	462	465	470	472	473	475	476	477	479	485	487	486	491	495	498	505	511	515	522	528	536	543	548	554	559	564	567	572	582	592	597	604	609	613	617	621	625	629	630	629	626	621	617	612	607	600	593	586	580	573	567	559	552	547	543	537	532	528	525	520	515	511	507	504	500	497	494	490	486	483	481	477	474	472	470	467	463	460	457	453	449	445	441	437	433	429	425	423	420	417	414	411	406	399	391	386	380	374	364	355	340	330	324	316	308	301	290	277	264	259	254	250	246	244	242	240	237	233	229	227	225	224	223	223	223	222	218	214	208	200	192	185	178	173	170	166	162	158	155	151	148	146	144	144	144	144	144	145	145	145	144	143	143	144	145	145	144	143	142	143	143	142	141	141	140	141	142	144	144	145	147	151	154	156	158	159	161	164	168	170	172	177	182	185	188	192	191	188	185	181	178	177	176	179	183	187	189	189	189	189	189	189	187	186	183	181	180	178	176	175	173	171	169	167	165	163	162	160	159	157	154	152	150	148	145	143	141	139	136	133	131	129	127	124	121	118	115	113	110	108	106	104	102	100	98	96	95	94	94	95	94	94	93	91	90	90	90	89	88	88	89	86	83	83	82	81	79	79	80	78	76	77	78	85	87	84	82	78	76	75	75	75	75	78	84	84	83	81	81	83	86	89	90	92	95	99	102	102	102	100	100	104
6	7	7	7	8	7	6	8	10	10	9	8	8	8	8	7	7	7	7	9	10	9	7	7	7	7	6	6	6	6	5	4	2	0	-1	0	0	0	0	0	0	0	0	0	0	0	0	0	0	0	0	0	0	0	0	0	0	0	0	0	0	0	0	0	0	0	0	0	0	0	0	0	0	0	0	0	0	0	0	0	0	0	0	0	0	0	0	0	0	0	0	0	0	0	0	0	0	0	0	0	0	0	0	0	0	0	0	0	0	0	0	0	0	0	0	0	0	0	0	0	0	0	0	0	0	0	0	0	0	0	0	0	0	0	0	0	0	0	0	0	0	0	0	0	0	0	0	0	0	0	0	0	0	0	0	0	0	0	0	0	0	0	0	0	0	0	0	0	0	0	0	0	0	0	0	0	0	0	0	0	0	0	0	0	0	0	0	0	0	0	0	0	0	1	5	6	7	7	8	8	8	7	7	7	7	7	7	8	8	9	9	9	9	9	9	9	9	9	9	9	9	9	9	9	9	9	9	8	8	8	9	9	9	9	9	9	9	9	8	11	15	16	10	7	12	19	20	20	19	13	9	9	9	9	9	8	6	6	6	6	6	6	6	7	7	7	7	7	7	7	7	8	8	8	8	8	8	8	8	8	8	8	8	8	8	8	8	8	8	8	8	8	8	8	8	8	8	8	8	8	8	8	8	8	8	8	8	8	8	8	8	8	8	8	8	8	8	8	8	8	8	8	8	8	8	8	8	8	8	8	8	8	8	9	9	9	8	8	8	8	9	9	9	9	9	10	10	11	11	11	11	11	13	14	14	13	13	19	28	31	32	33	33	33	31	29	27	27	28	30	32	33	34	36	38	40	43	45	49	53	55	57	58	58	58	57	57	57	56	57	60	62	65	66	68	71	75	78	81	85	88	90	94	96	99	105	108	102	100	105	113	119	121	122	124	125	125	125	125	126	128	131	133	135	137	140	142	144	146	149	152	154	157	158	159	159	158	159	160	160	160	159	159	159	158	157	156	156	156	156	157	156	154	153	152	152	152	152	152	152	152	152	151	151	149	146	147	148	151	155	159	161	163	168	174	177	181	184	186	189	191	193	195	197	199	201	202	203	203	204	205	205	205	206	207	208	208	207	207	207	208	207	207	206	205	204	203	203	202	203	203	202	200	198	196	196	195	194	192	191	188	187	189	192	195	197	198	197	197	197	197	197	197	198	199	201	203	205	206	208	209	209	210	211	212	214	217	221	225	227	229	231	233	234	235	238	241	242	243	244	247	249	250	251	253	254	256	259	263	267	269	272	274	278	281	284	287	291	294	298	303	308	311	313	317	321	326	330	336	340	347	353	356	359	360	361	361	362	363	366	368	366	364	364	365	365	364	364	364	363	365	364	361	361	363	361	359	361	364	363	362	363	367	371	375	380	384	387	383	381	381	382	378	374	374	378	382	384	383	378	378	386	388	389	390	391	392	392	391	388	386	385	381	376	374	373	374	379	382	381	381	382	384	381	377	374	371	370	372	374	376	382	383	386	388	391	393	396	400	404	407	410	415	419	425	428	425	425	428	431	435	440	444	446	448	449	451	454	458	460	463	465	466	468	468	472	476	480	484	484	489	495	500	506	511	514	520	527	535	542	548	554	560	565	569	576	586	593	598	604	608	612	617	621	626	629	631	630	627	622	617	612	606	599	591	585	578	570	563	556	549	544	539	533	528	525	521	517	511	507	503	499	495	492	490	487	484	481	477	473	471	470	467	464	461	459	455	452	448	444	439	434	429	426	422	420	417	414	412	408	403	396	389	384	378	370	360	348	340	330	323	315	307	301	291	276	264	258	251	246	244	242	239	237	234	230	226	224	222	221	219	218	218	217	215	213	208	199	190	184	179	174	172	168	164	160	157	153	149	146	143	141	141	141	142	143	144	143	142	141	140	141	142	143	142	140	140	140	142	141	139	137	136	137	138	140	140	141	144	147	152	155	156	157	159	161	165	168	170	174	178	182	186	191	188	183	180	175	173	172	173	177	181	185	187	186	185	186	186	185	185	184	183	182	181	179	177	175	173	171	169	168	165	163	162	160	159	158	156	153	152	150	147	145	143	141	138	135	133	131	128	125	122	119	117	114	111	109	106	105	103	101	98	96	95	95	95	94	93	93	92	91	90	90	90	89	88	88	88	85	82	81	80	80	77	76	77	76	79	79	77	80	78	76	76	75	75	75	75	75	75	79	84	84	83	82	81	82	86	89	90	90	93	97	99	100	100	101	102	105
6	7	7	7	7	6	6	8	10	9	9	8	8	8	7	7	7	7	7	8	9	8	7	7	7	7	6	6	6	6	5	4	2	1	0	0	0	0	0	0	0	0	0	0	0	0	0	0	0	0	0	0	0	0	0	0	0	0	0	0	0	0	0	0	0	0	0	0	0	0	0	0	0	0	0	0	0	0	0	0	0	0	0	0	0	0	0	0	0	0	0	0	0	0	0	0	0	0	0	0	0	0	0	0	0	0	0	0	0	0	0	0	0	0	0	0	0	0	0	0	0	0	0	0	0	0	0	0	0	0	0	0	0	0	0	0	0	0	0	0	0	0	0	0	0	0	0	0	0	0	0	0	0	0	0	0	0	0	0	0	0	0	0	0	0	0	0	0	0	0	0	0	0	0	0	0	0	0	0	0	0	0	0	0	0	0	0	0	0	0	0	0	0	1	4	6	7	7	7	8	8	7	7	7	7	7	7	7	7	8	9	9	9	9	9	9	9	9	9	9	9	9	9	9	9	8	8	8	8	8	9	9	9	9	9	9	9	9	8	9	11	12	10	13	17	19	20	20	20	16	11	9	9	9	9	8	6	5	6	6	6	6	7	7	7	7	7	7	7	7	7	8	8	8	8	8	8	8	8	8	8	8	8	8	8	8	8	8	8	8	8	8	8	8	8	8	8	8	8	8	8	8	8	8	8	8	8	8	8	8	8	8	8	8	8	8	8	8	8	8	8	8	8	8	8	8	8	8	8	8	8	8	8	8	9	9	8	8	8	8	8	9	9	9	9	9	10	10	10	10	10	10	11	13	13	13	12	14	19	25	31	32	33	33	33	32	29	28	28	28	30	32	34	37	38	39	42	45	48	51	53	54	54	54	54	53	54	54	54	55	57	62	68	69	69	68	75	78	81	85	88	90	93	95	99	105	109	103	100	101	108	113	116	118	122	122	121	122	122	123	125	127	129	131	132	135	137	140	142	145	147	149	151	152	150	149	150	151	154	155	156	155	156	156	155	154	153	153	153	153	153	153	151	150	149	149	149	148	148	148	148	148	148	147	144	142	143	145	149	154	158	160	163	168	172	175	178	182	184	186	189	191	193	196	198	199	201	201	201	202	202	202	202	203	205	207	207	205	204	204	205	205	204	203	201	200	199	198	198	198	199	198	196	193	192	192	192	191	189	188	186	185	187	190	193	195	195	195	195	195	195	196	197	198	199	200	202	203	205	206	207	208	210	211	213	215	218	222	226	228	230	232	234	236	237	239	242	243	244	247	249	250	252	253	255	256	258	260	264	268	271	273	275	279	282	285	288	292	296	299	304	309	312	314	318	322	328	333	338	342	348	353	355	356	357	357	357	358	360	361	363	362	360	360	361	361	360	361	362	362	361	360	357	358	361	358	356	356	358	358	358	363	369	371	373	376	378	379	375	373	373	372	368	366	365	368	372	374	373	371	377	382	383	385	387	387	388	388	386	383	381	380	377	374	372	370	371	374	376	376	376	376	376	375	373	371	369	368	371	372	375	380	383	385	389	393	395	397	400	403	406	409	413	416	421	425	423	422	424	426	430	436	439	442	444	445	447	449	452	455	456	459	461	463	463	470	475	479	483	484	489	495	501	507	511	514	519	526	533	540	546	554	560	565	569	579	588	595	600	605	609	613	618	623	626	630	632	630	626	621	616	611	604	597	590	583	575	567	560	553	547	542	536	530	524	520	517	513	507	503	499	495	491	488	486	483	480	477	472	468	466	465	462	460	459	457	454	450	446	441	437	432	428	424	420	416	412	409	407	404	399	393	387	381	374	362	352	344	337	329	322	314	307	301	291	274	262	255	248	245	243	241	239	236	233	230	226	223	221	219	217	215	214	214	213	211	205	196	188	183	178	174	172	168	164	161	158	155	150	148	145	142	141	140	140	141	141	140	139	138	138	138	138	138	137	137	137	138	139	140	138	135	135	136	135	135	136	139	142	144	148	151	153	155	156	158	162	165	167	171	175	178	180	183	181	178	174	171	169	169	170	173	177	181	182	182	181	182	182	182	182	183	182	181	180	179	177	175	173	171	169	167	165	163	161	159	158	157	156	154	153	151	149	147	144	142	140	138	135	132	129	126	124	121	118	115	112	109	107	105	103	100	98	96	95	94	94	93	92	91	91	90	89	89	89	88	87	87	86	81	78	77	77	77	75	75	76	76	82	79	74	75	75	75	75	75	75	75	75	74	75	79	84	84	84	82	81	82	86	89	89	90	93	96	96	98	100	102	104	105
6	6	7	7	6	6	7	9	10	9	9	8	8	8	8	7	7	7	7	7	7	7	7	7	7	7	7	7	6	6	5	3	2	2	1	0	0	0	0	0	0	0	0	0	0	0	0	0	0	0	0	0	0	0	0	0	0	0	0	0	0	0	0	0	0	0	0	0	0	0	0	0	0	0	0	0	0	0	0	0	0	0	0	0	0	0	0	0	0	0	0	0	0	0	0	0	0	0	0	0	0	0	0	0	0	0	0	0	0	0	0	0	0	0	0	0	0	0	0	0	0	0	0	0	0	0	0	0	0	0	0	0	0	0	0	0	0	0	0	0	0	0	0	0	0	0	0	0	0	0	0	0	0	0	0	0	0	0	0	0	0	0	0	0	0	0	0	0	0	0	0	0	0	0	0	0	0	0	0	0	0	0	0	0	0	0	0	0	0	0	0	0	0	1	3	6	7	7	7	8	8	7	7	7	7	7	7	7	7	8	8	9	9	9	9	9	9	9	9	9	9	9	9	9	9	8	8	8	8	8	9	9	9	9	9	9	9	9	9	8	9	9	11	16	18	19	20	20	20	19	15	10	9	9	9	8	6	6	6	6	6	7	8	8	7	7	7	7	7	7	8	8	8	8	8	8	8	8	8	8	8	8	8	8	8	8	8	8	8	8	8	8	8	8	8	8	8	8	8	8	8	8	8	8	8	8	8	8	8	8	8	8	8	8	8	8	8	8	8	8	8	8	8	8	8	8	8	8	8	8	8	8	8	8	8	9	9	8	8	8	8	8	8	9	9	9	9	9	10	10	10	10	11	11	13	13	12	13	15	18	24	30	32	33	34	33	32	30	28	28	29	30	33	37	38	39	40	43	46	49	50	50	50	50	50	49	49	50	51	53	57	65	70	70	68	66	75	78	80	84	88	91	93	94	98	103	107	104	100	100	105	109	111	113	116	118	118	119	119	119	121	123	124	126	127	129	132	135	138	141	143	145	146	147	145	144	145	146	148	150	152	152	153	153	152	151	149	150	150	150	149	149	148	147	146	146	145	144	144	144	144	144	145	143	141	140	142	146	149	153	158	160	163	168	171	174	177	180	182	185	187	189	192	194	196	198	199	200	200	201	201	200	200	200	202	205	204	202	201	201	202	202	201	199	197	195	195	194	194	194	194	192	191	190	189	189	188	187	186	185	184	183	186	189	191	192	192	192	193	193	194	195	197	198	199	200	201	203	204	205	206	208	210	212	213	215	218	222	225	228	230	232	235	237	239	240	242	244	246	249	251	252	254	256	258	259	261	262	265	269	272	274	277	280	283	287	290	294	298	302	306	311	314	317	321	326	330	335	339	342	348	351	353	353	354	354	353	354	355	356	357	355	355	357	358	357	355	356	359	360	360	358	356	356	358	356	353	353	354	355	358	363	368	370	370	370	370	372	372	369	365	363	363	361	360	362	365	367	368	368	372	376	378	382	383	383	383	382	381	379	377	375	374	371	369	368	368	370	372	372	372	371	370	370	369	368	367	366	368	372	375	379	382	385	389	392	395	397	400	403	405	407	409	412	416	419	420	421	422	423	426	431	433	435	437	440	442	444	447	448	451	454	457	460	465	469	474	479	483	486	490	496	502	508	512	514	519	526	533	539	546	553	560	564	568	579	588	595	601	606	611	615	620	624	627	630	631	628	623	618	613	608	601	594	587	580	572	564	558	551	546	540	535	527	520	515	512	508	503	500	496	492	488	485	482	479	476	473	469	466	463	460	457	455	454	453	451	447	442	438	434	430	426	422	418	411	405	403	401	399	396	390	384	378	369	355	348	344	336	328	320	313	307	300	287	271	259	253	249	247	244	242	239	236	234	231	227	224	221	220	217	215	213	212	210	207	201	194	187	180	176	173	171	168	164	161	157	155	152	149	148	145	143	141	141	140	138	137	136	135	134	135	134	134	134	134	135	135	136	136	136	135	135	136	132	130	133	137	141	142	143	145	146	148	151	154	158	162	167	171	173	174	176	176	175	173	170	166	164	164	167	170	174	177	178	178	178	179	179	179	180	181	182	181	179	178	176	174	173	171	168	165	163	162	160	158	157	156	155	155	153	152	150	148	146	144	142	140	137	134	131	128	125	122	119	116	113	110	107	105	103	100	98	96	94	93	92	91	90	89	89	88	87	88	88	87	87	87	84	79	77	77	77	77	77	77	77	75	82	79	74	74	75	75	75	75	74	74	74	73	73	76	83	84	83	82	80	80	85	88	89	89	92	94	97	100	102	103	104	105
6	6	7	7	6	6	7	9	10	9	9	8	8	8	8	7	7	7	7	7	7	7	7	6	6	7	8	7	6	6	5	3	2	1	0	0	0	0	0	0	0	0	0	0	0	0	0	0	0	0	0	0	0	0	0	0	0	0	0	0	0	0	0	0	0	0	0	0	0	0	0	0	0	0	0	0	0	0	0	0	0	0	0	0	0	0	0	0	0	0	0	0	0	0	0	0	0	0	0	0	0	0	0	0	0	0	0	0	0	0	0	0	0	0	0	0	0	0	0	0	0	0	0	0	0	0	0	0	0	0	0	0	0	0	0	0	0	0	0	0	0	0	0	0	0	0	0	0	0	0	0	0	0	0	0	0	0	0	0	0	0	0	0	0	0	0	0	0	0	0	0	0	0	0	0	0	0	0	0	0	0	0	0	0	0	0	0	0	0	0	0	0	0	0	3	6	7	7	7	8	8	7	7	7	7	7	7	7	7	7	8	9	9	9	9	9	9	9	9	9	9	9	9	9	8	8	8	8	8	9	9	9	8	9	9	10	10	9	9	9	9	9	9	13	15	16	20	20	20	19	18	12	9	9	9	8	6	6	6	6	7	8	8	8	8	7	7	8	8	8	8	8	8	9	9	9	9	8	8	9	9	8	8	8	8	8	8	8	8	8	8	8	8	8	8	8	8	8	8	8	8	8	8	8	8	8	8	8	8	8	8	8	8	8	8	8	8	8	8	8	8	8	8	8	8	8	8	8	8	8	8	8	8	8	8	8	8	8	8	8	8	8	8	8	9	9	9	9	9	10	10	11	10	11	12	13	13	12	13	13	15	20	28	32	34	34	34	33	31	29	28	29	31	36	39	40	42	42	43	46	46	46	46	47	46	45	46	48	50	53	59	65	68	69	69	68	73	76	79	84	88	91	93	94	96	100	103	105	103	100	102	106	109	111	112	114	116	116	116	117	118	119	121	123	125	127	129	132	135	138	141	143	144	145	143	141	142	144	145	147	149	150	151	151	149	147	146	146	147	147	146	145	145	144	143	142	141	141	141	141	141	141	141	139	138	138	142	146	149	152	156	160	164	168	172	174	177	178	181	184	186	188	191	194	195	197	198	198	198	199	199	198	198	198	198	199	198	197	198	199	199	199	198	196	193	192	192	191	191	190	189	188	187	187	187	186	185	184	183	182	181	182	185	188	190	190	189	189	190	191	192	194	196	198	199	200	201	202	203	204	206	209	212	213	214	216	219	222	226	229	231	233	236	239	241	242	244	246	247	249	252	254	256	259	262	264	265	264	266	270	273	275	277	281	285	288	291	296	300	304	308	313	316	320	325	329	332	336	339	341	346	349	350	350	350	350	350	351	352	352	351	350	350	352	353	352	351	351	355	357	357	356	354	353	352	351	351	351	352	355	358	361	364	367	367	366	366	369	374	370	362	360	360	357	356	357	359	362	365	366	369	372	375	378	380	380	380	378	377	377	376	373	370	366	364	363	364	366	367	368	369	368	367	366	365	364	363	363	366	371	375	378	381	385	388	390	394	397	399	402	404	404	405	407	411	415	416	419	421	422	423	426	427	428	431	433	436	439	442	446	448	453	458	462	467	471	474	480	485	488	492	497	503	509	512	516	521	525	532	540	548	554	559	563	568	579	588	595	603	608	613	617	621	625	627	629	629	626	621	615	609	604	597	590	583	576	569	562	555	549	544	539	533	525	517	512	507	502	498	496	493	489	486	483	480	476	473	470	467	464	461	457	454	451	449	448	446	443	438	434	430	426	422	418	413	406	400	398	397	394	390	385	379	373	364	355	347	342	335	327	319	312	306	300	285	272	261	255	253	252	250	245	242	238	236	233	230	226	224	223	220	216	213	210	208	204	199	195	183	176	174	171	169	166	163	160	157	155	153	152	151	149	145	143	142	142	140	137	135	134	133	133	133	132	132	132	132	132	132	133	132	130	130	132	131	129	131	136	139	141	141	142	142	144	146	151	155	159	167	172	172	171	174	175	174	170	166	162	159	160	162	167	172	174	175	175	174	175	176	177	177	178	179	179	177	176	175	173	171	169	165	162	161	160	158	157	156	155	155	154	153	152	151	149	147	145	144	141	138	135	132	129	126	123	119	116	114	110	107	105	103	100	98	96	94	92	91	90	89	87	87	86	85	86	85	85	86	85	81	78	78	79	81	81	80	78	74	72	77	78	74	75	76	76	75	74	73	73	73	73	73	73	79	82	82	81	78	78	82	86	86	86	89	92	97	102	104	105	105	106
6	6	7	7	6	6	6	8	9	9	9	8	8	8	7	7	7	7	7	7	7	7	7	5	4	6	7	7	6	6	4	3	2	1	0	0	0	0	0	0	0	0	0	0	0	0	0	0	0	0	0	0	0	0	0	0	0	0	0	0	0	0	0	0	0	0	0	0	0	0	0	0	0	0	0	0	0	0	0	0	0	0	0	0	0	0	0	0	0	0	0	0	0	0	0	0	0	0	0	0	0	0	0	0	0	0	0	0	0	0	0	0	0	0	0	0	0	0	0	0	0	0	0	0	0	0	0	0	0	0	0	0	0	0	0	0	0	0	0	0	0	0	0	0	0	0	0	0	0	0	0	0	0	0	0	0	0	0	0	0	0	0	0	0	0	0	0	0	0	0	0	0	0	0	0	0	0	0	0	0	0	0	0	0	0	0	0	0	0	0	0	0	0	0	2	5	6	7	7	8	8	7	7	7	7	7	7	7	7	7	8	8	8	8	8	8	8	8	8	8	8	8	8	8	8	8	8	8	8	8	8	8	8	8	10	11	10	9	9	9	9	9	9	10	10	12	18	20	19	19	18	12	9	9	9	8	7	6	6	7	7	8	8	8	8	8	7	8	8	8	8	8	8	9	9	9	9	9	9	9	9	9	8	8	8	8	8	8	8	8	8	8	8	8	8	8	8	8	8	8	8	8	8	8	8	8	8	8	8	8	8	8	8	8	8	8	8	8	8	8	8	8	8	8	8	8	8	8	8	8	8	8	8	8	8	8	8	8	8	8	8	8	8	8	8	9	9	9	9	10	10	11	11	11	11	12	13	12	12	13	13	14	19	29	33	33	34	34	34	32	30	29	29	31	35	39	42	41	40	42	43	43	42	43	43	44	46	48	50	54	60	63	65	68	70	69	71	74	80	85	89	92	93	94	95	99	103	105	105	102	99	100	105	110	110	112	113	114	114	114	115	116	118	121	123	126	127	129	132	136	139	140	141	141	139	138	140	141	142	143	145	147	149	148	147	145	143	142	143	143	141	141	142	141	140	139	138	138	139	139	138	138	137	135	136	138	142	146	149	152	155	159	164	167	171	174	176	177	179	183	185	187	190	192	194	195	196	196	195	195	195	195	194	195	195	194	193	193	194	196	196	196	195	192	190	189	189	188	188	187	186	185	185	185	184	183	182	182	181	180	179	180	184	187	189	188	187	187	189	191	192	194	196	197	199	200	201	201	202	203	206	210	212	214	215	218	220	223	226	229	232	234	237	241	243	244	245	247	247	249	253	256	259	262	265	268	268	267	268	272	275	276	279	283	287	290	293	297	302	305	310	314	318	322	327	330	334	336	338	340	344	346	347	347	347	347	348	349	349	349	348	347	346	346	346	346	346	347	350	353	353	352	351	348	346	347	348	350	352	355	358	360	362	363	363	362	362	364	369	369	364	360	358	355	354	353	354	356	359	362	366	370	372	373	375	377	377	376	374	374	374	370	364	360	358	359	360	362	363	364	364	364	363	362	360	359	360	362	366	371	375	377	380	384	386	389	393	395	397	399	402	403	405	405	407	410	412	414	417	419	421	423	423	424	427	430	433	436	440	445	449	454	460	465	469	474	477	482	487	491	494	499	505	509	513	518	523	526	533	542	550	554	559	564	569	580	589	597	604	609	614	618	622	625	627	627	626	623	617	611	606	600	592	585	578	572	566	560	553	547	541	536	529	521	513	506	501	496	494	492	490	488	485	482	478	474	471	467	464	461	459	457	454	450	446	445	443	439	434	430	426	421	417	413	409	403	397	394	391	387	383	380	375	369	362	356	347	340	334	327	319	312	304	297	282	273	266	263	258	257	256	252	248	243	240	236	233	230	228	226	223	218	213	210	208	203	198	195	181	173	171	169	168	165	162	161	159	158	158	157	157	155	151	148	145	143	142	140	138	136	135	134	134	134	133	131	130	130	130	132	130	126	125	126	127	127	128	133	136	138	139	140	141	142	144	148	153	157	164	171	170	168	171	172	169	165	161	159	156	155	157	162	167	170	171	172	171	170	172	173	173	173	174	175	174	174	174	172	170	167	164	161	159	158	156	155	154	153	153	152	152	151	151	150	148	146	145	142	139	136	132	129	126	122	119	117	114	111	108	105	103	100	97	96	94	92	91	90	89	87	86	85	85	84	82	81	82	82	79	78	77	77	80	81	80	77	71	70	72	74	74	75	77	77	74	73	73	72	72	73	72	72	76	80	81	80	77	77	80	84	83	83	88	94	99	103	105	106	107	108
6	6	7	7	6	6	6	7	8	9	9	8	8	7	7	7	7	7	7	7	7	7	7	4	4	6	7	6	6	6	4	3	2	1	0	0	0	0	0	0	0	0	0	0	0	0	0	0	0	0	0	0	0	0	0	0	0	0	0	0	0	0	0	0	0	0	0	0	0	0	0	0	0	0	0	0	0	0	0	0	0	0	0	0	0	0	0	0	0	0	0	0	0	0	0	0	0	0	0	0	0	0	0	0	0	0	0	0	0	0	0	0	0	0	0	0	0	0	0	0	0	0	0	0	0	0	0	0	0	0	0	0	0	0	0	0	0	0	0	0	0	0	0	0	0	0	0	0	0	0	0	0	0	0	0	0	0	0	0	0	0	0	0	0	0	0	0	0	0	0	0	0	0	0	0	0	0	0	0	0	0	0	0	0	0	0	0	0	0	0	0	0	0	0	1	4	6	6	7	7	7	7	7	7	7	7	7	7	7	7	7	7	7	7	7	8	8	8	8	8	8	8	8	8	8	8	8	8	8	8	8	8	8	8	9	10	9	9	9	9	9	9	9	9	9	10	16	19	18	18	18	13	9	9	9	8	7	7	7	7	8	8	8	8	8	8	8	8	8	8	9	9	9	9	9	9	9	9	9	9	9	9	8	8	8	8	8	8	8	8	8	8	8	8	8	8	8	8	8	8	8	8	8	8	8	8	8	8	8	8	8	8	8	8	8	8	8	8	8	8	8	8	8	8	8	8	8	8	8	8	8	8	8	8	8	8	8	8	8	8	8	8	8	8	8	8	9	9	9	9	10	10	11	11	11	12	12	12	12	12	12	13	14	24	29	33	34	34	35	34	33	31	29	29	30	32	36	37	38	40	41	40	40	41	42	45	47	49	51	54	58	60	63	68	71	68	66	73	82	85	89	92	93	94	95	99	103	105	105	106	102	99	101	105	108	109	110	111	111	111	113	115	116	117	120	123	125	126	128	132	134	135	136	135	134	135	136	137	138	139	141	145	147	146	145	143	142	139	138	138	138	138	138	138	137	136	136	136	136	136	135	134	132	131	133	138	143	146	148	151	154	159	163	166	168	172	174	176	178	181	184	186	189	191	193	194	195	195	194	193	192	191	191	191	192	191	191	191	191	192	193	192	191	189	187	187	187	185	185	184	184	183	183	183	182	180	179	179	179	179	177	178	182	184	185	185	185	187	190	192	193	194	195	196	197	198	199	199	200	202	205	209	212	214	216	219	221	224	227	230	234	236	240	242	244	246	247	248	248	251	255	259	262	265	267	270	271	271	272	274	277	278	281	284	288	293	296	299	302	306	310	314	319	324	327	331	334	336	337	338	341	342	342	344	345	344	344	345	346	346	345	344	343	342	342	344	344	344	345	347	347	347	345	343	343	345	348	351	354	356	358	359	360	360	358	356	356	357	359	363	362	358	355	355	355	352	349	351	356	360	364	367	369	370	371	374	374	372	370	370	369	364	360	357	356	356	358	358	358	358	360	362	361	360	356	355	358	361	366	371	373	376	379	383	385	388	391	393	394	397	399	402	404	403	402	404	408	410	412	414	416	418	420	422	426	429	433	436	441	445	450	456	461	466	471	476	480	484	489	493	497	501	506	510	514	520	525	529	535	544	551	555	560	565	571	582	591	599	605	610	614	619	622	624	626	625	622	618	612	606	601	594	588	581	575	569	563	557	550	543	537	531	522	513	506	499	493	490	489	488	487	486	483	479	475	471	467	463	459	457	457	456	454	450	446	443	440	436	431	426	421	417	413	410	406	400	393	387	384	381	379	376	372	366	361	355	347	339	333	326	320	313	301	294	282	276	273	272	268	265	262	259	255	250	244	240	236	233	231	228	225	221	215	211	209	203	197	194	183	174	171	168	167	163	162	163	164	165	166	165	164	162	160	156	152	150	148	147	146	143	141	138	137	136	134	131	130	129	131	132	128	125	125	124	124	124	125	127	130	132	133	135	138	140	142	146	150	153	158	164	165	165	166	168	165	161	158	155	152	152	155	158	163	167	168	169	168	167	169	171	170	170	169	169	170	171	171	171	169	167	163	161	160	157	154	153	152	151	150	149	149	149	149	150	148	147	145	143	140	136	133	130	126	122	119	116	114	111	108	105	102	99	97	96	95	93	91	90	89	88	87	86	86	84	81	79	79	79	78	77	76	76	75	78	80	75	70	69	71	73	74	76	77	77	74	72	72	72	72	72	72	71	74	78	78	76	76	77	80	82	83	85	89	96	101	103	106	108	109	109
6	6	6	7	6	6	6	6	8	9	9	8	8	7	7	7	7	7	7	7	7	8	7	5	6	6	7	6	6	5	4	3	3	2	0	0	0	0	0	0	0	0	0	0	0	0	0	0	0	0	0	0	0	0	0	0	0	0	0	0	0	0	0	0	0	0	0	0	0	0	0	0	0	0	0	0	0	0	0	0	0	0	0	0	0	0	0	0	0	0	0	0	0	0	0	0	0	0	0	0	0	0	0	0	0	0	0	0	0	0	0	0	0	0	0	0	0	0	0	0	0	0	0	0	0	0	0	0	0	0	0	0	0	0	0	0	0	0	0	0	0	0	0	0	0	0	0	0	0	0	0	0	0	0	0	0	0	0	0	0	0	0	0	0	0	0	0	0	0	0	0	0	0	0	0	0	0	0	0	0	0	0	0	0	0	0	0	0	0	0	0	0	0	0	1	3	6	7	7	7	7	7	7	7	7	7	7	7	7	7	7	7	7	7	7	7	7	7	7	7	7	7	8	8	8	8	8	8	8	8	8	8	8	8	8	8	8	8	8	8	7	8	9	9	10	10	15	19	18	17	18	16	10	9	9	8	8	8	7	8	8	8	8	8	8	8	8	8	8	8	9	9	9	9	9	8	8	8	8	9	9	9	8	8	8	8	8	8	8	8	8	8	8	8	8	8	8	8	8	8	8	8	8	8	8	8	8	8	8	8	8	8	8	8	8	8	8	8	8	8	8	8	8	8	8	8	8	8	8	8	8	8	8	8	8	8	8	8	8	8	8	8	8	8	8	8	8	9	9	9	9	10	10	11	11	11	12	12	12	12	13	13	13	19	24	28	32	34	35	35	35	33	31	30	29	30	32	34	36	39	40	40	39	40	43	46	49	51	53	55	58	60	62	66	70	66	63	70	81	83	85	89	92	94	95	99	103	104	104	107	106	104	101	100	105	106	106	107	108	109	110	112	113	114	117	120	123	124	126	127	128	129	130	129	129	131	132	133	134	137	140	142	144	143	142	141	140	137	135	135	136	136	135	134	133	133	133	132	132	131	132	132	131	130	132	137	142	145	147	150	154	159	162	164	167	170	173	176	178	180	183	186	188	190	192	194	195	194	192	190	189	188	188	188	189	189	188	188	188	188	189	189	188	185	183	183	183	183	182	182	181	180	180	181	180	178	177	177	178	177	176	178	180	181	182	183	185	188	190	191	193	194	195	195	195	196	197	198	199	201	205	208	212	215	217	220	222	225	229	233	236	239	241	244	246	248	250	251	251	253	257	260	263	266	268	271	273	274	274	277	279	281	284	287	291	295	299	302	304	308	312	316	321	325	328	331	333	334	335	336	337	337	337	339	340	340	341	342	343	342	341	340	340	340	341	341	342	342	342	342	342	341	341	341	342	346	350	353	355	356	357	357	358	358	356	353	352	348	346	355	359	353	352	355	358	354	347	350	356	359	362	364	367	368	369	370	370	368	367	366	364	361	359	356	353	354	355	355	355	354	356	360	362	360	355	354	356	361	366	369	371	374	377	382	385	387	388	389	391	394	397	400	402	399	399	403	406	407	408	409	411	415	419	422	426	431	436	440	443	447	451	457	461	466	472	477	481	484	490	495	499	503	507	512	516	521	526	531	537	544	551	555	561	567	571	582	592	599	606	611	615	619	623	624	624	622	617	612	607	602	596	590	584	578	572	567	561	553	546	538	531	523	513	505	500	495	491	486	485	485	484	483	479	475	471	467	463	459	455	455	456	455	453	450	446	442	437	434	429	422	417	413	411	408	403	396	386	382	380	377	375	372	367	363	359	354	348	339	332	326	320	314	302	293	287	283	280	277	274	271	268	264	260	254	248	244	240	236	233	230	227	223	218	214	210	204	198	193	185	175	173	171	167	163	164	166	167	168	170	171	169	167	165	162	159	159	155	152	150	149	147	144	141	140	137	132	130	130	130	130	127	126	125	125	123	123	124	125	126	127	128	131	134	136	139	145	149	150	154	158	160	161	163	164	163	159	154	149	147	149	153	156	159	164	166	166	165	163	166	169	169	168	166	166	166	168	169	170	168	165	163	162	160	156	153	151	150	149	148	147	146	146	147	148	148	146	145	145	142	137	133	130	126	122	119	116	113	111	108	105	102	99	97	97	96	94	93	91	90	89	88	87	87	85	82	81	80	78	77	76	76	76	73	74	76	72	70	70	71	73	78	78	75	74	72	72	72	72	72	72	71	69	70	71	72	72	74	77	80	82	85	87	91	98	103	104	106	109	110	110
6	6	6	7	7	6	6	6	8	9	9	8	8	7	7	7	7	7	7	7	7	8	7	6	6	6	6	6	6	5	3	2	1	1	0	0	0	0	0	0	0	0	0	0	0	0	0	0	0	0	0	0	0	0	0	0	0	0	0	0	0	0	0	0	0	0	0	0	0	0	0	0	0	0	0	0	0	0	0	0	0	0	0	0	0	0	0	0	0	0	0	0	0	0	0	0	0	0	0	0	0	0	0	0	0	0	0	0	0	0	0	0	0	0	0	0	0	0	0	0	0	0	0	0	0	0	0	0	0	0	0	0	0	0	0	0	0	0	0	0	0	0	0	0	0	0	0	0	0	0	0	0	0	0	0	0	0	0	0	0	0	0	0	0	0	0	0	0	0	0	0	0	0	0	0	0	0	0	0	0	0	0	0	0	0	0	0	0	0	0	0	0	0	0	0	3	5	7	7	7	7	7	7	7	7	7	6	6	6	7	7	7	7	7	7	7	7	7	7	7	7	7	7	8	8	8	8	8	8	8	8	8	8	8	10	11	8	8	7	6	6	8	11	11	10	10	13	19	19	16	17	18	12	9	9	9	8	8	8	8	8	8	8	8	8	8	8	8	8	8	9	9	9	9	9	8	8	8	8	8	9	9	8	8	8	8	8	8	8	8	8	8	8	8	8	8	8	8	8	8	8	8	8	8	8	8	8	8	8	8	8	8	8	8	8	8	8	8	8	8	8	8	8	8	8	8	8	8	8	8	8	8	8	8	8	8	8	8	8	8	8	8	8	8	8	8	8	9	9	9	9	9	10	11	11	11	12	12	12	13	13	13	13	14	17	21	26	31	34	35	35	35	34	33	31	30	30	32	34	37	39	40	41	41	44	47	50	52	55	57	59	61	63	64	66	66	65	68	78	80	80	84	88	93	95	97	99	99	99	102	104	105	104	104	105	100	101	104	106	107	108	109	111	112	114	117	120	121	123	123	124	125	126	126	126	127	128	129	131	134	137	139	140	139	138	137	136	134	132	132	132	132	131	130	130	130	129	129	129	129	130	131	131	130	132	136	141	144	146	149	154	158	161	164	166	170	173	175	177	180	184	187	189	191	192	193	193	192	190	188	186	184	184	185	187	187	185	184	184	184	185	185	184	181	179	178	179	180	180	179	178	177	178	178	178	176	175	174	175	176	177	178	179	181	182	183	185	188	189	190	192	193	194	194	194	195	196	198	199	202	206	210	213	216	218	221	224	228	232	236	238	241	244	246	248	251	252	254	254	256	258	262	264	267	270	272	274	276	277	279	282	285	287	290	294	298	303	305	308	311	315	319	323	327	329	330	332	332	333	334	334	334	333	333	334	336	338	339	340	339	337	336	336	338	339	339	338	338	338	338	337	337	338	340	343	347	351	354	355	356	355	354	355	356	354	350	347	343	341	348	353	348	350	357	360	356	349	351	353	356	358	361	364	366	367	368	367	365	364	363	361	360	358	352	350	352	354	353	353	352	352	356	360	359	353	351	355	361	367	369	369	372	374	380	384	384	385	386	387	390	392	393	393	392	394	397	396	398	402	405	409	415	420	425	429	434	439	443	446	449	452	457	461	467	473	478	481	484	489	495	499	502	507	512	517	522	527	532	538	545	551	555	561	568	574	583	592	599	605	611	615	620	622	623	622	618	613	607	602	597	592	587	581	575	570	565	558	551	543	534	528	519	509	504	499	495	489	484	482	481	481	478	474	470	466	462	459	454	452	453	454	453	451	448	445	441	436	432	427	420	414	411	409	406	400	391	382	380	378	375	372	368	364	361	357	353	348	340	334	327	322	317	308	298	292	288	285	282	278	275	271	267	263	257	251	247	243	239	236	233	229	226	221	216	212	206	199	194	188	180	176	174	168	165	167	169	170	172	174	175	173	171	169	166	164	163	161	157	154	152	151	149	146	145	142	136	132	131	130	129	129	127	126	124	124	123	123	123	124	125	126	129	132	133	135	142	148	150	153	156	158	159	161	161	160	156	151	147	145	146	151	155	157	160	162	162	161	160	161	164	166	164	163	163	163	164	166	167	165	163	162	160	158	155	152	150	149	148	146	145	144	144	144	146	145	144	145	145	142	136	132	129	125	121	118	115	112	111	108	104	102	100	99	98	97	96	94	93	91	90	88	88	88	87	85	85	82	78	76	75	75	75	72	72	71	69	69	71	72	75	79	77	72	72	72	72	72	72	72	71	70	69	68	67	67	68	72	76	80	83	86	89	92	98	103	105	107	109	110	111
6	6	6	7	7	6	6	6	8	9	9	8	8	7	7	7	7	7	7	7	7	7	7	6	6	6	6	6	6	5	3	1	-1	0	0	0	0	0	0	0	0	0	0	0	0	0	0	0	0	0	0	0	0	0	0	0	0	0	0	0	0	0	0	0	0	0	0	0	0	0	0	0	0	0	0	0	0	0	0	0	0	0	0	0	0	0	0	0	0	0	0	0	0	0	0	0	0	0	0	0	0	0	0	0	0	0	0	0	0	0	0	0	0	0	0	0	0	0	0	0	0	0	0	0	0	0	0	0	0	0	0	0	0	0	0	0	0	0	0	0	0	0	0	0	0	0	0	0	0	0	0	0	0	0	0	0	0	0	0	0	0	0	0	0	0	0	0	0	0	0	0	0	0	0	0	0	0	0	0	0	0	0	0	0	0	0	0	0	0	0	0	0	0	0	0	2	5	6	7	7	7	7	7	7	7	7	6	6	6	7	7	7	7	7	7	7	8	8	7	7	7	8	8	8	8	9	8	8	8	8	8	8	8	9	12	13	9	8	8	6	5	7	12	13	13	12	11	18	19	16	16	18	14	10	9	9	9	8	8	8	8	8	8	8	8	8	8	8	8	8	9	9	8	8	8	8	8	7	8	8	8	8	8	8	8	8	8	8	8	8	8	8	8	8	8	8	8	8	8	8	8	8	8	8	8	8	8	8	8	8	8	8	8	8	8	8	8	8	8	8	8	8	8	8	8	8	8	8	8	8	8	8	8	8	8	8	8	8	8	8	8	8	8	8	8	8	8	8	9	9	9	9	9	10	11	12	12	12	12	13	13	13	12	13	14	18	21	25	31	34	35	35	36	35	33	31	30	30	32	35	37	39	40	42	45	48	50	53	55	57	59	61	62	63	65	68	72	72	76	77	78	80	84	91	95	94	95	95	94	96	100	102	104	104	104	99	96	100	104	106	106	107	108	110	112	115	116	118	119	121	121	122	123	124	125	125	126	127	128	131	133	134	135	135	134	132	131	130	129	129	129	130	129	128	127	127	127	127	127	129	129	130	130	131	133	136	139	143	146	150	154	156	159	163	166	169	171	175	178	181	184	187	189	191	191	191	190	188	186	185	183	181	180	181	183	183	182	182	181	181	181	181	180	179	177	175	175	176	177	176	175	175	175	175	175	174	173	172	173	175	177	178	179	181	183	184	185	187	189	190	191	192	192	192	193	194	196	198	200	204	208	212	215	217	220	223	227	231	236	239	241	243	245	248	250	252	255	257	258	259	261	263	265	268	272	274	276	278	280	282	285	287	290	292	296	301	305	309	311	313	318	322	324	327	328	329	330	330	331	332	333	332	330	330	331	333	335	337	337	336	334	333	332	333	334	334	333	334	334	333	333	335	338	341	344	349	351	353	353	353	351	350	351	351	348	345	343	340	339	340	342	345	353	358	357	352	347	347	349	353	355	357	360	362	364	366	365	362	361	361	360	359	358	350	346	349	351	351	351	351	350	351	352	352	350	349	354	362	367	369	368	369	370	374	379	381	382	382	383	385	387	387	387	387	388	388	388	392	396	400	408	416	421	426	431	435	441	446	449	451	454	458	464	470	476	479	481	484	488	493	498	502	506	511	518	524	529	533	539	545	551	556	563	570	577	583	591	597	603	609	615	619	621	621	620	615	609	604	599	593	588	583	577	572	567	561	555	548	540	532	525	519	510	504	499	494	488	483	480	477	475	472	469	465	461	458	455	451	448	449	450	449	448	446	444	439	434	430	425	418	413	410	407	403	396	388	382	380	376	373	370	366	362	359	355	351	346	341	336	331	326	321	314	304	298	294	290	286	282	277	273	269	264	258	252	249	246	243	240	236	232	227	223	219	214	208	201	195	189	183	179	176	172	170	171	172	174	177	180	180	178	175	172	170	167	166	165	162	158	155	154	152	149	148	146	143	139	136	134	133	131	128	126	124	123	123	122	123	123	123	122	125	128	130	132	138	144	147	151	154	156	158	159	158	157	153	149	146	143	144	149	153	155	156	157	157	157	159	160	160	160	159	160	160	160	160	161	163	163	161	160	158	156	154	151	150	149	147	145	144	143	142	142	142	143	143	143	141	138	134	131	128	123	120	117	114	111	110	107	104	103	102	101	100	99	98	96	94	92	91	89	88	88	88	87	85	81	77	75	74	74	73	71	71	70	70	71	72	73	74	75	73	72	72	72	72	72	74	72	70	69	68	68	67	67	67	71	76	79	83	87	91	95	99	103	105	106	108	109	111
6	6	6	7	7	6	6	6	7	8	9	8	7	7	7	7	7	7	7	7	7	7	7	7	7	7	6	6	5	4	2	0	0	0	0	0	0	0	0	0	0	0	0	0	0	0	0	0	0	0	0	0	0	0	0	0	0	0	0	0	0	0	0	0	0	0	0	0	0	0	0	0	0	0	0	0	0	0	0	0	0	0	0	0	0	0	0	0	0	0	0	0	0	0	0	0	0	0	0	0	0	0	0	0	0	0	0	0	0	0	0	0	0	0	0	0	0	0	0	0	0	0	0	0	0	0	0	0	0	0	0	0	0	0	0	0	0	0	0	0	0	0	0	0	0	0	0	0	0	0	0	0	0	0	0	0	0	0	0	0	0	0	0	0	0	0	0	0	0	0	0	0	0	0	0	0	0	0	0	0	0	0	0	0	0	0	0	0	0	0	0	0	0	0	0	1	4	6	7	7	7	7	7	7	7	7	6	6	7	7	7	7	7	7	7	7	7	7	7	7	8	10	10	9	8	8	8	8	8	8	9	9	9	9	11	11	9	9	8	7	6	7	12	15	15	14	11	16	19	17	16	18	16	11	9	9	9	9	9	8	8	8	8	8	9	9	9	8	8	8	9	8	8	8	8	8	8	7	8	8	8	8	8	8	8	8	8	8	8	8	8	8	8	8	8	8	8	8	8	8	8	8	8	8	8	8	8	8	8	8	8	8	8	8	8	8	8	8	8	8	8	8	8	8	8	8	8	8	8	8	8	8	8	8	8	8	8	8	8	8	8	8	8	8	8	8	8	8	8	9	9	9	9	9	10	11	12	12	12	13	12	13	13	13	13	15	18	21	26	31	34	35	36	36	36	34	32	30	31	33	34	37	38	40	45	47	50	52	55	56	58	60	61	62	64	68	73	75	76	76	77	78	79	84	90	91	91	92	92	94	97	100	101	102	103	102	99	96	100	104	104	105	106	107	109	111	114	115	117	118	119	119	120	121	122	123	124	125	125	127	128	130	131	131	130	128	127	126	126	126	127	128	127	126	125	125	124	125	126	127	128	127	128	130	134	136	139	142	146	151	154	156	159	162	165	168	171	175	178	182	185	187	189	190	191	190	188	185	183	182	181	179	179	179	180	180	180	179	179	178	177	177	177	176	174	172	172	173	174	173	172	173	173	173	172	172	171	171	172	175	177	178	180	182	186	186	185	186	188	189	189	190	191	191	193	195	197	199	201	205	209	212	215	218	222	226	229	232	237	239	241	244	246	249	252	255	257	259	261	262	264	265	266	270	273	276	278	281	283	285	288	290	292	295	299	303	307	311	313	315	318	322	324	325	326	327	328	328	328	328	330	330	329	328	329	330	332	333	333	332	331	330	329	328	327	327	327	330	330	329	329	334	338	342	345	349	351	352	352	349	347	345	345	343	342	340	337	335	332	332	334	338	343	345	345	342	340	342	348	352	353	355	357	359	360	361	360	357	357	358	357	357	356	347	341	342	345	346	347	348	347	347	346	343	344	347	352	362	365	367	367	366	366	368	372	376	377	378	378	378	378	379	381	382	383	386	387	390	394	398	409	417	422	427	432	438	444	448	451	453	456	462	468	473	478	481	483	486	489	493	498	501	505	511	518	525	531	535	540	546	552	558	565	572	578	584	591	596	601	608	614	618	619	618	616	610	605	600	595	589	583	578	573	568	562	556	549	543	535	529	523	517	510	503	498	493	487	481	477	472	469	466	464	461	457	455	452	450	447	444	445	446	445	444	442	437	431	427	422	417	411	408	404	400	394	389	383	379	376	373	370	366	362	358	354	350	346	342	338	334	330	324	318	308	303	298	294	289	284	280	275	271	266	260	253	250	247	245	242	238	233	228	223	219	215	209	202	196	190	184	180	178	177	176	175	176	178	181	183	182	182	179	175	173	171	169	168	166	162	158	156	155	153	151	149	146	144	141	139	137	133	129	126	125	124	123	123	123	122	120	119	121	125	127	131	136	140	143	147	150	153	156	156	155	154	152	148	144	141	143	148	152	153	155	155	154	153	156	159	158	156	155	156	156	156	156	157	159	160	160	159	157	155	153	151	150	149	148	146	144	143	142	140	139	139	141	141	139	136	132	129	126	122	119	116	113	110	109	107	106	104	103	103	102	101	99	97	95	93	92	90	88	88	88	86	83	81	79	76	74	73	71	71	71	72	74	74	73	72	72	72	72	72	71	71	71	72	73	72	69	68	68	68	66	67	71	73	76	80	84	88	93	98	101	103	105	106	107	108	110
6	6	6	7	7	6	6	6	7	8	9	8	7	7	7	7	7	7	7	7	7	7	7	7	6	6	6	6	5	4	2	1	0	0	0	0	0	0	0	0	0	0	0	0	0	0	0	0	0	0	0	0	0	0	0	0	0	0	0	0	0	0	0	0	0	0	0	0	0	0	0	0	0	0	0	0	0	0	0	0	0	0	0	0	0	0	0	0	0	0	0	0	0	0	0	0	0	0	0	0	0	0	0	0	0	0	0	0	0	0	0	0	0	0	0	0	0	0	0	0	0	0	0	0	0	0	0	0	0	0	0	0	0	0	0	0	0	0	0	0	0	0	0	0	0	0	0	0	0	0	0	0	0	0	0	0	0	0	0	0	0	0	0	0	0	0	0	0	0	0	0	0	0	0	0	0	0	0	0	0	0	0	0	0	0	0	0	0	0	0	0	0	0	0	0	1	4	6	7	7	7	7	7	7	7	7	7	7	7	7	8	9	9	8	7	7	7	7	8	10	12	14	10	8	8	8	8	8	8	9	9	9	9	8	8	8	8	9	9	8	6	6	9	14	16	15	11	14	19	18	17	18	18	15	10	9	9	9	9	9	9	9	8	9	9	9	8	8	8	8	8	8	8	8	8	8	8	8	8	8	8	8	8	8	8	8	8	8	8	8	8	8	8	8	8	8	8	8	8	8	8	8	8	8	8	8	8	8	8	8	8	8	8	8	8	8	8	8	8	8	8	8	8	8	8	8	8	8	8	8	8	8	8	8	8	8	8	8	8	8	8	8	8	8	8	8	8	8	8	9	9	9	9	9	9	11	12	13	13	13	13	13	13	13	14	14	16	20	24	28	32	34	35	36	36	36	35	33	31	31	33	36	36	36	40	45	48	51	54	55	56	58	59	61	63	65	70	75	76	76	75	76	78	80	82	86	88	89	91	92	96	99	100	99	100	101	101	96	97	102	103	104	104	104	105	107	111	112	114	115	116	116	117	119	120	121	122	122	123	124	125	127	127	128	127	125	123	123	122	123	125	125	125	124	124	124	123	122	123	124	125	125	127	131	135	137	139	142	146	150	154	156	158	162	166	169	172	175	179	182	185	186	188	188	189	188	185	182	181	180	179	178	177	176	177	178	178	177	175	174	173	173	174	173	171	170	169	170	171	171	171	171	171	171	170	170	170	171	172	174	176	178	179	183	189	188	185	186	186	187	188	189	190	191	194	197	200	201	203	206	209	212	215	219	223	227	229	233	237	239	242	245	248	251	254	257	259	261	264	265	267	267	268	271	275	277	279	283	286	289	291	292	295	298	302	305	308	312	314	316	318	320	323	323	324	324	324	324	324	324	325	325	325	326	327	328	329	329	329	329	328	327	326	324	322	321	322	325	326	326	329	334	338	342	345	349	350	350	348	344	342	342	340	338	336	334	331	330	327	327	327	328	329	329	332	333	334	337	343	348	350	352	354	355	357	356	355	354	354	354	353	353	350	342	338	338	340	341	342	343	343	343	341	337	339	344	350	358	363	365	366	365	364	364	366	370	372	372	371	371	370	371	376	379	381	386	388	390	394	398	409	418	422	427	434	442	447	450	453	456	460	466	471	476	480	482	485	489	492	495	499	502	506	512	518	525	532	537	542	548	553	559	565	571	577	584	590	595	600	606	612	616	617	615	611	606	601	596	591	584	578	573	570	565	558	552	545	539	532	526	520	514	508	502	496	490	484	479	474	468	465	461	458	456	452	451	450	448	444	440	441	442	442	441	438	433	428	424	419	414	410	406	402	399	394	390	385	381	377	374	371	368	363	359	355	351	348	344	340	337	333	327	320	311	304	301	296	290	286	283	278	273	268	262	256	252	248	246	243	239	234	228	222	218	214	209	202	196	190	185	182	180	180	180	181	182	184	186	186	186	186	184	180	176	174	171	169	168	165	162	159	158	156	154	151	148	146	145	142	140	137	132	128	127	126	124	123	123	121	119	118	120	124	125	128	133	138	141	145	149	151	152	153	152	151	150	147	143	141	143	146	149	151	152	152	151	150	150	152	152	151	151	152	152	152	152	155	156	157	157	157	155	153	152	150	149	149	149	147	145	143	141	140	138	136	137	137	136	133	130	128	124	121	118	115	112	110	108	108	107	106	106	105	104	103	101	99	96	94	92	90	89	88	88	85	80	80	81	78	74	72	71	70	71	73	75	75	73	72	72	72	72	71	71	70	70	71	71	70	68	68	69	68	66	66	71	75	77	81	85	89	94	98	100	102	104	105	106	108	109
6	6	6	6	7	6	6	6	7	8	9	8	7	7	7	7	7	7	7	7	7	7	6	6	6	6	6	5	4	3	2	1	0	0	0	0	0	0	0	0	0	0	0	0	0	0	0	0	0	0	0	0	0	0	0	0	0	0	0	0	0	0	0	0	0	0	0	0	0	0	0	0	0	0	0	0	0	0	0	0	0	0	0	0	0	0	0	0	0	0	0	0	0	0	0	0	0	0	0	0	0	0	0	0	0	0	0	0	0	0	0	0	0	0	0	0	0	0	0	0	0	0	0	0	0	0	0	0	0	0	0	0	0	0	0	0	0	0	0	0	0	0	0	0	0	0	0	0	0	0	0	0	0	0	0	0	0	0	0	0	0	0	0	0	0	0	0	0	0	0	0	0	0	0	0	0	0	0	0	0	0	0	0	0	0	0	0	0	0	0	0	0	0	0	0	0	3	6	7	7	7	7	7	7	7	7	7	7	7	8	10	12	11	9	7	6	7	8	13	16	13	11	8	8	8	8	8	8	8	8	8	8	9	8	8	8	8	8	9	8	7	7	7	11	15	14	12	13	18	19	15	14	17	17	12	10	10	10	10	9	9	9	9	9	9	8	8	8	8	8	8	8	8	8	8	8	8	8	8	8	8	8	8	8	8	8	8	8	8	8	8	8	8	8	8	8	8	8	8	8	8	8	8	8	8	8	8	8	8	8	8	8	8	8	8	8	8	8	8	8	8	8	8	8	8	8	8	8	8	8	8	8	8	8	8	8	8	8	8	8	8	8	8	8	8	8	8	8	8	8	8	9	9	9	9	10	12	12	13	13	13	13	13	13	14	14	16	19	24	27	30	33	35	36	36	37	37	36	34	33	35	35	33	33	35	39	41	45	50	53	55	57	57	58	61	63	67	75	77	77	74	75	77	78	80	83	86	88	90	91	94	97	99	99	99	99	99	98	96	98	99	100	101	101	102	105	107	109	110	111	112	113	115	117	117	118	120	120	120	121	122	123	124	124	124	122	121	120	120	121	122	122	122	122	122	122	121	120	120	122	124	124	126	130	134	137	140	143	146	150	153	156	159	163	167	170	173	176	179	182	184	185	185	184	184	183	181	180	178	177	176	175	173	173	175	175	174	173	172	171	170	170	171	171	169	168	167	167	167	169	170	170	169	169	168	168	169	171	172	174	176	177	179	181	187	186	184	184	185	185	186	188	189	192	196	199	202	203	205	208	211	215	217	220	224	227	230	234	237	240	243	246	250	253	256	258	261	264	266	267	269	270	271	274	277	279	281	285	289	292	294	296	298	301	304	307	310	312	314	316	316	318	320	321	320	320	320	319	319	318	318	318	319	322	323	325	326	326	326	326	325	323	321	319	317	316	316	319	321	325	329	333	337	340	344	347	348	346	342	338	337	336	335	332	331	329	327	326	325	325	324	323	323	323	324	327	331	334	338	343	348	351	352	352	352	353	351	351	350	350	350	347	342	337	336	337	337	337	338	338	338	338	336	335	336	341	347	353	358	361	363	364	363	362	361	364	366	364	361	363	364	367	371	375	378	385	388	391	395	400	409	419	423	428	436	443	447	452	456	461	465	470	474	478	482	485	488	492	496	499	502	506	510	514	519	525	532	538	543	549	554	559	564	570	577	583	589	594	599	605	610	613	614	610	606	602	598	592	586	579	573	570	566	560	554	548	541	535	530	524	518	513	507	500	493	486	480	476	471	465	459	454	451	449	448	448	447	445	441	439	440	440	440	438	435	431	426	422	418	414	409	405	402	399	395	391	387	384	380	376	372	369	365	360	356	352	349	345	342	338	334	327	322	314	307	302	297	292	288	284	280	275	270	264	258	253	250	246	243	239	234	227	220	216	212	207	201	196	192	188	185	185	185	185	186	188	190	190	190	190	191	189	185	180	177	174	172	170	167	164	162	161	159	156	153	150	148	146	144	142	140	136	131	129	126	125	123	122	121	120	119	119	123	124	125	129	135	140	144	148	150	150	150	150	150	148	144	142	142	143	144	145	147	148	148	148	148	147	146	146	146	147	147	147	148	150	152	154	154	154	154	153	152	152	150	149	149	149	147	145	143	141	140	138	135	134	134	132	130	128	125	122	119	117	114	112	111	110	110	109	109	108	107	106	104	102	99	97	95	92	91	89	88	87	85	80	78	79	78	74	71	70	70	70	72	74	74	73	72	72	72	72	71	70	70	70	70	69	69	68	68	68	67	66	66	70	75	78	81	85	90	94	97	98	100	102	104	105	106	107
6	6	6	6	7	6	6	6	7	8	8	8	7	7	7	7	7	6	6	7	7	6	6	6	6	5	5	4	3	2	1	1	0	0	0	0	0	0	0	0	0	0	0	0	0	0	0	0	0	0	0	0	0	0	0	0	0	0	0	0	0	0	0	0	0	0	0	0	0	0	0	0	0	0	0	0	0	0	0	0	0	0	0	0	0	0	0	0	0	0	0	0	0	0	0	0	0	0	0	0	0	0	0	0	0	0	0	0	0	0	0	0	0	0	0	0	0	0	0	0	0	0	0	0	0	0	0	0	0	0	0	0	0	0	0	0	0	0	0	0	0	0	0	0	0	0	0	0	0	0	0	0	0	0	0	0	0	0	0	0	0	0	0	0	0	0	0	0	0	0	0	0	0	0	0	0	0	0	0	0	0	0	0	0	0	0	0	0	0	0	0	0	0	0	0	0	2	5	6	7	7	7	7	7	7	7	7	7	7	8	11	12	10	8	7	6	7	8	14	14	9	8	8	8	8	8	8	8	8	8	8	8	9	8	8	8	8	8	8	8	8	8	7	8	9	10	12	13	16	18	14	11	15	19	18	13	12	11	10	10	9	9	9	9	9	8	8	8	8	8	8	8	8	8	8	8	8	8	8	8	8	8	8	8	8	8	8	8	8	8	8	8	8	8	8	8	8	8	8	8	8	8	8	8	8	8	8	8	8	8	8	8	8	8	8	8	8	8	8	8	8	8	8	8	8	8	8	8	8	8	8	8	8	8	8	8	8	8	8	8	8	8	8	8	8	8	8	8	8	8	8	8	9	9	9	9	11	12	12	13	13	13	14	14	14	16	19	21	24	26	28	31	33	34	36	37	37	37	37	37	37	33	32	33	33	33	35	41	46	50	54	56	56	56	59	61	66	74	76	77	75	75	76	77	78	81	83	86	89	92	93	95	98	100	100	99	98	99	98	94	93	94	96	99	101	103	104	105	107	108	109	110	112	114	115	116	117	117	116	117	118	119	120	121	121	120	119	119	118	118	118	119	120	119	120	120	120	118	119	121	123	124	126	129	132	136	140	144	146	149	153	156	160	164	168	170	173	176	178	181	182	182	181	180	180	179	179	177	176	175	173	172	170	170	171	170	168	167	167	168	168	168	168	167	166	165	165	164	164	168	170	168	166	167	167	167	168	170	172	174	176	177	178	180	182	183	182	183	183	185	186	188	190	194	198	201	204	205	207	210	215	219	220	221	224	227	231	235	238	240	243	247	251	254	257	260	263	266	267	269	270	272	274	277	280	282	284	287	292	295	297	299	302	304	306	308	310	312	313	314	314	315	315	315	316	317	316	315	313	313	312	313	315	318	321	323	324	324	324	323	322	320	317	315	313	312	313	317	321	326	330	334	337	339	341	342	341	339	337	334	333	331	330	329	327	326	325	324	324	325	324	321	322	322	322	324	328	331	335	340	345	350	350	349	351	351	348	346	345	345	344	343	337	334	334	334	334	334	333	333	333	331	330	331	335	340	344	349	353	356	359	360	359	358	359	360	359	359	358	360	361	365	369	373	377	384	388	391	397	401	408	419	423	428	437	444	449	454	458	464	468	472	475	479	484	488	491	494	499	504	507	510	513	517	521	527	533	539	543	548	554	559	564	570	576	582	588	593	598	604	608	609	609	606	602	598	593	587	581	574	569	566	561	555	549	544	538	532	527	523	517	512	506	498	490	482	477	473	469	462	456	450	446	446	446	445	443	440	437	438	439	438	437	435	433	430	426	422	419	414	409	406	403	400	397	394	390	387	383	379	374	370	366	362	357	352	348	345	342	338	333	327	322	317	310	305	299	294	290	286	281	276	271	264	258	254	250	246	242	238	233	226	218	214	211	206	202	198	194	192	191	191	191	191	192	193	194	194	193	193	193	191	188	184	180	177	175	172	169	167	165	163	161	159	155	153	151	148	146	145	143	139	135	132	129	127	125	122	121	120	119	119	122	123	124	127	133	139	143	147	149	149	149	149	147	145	142	141	142	143	143	143	144	145	145	145	146	145	143	142	141	141	142	142	143	146	149	152	152	151	151	151	151	151	150	149	148	148	147	145	142	141	140	138	135	133	132	130	128	126	123	120	118	116	114	113	113	113	112	112	111	109	108	106	104	102	100	97	95	92	90	88	87	86	84	80	78	78	76	73	71	70	70	70	71	73	73	73	72	72	71	71	70	70	70	70	70	69	69	68	68	67	67	66	67	70	75	78	81	85	89	93	95	96	98	100	102	104	105	106
6	6	6	6	7	6	6	6	6	8	8	8	7	7	7	7	7	6	6	7	6	6	6	5	5	4	3	2	1	1	1	0	0	0	0	0	0	0	0	0	0	0	0	0	0	0	0	0	0	0	0	0	0	0	0	0	0	0	0	0	0	0	0	0	0	0	0	0	0	0	0	0	0	0	0	0	0	0	0	0	0	0	0	0	0	0	0	0	0	0	0	0	0	0	0	0	0	0	0	0	0	0	0	0	0	0	0	0	0	0	0	0	0	0	0	0	0	0	0	0	0	0	0	0	0	0	0	0	0	0	0	0	0	0	0	0	0	0	0	0	0	0	0	0	0	0	0	0	0	0	0	0	0	0	0	0	0	0	0	0	0	0	0	0	0	0	0	0	0	0	0	0	0	0	0	0	0	0	0	0	0	0	0	0	0	0	0	0	0	0	0	0	0	0	0	0	1	4	6	7	7	7	7	7	7	7	7	7	7	7	10	11	9	9	8	7	7	7	9	9	8	8	8	8	8	8	8	8	8	8	8	8	8	9	9	9	9	8	8	8	8	8	8	7	6	8	12	13	15	18	17	11	12	18	21	16	13	12	11	10	10	9	9	9	9	8	8	9	8	8	8	8	8	8	8	8	8	8	8	8	8	8	8	8	8	8	8	8	8	8	8	8	8	8	8	8	8	8	8	8	8	8	8	8	8	8	8	8	8	8	8	8	8	8	8	8	8	8	8	8	8	8	8	8	8	8	8	8	8	8	8	8	8	8	8	8	8	8	8	8	8	8	8	8	8	8	8	8	8	8	8	8	9	9	9	9	10	11	12	13	13	14	14	14	14	17	21	23	24	25	27	30	31	33	35	36	37	37	37	38	37	34	32	32	33	33	34	38	45	49	54	55	54	55	58	60	64	71	75	74	70	72	75	75	77	79	81	83	87	90	92	93	94	97	98	97	96	97	99	96	95	93	93	94	97	100	101	102	104	106	107	107	109	111	112	113	114	114	113	113	114	115	117	118	118	118	118	117	116	115	115	116	117	118	118	118	118	117	118	119	121	124	126	128	131	136	141	145	147	150	154	157	161	165	167	170	173	175	177	179	180	179	178	177	177	177	176	175	174	172	171	169	167	167	166	166	165	164	163	164	164	163	163	163	162	162	162	161	162	166	168	165	164	165	166	167	169	171	172	174	175	176	178	179	180	181	182	183	184	186	188	190	192	197	200	203	206	207	209	211	216	221	223	223	225	229	234	237	239	239	241	247	251	254	257	261	264	267	268	270	272	274	276	279	282	285	287	290	295	298	299	302	304	305	306	308	310	311	311	311	311	310	309	309	311	312	312	310	308	309	309	310	312	315	318	320	321	322	321	320	319	317	314	311	310	310	312	318	323	328	332	334	336	337	337	337	336	336	334	332	330	328	329	328	324	322	321	320	322	325	324	319	319	322	322	323	327	330	334	339	341	345	346	349	351	350	346	344	343	342	341	338	333	331	331	331	330	331	331	330	329	327	325	327	332	340	342	345	348	350	352	353	352	353	355	355	355	356	357	359	360	362	366	372	377	384	388	390	397	402	406	417	423	426	436	444	450	455	459	464	470	474	477	481	486	490	492	497	503	508	511	514	517	520	524	529	535	539	543	548	555	561	565	570	576	581	586	592	597	602	605	606	605	601	596	592	587	582	576	571	566	562	557	551	545	540	534	529	524	521	516	510	503	494	486	479	475	471	465	460	455	447	444	442	442	441	438	435	435	437	437	435	434	433	431	430	427	424	420	415	410	408	406	403	399	396	392	389	386	381	376	372	367	361	356	351	347	344	340	337	333	326	321	317	311	306	301	295	291	286	281	276	271	263	256	253	249	244	240	236	232	225	218	214	209	207	204	202	199	197	197	197	197	197	197	197	198	198	197	196	194	191	190	187	183	180	178	175	172	170	168	166	164	161	158	156	154	151	149	148	145	141	138	134	131	130	128	124	121	121	120	121	124	123	123	126	132	138	141	145	147	147	148	147	144	142	140	140	142	142	141	141	141	141	141	142	142	140	138	137	137	136	137	137	138	140	144	150	151	150	149	149	149	150	149	148	147	146	145	143	141	140	139	137	135	133	132	129	126	124	121	119	118	116	115	115	116	116	115	114	113	111	109	107	104	102	99	96	94	92	89	87	86	85	83	80	78	77	75	73	71	71	70	70	70	71	72	72	72	72	71	70	70	70	70	70	71	70	68	67	67	67	67	66	66	69	74	77	80	83	87	92	94	95	96	98	100	102	103	104
6	6	6	6	7	7	6	6	6	7	8	8	7	7	7	7	7	6	6	6	6	6	5	4	3	3	2	1	1	0	0	0	0	0	0	0	0	0	0	0	0	0	0	0	0	0	0	0	0	0	0	0	0	0	0	0	0	0	0	0	0	0	0	0	0	0	0	0	0	0	0	0	0	0	0	0	0	0	0	0	0	0	0	0	0	0	0	0	0	0	0	0	0	0	0	0	0	0	0	0	0	0	0	0	0	0	0	0	0	0	0	0	0	0	0	0	0	0	0	0	0	0	0	0	0	0	0	0	0	0	0	0	0	0	0	0	0	0	0	0	0	0	0	0	0	0	0	0	0	0	0	0	0	0	0	0	0	0	0	0	0	0	0	0	0	0	0	0	0	0	0	0	0	0	0	0	0	0	0	0	0	0	0	0	0	0	0	0	0	0	0	0	0	0	0	0	1	3	6	7	7	7	7	7	7	7	7	7	7	7	7	7	7	8	7	7	7	7	8	8	8	8	8	8	8	8	8	8	8	8	8	8	8	9	8	8	8	8	8	8	8	8	9	8	7	7	12	16	14	18	18	14	10	15	20	17	13	13	13	11	10	9	9	9	9	9	9	9	9	9	9	9	8	8	8	8	8	8	8	8	8	8	8	8	8	8	8	8	8	8	8	8	8	8	8	8	8	8	8	8	8	8	8	8	8	8	8	8	8	8	8	8	8	8	8	8	8	8	8	8	8	8	8	8	8	8	8	8	8	8	8	8	8	8	8	8	8	8	8	8	8	8	8	8	8	8	8	8	8	8	8	8	9	9	9	9	9	10	11	12	13	14	14	14	14	16	21	24	26	26	27	29	30	31	34	36	37	38	38	38	38	37	35	33	33	33	34	36	43	48	53	55	53	54	57	59	61	67	73	72	66	66	73	75	76	78	79	81	83	86	89	90	91	92	92	91	92	94	96	97	97	97	93	91	91	94	97	99	101	105	106	106	107	108	109	109	110	111	110	110	111	112	114	115	115	116	116	115	113	113	112	113	115	116	116	116	117	116	117	118	120	123	126	129	133	137	141	144	147	151	155	159	162	165	167	170	172	174	176	177	177	176	175	175	175	175	174	173	171	170	168	167	165	163	163	163	164	161	159	158	159	158	159	159	159	158	159	160	160	162	165	164	164	165	166	168	171	172	173	174	174	175	176	178	180	180	181	184	186	188	189	192	195	200	204	207	209	210	211	213	218	223	225	226	229	233	238	240	240	240	241	246	250	253	256	260	264	267	270	272	274	276	279	282	284	287	289	293	297	299	300	303	304	305	306	308	309	308	308	309	309	307	305	306	307	307	306	305	305	305	306	307	308	312	315	317	318	319	318	317	316	314	311	309	308	310	313	319	324	328	332	334	335	335	334	333	333	332	331	328	325	325	326	324	319	316	316	316	317	321	318	315	317	321	322	323	326	332	336	339	339	341	344	348	351	349	346	344	342	340	338	335	330	328	327	327	327	328	328	327	325	324	324	326	330	338	340	342	344	345	347	348	347	347	348	350	353	355	355	357	359	362	365	370	377	384	388	391	397	402	406	416	421	426	435	445	452	456	460	466	473	478	481	484	487	490	494	499	506	510	513	517	520	523	527	531	537	541	544	549	556	562	566	570	576	581	586	591	596	600	602	603	601	597	591	586	581	577	573	568	563	559	553	547	542	536	530	524	521	518	513	507	499	490	483	477	472	468	462	459	453	445	439	437	436	435	432	431	432	433	432	431	430	428	428	428	427	425	422	418	414	411	409	405	401	399	395	391	387	383	378	373	367	361	355	350	346	342	338	336	332	326	320	316	311	306	301	296	291	286	280	275	269	261	255	251	247	242	237	234	230	224	219	215	210	207	207	207	205	203	203	203	203	203	202	202	202	202	200	198	195	193	191	189	186	183	180	178	175	172	170	169	167	164	161	158	156	153	151	149	146	142	139	136	133	131	130	126	122	121	119	120	122	121	122	124	130	136	139	141	143	143	144	143	141	140	139	139	141	141	139	139	138	138	137	138	137	135	133	133	133	132	132	133	134	136	140	146	148	148	148	148	147	147	147	146	145	144	143	141	140	138	138	136	134	133	131	129	126	124	122	121	120	118	118	118	118	118	117	115	113	111	109	106	103	100	97	95	93	90	88	87	86	84	83	82	80	78	77	74	72	71	70	69	69	70	72	73	72	71	70	70	69	69	69	70	70	70	68	67	66	66	66	66	66	68	72	75	79	82	85	89	92	93	95	96	98	100	101	102
6	6	6	6	6	7	6	6	6	7	8	8	7	7	7	7	6	6	6	6	6	5	4	3	3	2	1	1	0	0	0	0	0	0	0	0	0	0	0	0	0	0	0	0	0	0	0	0	0	0	0	0	0	0	0	0	0	0	0	0	0	0	0	0	0	0	0	0	0	0	0	0	0	0	0	0	0	0	0	0	0	0	0	0	0	0	0	0	0	0	0	0	0	0	0	0	0	0	0	0	0	0	0	0	0	0	0	0	0	0	0	0	0	0	0	0	0	0	0	0	0	0	0	0	0	0	0	0	0	0	0	0	0	0	0	0	0	0	0	0	0	0	0	0	0	0	0	0	0	0	0	0	0	0	0	0	0	0	0	0	0	0	0	0	0	0	0	0	0	0	0	0	0	0	0	0	0	0	0	0	0	0	0	0	0	0	0	0	0	0	0	0	0	0	0	0	0	3	6	7	7	7	7	7	7	8	7	7	7	7	6	6	6	7	7	7	7	7	8	8	8	8	8	8	8	8	8	8	8	8	8	8	8	8	8	8	8	8	8	8	8	8	8	8	7	7	10	15	12	15	19	15	11	15	20	19	16	16	15	13	11	9	9	9	9	9	9	9	9	9	9	9	8	8	8	8	8	8	8	8	8	8	8	8	8	8	8	8	8	8	8	8	8	8	8	8	8	8	8	8	8	8	8	8	8	8	8	8	8	8	8	8	8	8	8	8	8	8	8	8	8	8	8	8	8	8	8	8	8	8	8	8	8	8	8	8	8	8	8	8	8	8	8	8	8	8	8	8	8	8	8	8	9	9	9	9	9	9	10	12	13	14	14	14	14	15	19	24	27	28	29	30	30	31	33	36	37	38	38	38	38	39	37	35	34	33	34	35	39	44	48	52	53	54	57	59	60	66	71	73	69	65	70	74	76	77	78	79	80	82	85	88	89	89	88	88	91	92	93	94	97	97	96	92	91	91	92	94	96	101	104	105	106	107	107	107	107	108	108	109	109	110	111	112	113	114	114	112	110	110	110	110	112	114	115	115	115	116	117	118	120	122	125	130	136	138	140	144	148	151	155	160	163	165	167	170	172	174	175	176	175	173	172	173	173	173	172	170	168	166	165	164	162	161	160	160	160	157	154	154	154	155	156	156	155	156	157	159	160	161	162	164	166	166	167	170	172	173	173	173	173	173	175	177	179	180	181	185	187	189	191	194	198	202	206	209	212	213	214	216	220	225	228	229	232	237	241	242	242	243	244	248	251	253	256	260	263	269	273	275	276	279	281	284	286	289	291	294	298	299	301	303	304	304	305	306	306	306	306	306	306	304	303	304	303	303	302	301	301	301	302	303	305	309	313	314	315	315	314	313	313	310	307	306	307	311	315	319	322	326	330	331	332	332	331	329	329	328	325	323	321	320	320	318	314	312	312	312	311	312	311	310	313	319	322	323	326	332	336	337	339	341	343	345	347	346	344	342	339	338	336	333	328	326	326	325	323	324	324	323	323	322	322	324	328	335	339	340	341	343	344	345	344	343	343	347	352	354	355	356	359	363	367	371	376	384	389	391	397	403	408	416	420	425	434	446	452	457	463	470	476	481	484	487	489	492	496	501	507	511	515	519	523	526	530	535	540	543	546	551	557	562	567	571	576	581	586	591	596	599	600	599	597	592	586	581	577	573	569	564	560	555	549	544	538	532	525	521	518	514	509	503	495	487	480	474	469	464	459	455	449	441	435	433	432	430	427	428	430	431	429	426	424	424	425	426	425	424	423	420	417	415	412	408	403	400	397	392	387	383	378	372	366	360	355	350	345	340	336	334	330	324	318	314	309	305	300	295	291	285	279	273	267	260	254	249	245	240	236	232	228	223	219	217	213	210	210	211	209	208	207	208	208	208	207	207	206	204	202	200	197	194	193	191	188	185	182	181	178	174	172	171	169	166	163	159	157	154	152	150	147	144	140	137	134	131	130	128	124	121	119	118	117	118	121	124	129	134	137	138	139	140	139	139	139	138	137	137	138	137	136	136	136	134	134	134	134	132	130	129	128	127	128	130	131	134	137	141	144	145	146	146	146	144	143	143	143	142	141	139	138	136	135	134	133	132	131	129	128	126	125	124	123	122	121	121	120	120	118	116	114	111	108	105	101	98	96	94	92	90	88	87	87	86	85	84	82	80	79	76	73	71	70	68	68	70	73	74	73	70	69	69	68	68	68	68	69	68	67	66	66	66	66	65	65	67	72	75	78	81	84	87	89	91	93	95	97	98	99	100
6	6	6	6	6	7	6	6	6	7	8	8	7	7	7	7	6	6	7	7	5	4	3	2	2	1	1	0	0	0	0	0	0	0	0	0	0	0	0	0	0	0	0	0	0	0	0	0	0	0	0	0	0	0	0	0	0	0	0	0	0	0	0	0	0	0	0	0	0	0	0	0	0	0	0	0	0	0	0	0	0	0	0	0	0	0	0	0	0	0	0	0	0	0	0	0	0	0	0	0	0	0	0	0	0	0	0	0	0	0	0	0	0	0	0	0	0	0	0	0	0	0	0	0	0	0	0	0	0	0	0	0	0	0	0	0	0	0	0	0	0	0	0	0	0	0	0	0	0	0	0	0	0	0	0	0	0	0	0	0	0	0	0	0	0	0	0	0	0	0	0	0	0	0	0	0	0	0	0	0	0	0	0	0	0	0	0	0	0	0	0	0	0	0	0	0	0	2	5	7	7	7	7	7	7	7	7	7	7	7	7	7	7	7	7	7	8	8	8	8	8	8	8	8	8	8	8	8	8	8	8	8	8	8	8	8	8	8	8	8	8	8	8	8	7	7	9	14	13	14	18	17	14	16	19	21	20	20	19	15	11	9	9	9	9	9	9	9	9	9	9	9	8	8	8	8	8	8	8	8	8	7	8	8	8	8	8	8	8	8	8	8	8	8	8	8	8	8	8	8	8	8	8	8	8	8	8	8	8	8	8	8	8	8	8	8	8	8	8	8	8	8	8	8	8	8	8	8	8	8	8	8	8	8	8	8	8	8	8	8	8	8	8	8	8	8	8	8	8	8	8	8	8	9	9	9	9	9	9	11	12	13	14	15	15	15	17	21	26	28	29	29	28	31	34	36	37	38	39	39	39	39	39	38	37	35	34	34	35	39	44	49	51	53	56	60	61	66	72	73	71	67	69	72	74	76	78	79	79	80	83	86	87	85	85	87	90	91	91	92	94	95	95	94	95	93	90	89	91	96	100	102	105	106	107	107	107	107	108	109	108	108	109	110	111	112	112	109	106	107	109	108	110	113	114	114	114	115	116	118	120	122	126	130	135	138	140	145	149	152	155	159	164	166	168	171	173	174	175	175	174	171	170	170	170	170	169	168	165	163	162	161	160	159	157	156	155	154	151	150	150	150	152	152	152	154	157	159	160	160	161	164	166	168	168	171	174	173	172	171	171	172	173	176	179	181	183	186	188	190	192	196	200	203	207	211	214	216	217	219	223	228	232	233	235	239	242	244	245	246	249	253	255	256	258	261	264	270	275	276	278	280	283	285	287	290	292	295	297	298	300	302	302	301	302	303	303	303	302	302	301	301	300	300	299	299	299	298	297	297	298	299	301	305	310	312	313	312	311	310	309	306	303	304	308	312	315	318	321	325	328	329	329	329	328	327	325	323	320	318	317	315	314	312	311	310	309	308	308	308	306	304	307	318	322	324	325	329	332	335	338	340	341	341	341	340	338	337	336	336	334	331	328	326	325	322	319	319	319	319	319	319	320	322	326	331	335	337	338	340	341	341	340	340	341	345	350	353	355	358	361	366	371	374	377	385	390	394	400	404	410	416	420	426	435	445	452	459	466	472	477	481	485	487	490	494	498	503	508	513	517	521	525	529	532	537	541	544	546	550	557	562	567	572	577	582	587	591	595	597	598	595	591	586	581	576	572	569	565	560	555	550	545	540	534	527	521	518	514	509	503	498	491	485	477	470	465	461	456	450	443	437	433	430	428	426	424	425	427	428	425	421	419	421	424	424	424	424	423	421	419	417	414	410	405	401	397	392	388	383	377	371	366	360	355	350	343	337	333	331	327	322	316	311	307	303	298	294	291	285	279	273	267	259	253	248	244	238	233	230	227	223	219	218	216	214	214	214	213	213	213	213	214	213	212	211	210	209	205	202	199	196	194	193	191	188	185	183	180	176	173	172	170	167	164	161	159	157	154	151	148	146	143	139	136	133	131	128	124	121	119	117	116	117	120	125	128	132	135	136	138	138	137	137	137	136	134	132	132	133	133	134	134	132	131	131	131	129	128	127	124	124	125	127	130	132	135	138	141	143	144	145	144	141	139	138	139	139	138	137	135	133	131	131	132	132	130	129	129	128	127	126	125	125	124	123	122	121	119	116	114	110	106	103	100	97	96	94	92	90	90	89	88	88	87	85	83	81	80	78	75	73	71	70	69	70	71	71	71	70	69	69	68	68	68	68	68	67	67	66	65	65	65	65	65	66	71	75	78	81	84	86	88	90	92	93	95	96	97	99
6	6	6	6	6	7	6	6	6	6	7	8	7	7	7	7	7	7	8	9	6	3	1	0	0	0	0	0	0	0	0	0	0	0	0	0	0	0	0	0	0	0	0	0	0	0	0	0	0	0	0	0	0	0	0	0	0	0	0	0	0	0	0	0	0	0	0	0	0	0	0	0	0	0	0	0	0	0	0	0	0	0	0	0	0	0	0	0	0	0	0	0	0	0	0	0	0	0	0	0	0	0	0	0	0	0	0	0	0	0	0	0	0	0	0	0	0	0	0	0	0	0	0	0	0	0	0	0	0	0	0	0	0	0	0	0	0	0	0	0	0	0	0	0	0	0	0	0	0	0	0	0	0	0	0	0	0	0	0	0	0	0	0	0	0	0	0	0	0	0	0	0	0	0	0	0	0	0	0	0	0	0	0	0	0	0	0	0	0	0	0	0	0	0	0	0	0	1	5	6	7	7	7	7	7	7	7	7	7	7	7	7	7	7	7	8	9	9	9	8	8	8	8	8	8	8	8	8	8	8	8	8	8	8	8	8	8	8	8	8	8	8	8	8	8	7	10	15	16	13	17	18	17	17	19	20	20	21	22	17	11	9	9	9	9	9	9	9	9	9	9	8	8	8	8	8	8	8	8	8	8	7	8	8	8	8	8	8	8	8	8	8	7	7	8	8	8	8	8	8	8	8	8	8	8	8	8	8	8	8	8	8	8	8	8	8	8	8	8	8	8	8	8	8	8	8	8	8	8	8	8	8	8	8	8	8	8	8	8	8	8	8	8	8	8	8	8	8	8	8	8	8	8	8	9	9	9	9	9	10	11	13	14	14	15	15	15	17	22	26	28	27	27	31	34	36	35	37	39	39	39	39	39	40	39	38	35	34	34	36	41	46	49	51	53	60	63	64	69	71	70	69	70	71	73	75	78	80	80	80	81	83	84	84	84	85	87	88	89	89	91	92	93	93	93	94	94	90	88	91	96	101	102	104	106	107	106	107	108	108	107	107	107	108	108	111	112	108	105	106	107	105	106	112	114	114	113	114	117	119	122	125	129	131	134	139	142	146	150	152	155	159	163	166	169	171	173	174	175	174	172	170	168	168	167	167	167	165	163	161	160	159	158	157	155	153	151	150	149	147	146	147	148	149	151	154	157	158	159	159	160	162	164	166	167	170	174	173	171	170	170	172	174	176	180	183	186	188	190	191	195	199	201	204	208	212	215	218	220	221	225	231	234	236	238	241	244	248	249	251	254	257	260	262	263	265	267	272	276	277	279	282	284	286	288	290	292	295	297	297	297	298	298	298	298	299	300	299	298	297	297	297	297	296	296	296	296	295	293	294	296	297	298	300	305	307	309	308	306	305	304	302	302	304	308	312	315	317	320	324	326	326	325	326	327	327	323	319	317	316	313	310	309	308	308	306	305	305	306	306	303	301	303	314	321	322	323	325	326	329	334	336	337	337	337	337	335	334	333	333	332	332	329	325	322	318	316	315	315	314	313	314	318	320	324	328	331	332	334	335	336	336	336	338	341	345	349	353	357	362	366	370	375	378	381	387	394	401	404	406	412	416	421	430	438	445	453	461	467	473	478	481	485	488	492	497	501	504	509	514	518	522	525	529	532	536	540	542	544	548	555	561	567	572	578	582	587	591	593	594	593	590	585	580	576	571	567	564	560	555	550	545	541	535	529	523	518	513	509	503	497	492	487	481	474	468	463	458	451	445	439	433	430	427	425	424	424	425	425	425	422	419	418	419	421	422	422	423	423	422	421	419	416	412	406	401	397	392	387	382	377	371	366	361	356	351	344	336	331	328	324	319	314	310	306	301	296	293	290	285	279	273	266	259	251	246	242	235	232	230	228	225	222	220	219	219	220	220	220	220	220	220	219	218	216	215	215	213	208	204	201	199	196	195	194	191	187	184	181	178	176	174	172	169	166	163	162	160	158	154	151	148	145	142	139	136	132	128	124	122	119	117	116	117	119	124	128	131	134	134	136	137	136	135	136	133	130	128	129	130	132	132	130	128	127	128	127	126	126	126	122	121	123	126	128	130	133	136	138	140	141	141	140	138	135	134	134	135	135	134	132	129	127	128	130	130	129	129	128	128	127	127	126	126	125	124	123	121	119	116	113	109	105	101	99	97	96	95	94	93	92	91	90	89	88	86	84	82	80	79	78	77	75	73	71	71	71	69	69	69	71	70	68	69	70	69	67	66	66	65	65	64	64	65	67	69	70	73	78	82	85	86	87	88	90	90	91	93	95	96
6	6	6	6	6	7	6	6	6	6	7	8	7	7	7	7	8	7	8	9	6	3	1	-1	0	0	0	0	0	0	0	0	0	0	0	0	0	0	0	0	0	0	0	0	0	0	0	0	0	0	0	0	0	0	0	0	0	0	0	0	0	0	0	0	0	0	0	0	0	0	0	0	0	0	0	0	0	0	0	0	0	0	0	0	0	0	0	0	0	0	0	0	0	0	0	0	0	0	0	0	0	0	0	0	0	0	0	0	0	0	0	0	0	0	0	0	0	0	0	0	0	0	0	0	0	0	0	0	0	0	0	0	0	0	0	0	0	0	0	0	0	0	0	0	0	0	0	0	0	0	0	0	0	0	0	0	0	0	0	0	0	0	0	0	0	0	0	0	0	0	0	0	0	0	0	0	0	0	0	0	0	0	0	0	0	0	0	0	0	0	0	0	0	0	0	0	0	1	4	6	7	7	7	7	7	7	7	7	7	7	7	7	7	7	7	7	8	10	10	9	8	8	8	8	8	8	8	8	8	8	8	8	8	8	8	8	8	8	8	8	8	8	8	8	8	8	9	14	16	11	15	18	18	17	18	20	20	22	23	19	10	9	9	9	9	9	9	9	9	9	9	9	8	8	8	8	8	8	8	8	8	8	8	8	8	8	8	8	8	8	8	8	7	7	8	8	8	8	8	8	8	8	8	8	8	8	8	8	8	8	8	8	8	8	8	8	8	8	8	8	8	8	8	8	8	8	8	8	8	8	8	8	8	8	8	8	8	8	9	9	8	8	8	8	8	8	8	8	8	8	8	8	8	8	8	9	9	9	9	9	10	11	13	14	15	15	15	16	18	22	26	26	23	27	32	34	33	34	37	38	38	38	39	40	40	40	39	36	35	35	37	43	47	49	52	59	62	63	67	69	68	70	71	71	73	75	78	81	82	82	80	81	82	82	83	84	85	85	86	87	88	90	90	91	92	93	96	94	90	89	91	97	100	101	104	105	105	106	108	108	108	106	105	104	103	108	111	109	107	107	105	102	103	109	113	114	113	115	118	121	124	128	133	134	137	140	143	146	150	152	155	159	162	166	169	170	172	173	173	172	170	168	166	165	165	165	164	163	161	159	157	156	156	154	152	149	146	145	144	142	144	146	148	150	151	154	157	158	158	158	158	160	162	164	165	168	170	169	169	169	170	173	176	179	181	184	187	190	192	194	197	200	203	205	209	213	216	220	222	224	228	233	236	238	241	244	247	251	253	255	258	262	265	267	268	270	272	274	277	278	281	283	284	286	288	290	291	293	295	295	295	294	295	295	295	295	296	295	294	293	293	294	293	293	292	292	292	291	290	291	294	295	295	296	299	301	303	302	301	301	300	300	302	305	308	312	315	317	320	322	324	324	323	323	325	324	319	316	315	313	309	307	305	304	304	303	303	304	304	303	301	300	299	305	318	320	321	322	325	327	329	331	333	334	335	335	334	332	330	329	330	331	329	322	317	314	313	312	312	310	310	311	315	318	321	325	327	328	329	331	331	332	334	337	341	344	349	354	360	365	368	372	377	381	386	390	397	404	406	408	413	417	424	433	440	446	454	461	468	474	478	482	486	489	494	498	502	505	510	515	519	522	524	527	530	534	536	539	541	545	552	559	565	571	577	582	586	590	591	591	588	584	578	574	570	566	563	559	555	549	544	540	535	530	523	518	514	508	503	497	492	488	482	476	470	465	458	451	444	439	434	430	426	424	422	421	422	424	423	421	419	418	417	417	418	419	420	421	422	422	421	420	417	413	408	402	396	391	387	382	377	371	366	361	356	351	345	337	332	327	322	318	314	310	305	301	295	291	288	283	277	272	266	258	250	245	241	236	234	232	230	230	229	227	226	225	225	226	226	226	226	226	225	223	220	219	217	215	211	207	204	202	200	197	196	193	189	186	183	181	179	177	174	171	168	166	164	163	160	157	153	150	147	143	140	137	133	128	125	122	120	118	116	116	118	121	126	130	132	130	131	132	132	133	133	130	126	125	126	128	129	128	126	124	124	124	124	123	123	122	119	118	120	123	126	128	130	133	135	136	137	136	135	134	132	130	131	132	132	132	130	128	126	127	128	128	127	127	126	126	127	127	127	127	126	125	124	121	119	115	112	108	104	101	99	98	98	98	97	96	95	94	93	91	89	87	85	82	81	81	81	81	79	77	74	73	72	70	68	68	70	70	68	69	70	70	68	65	65	65	64	64	64	64	67	69	69	71	77	81	83	84	84	86	87	88	88	90	92	93
6	6	6	6	6	7	6	6	6	6	7	7	7	7	7	7	8	8	6	6	4	3	2	0	0	0	0	0	0	0	0	0	0	0	0	0	0	0	0	0	0	0	0	0	0	0	0	0	0	0	0	0	0	0	0	0	0	0	0	0	0	0	0	0	0	0	0	0	0	0	0	0	0	0	0	0	0	0	0	0	0	0	0	0	0	0	0	0	0	0	0	0	0	0	0	0	0	0	0	0	0	0	0	0	0	0	0	0	0	0	0	0	0	0	0	0	0	0	0	0	0	0	0	0	0	0	0	0	0	0	0	0	0	0	0	0	0	0	0	0	0	0	0	0	0	0	0	0	0	0	0	0	0	0	0	0	0	0	0	0	0	0	0	0	0	0	0	0	0	0	0	0	0	0	0	0	0	0	0	0	0	0	0	0	0	0	0	0	0	0	0	0	0	0	0	0	0	0	3	6	7	7	7	7	7	7	7	7	7	7	7	7	7	7	7	7	7	8	9	9	8	8	8	8	8	8	8	8	8	8	8	8	8	8	8	8	8	8	8	8	8	8	8	8	8	8	8	11	15	12	12	18	18	17	18	20	21	22	23	17	9	9	9	9	9	9	9	9	9	9	9	8	8	8	8	8	8	8	8	8	8	8	8	8	8	8	8	8	8	8	8	8	7	8	8	8	8	8	8	8	8	8	8	8	8	8	8	8	8	8	8	8	8	8	8	8	8	8	8	8	8	8	8	8	8	8	8	8	8	8	8	8	8	8	8	8	8	9	9	8	8	8	8	8	8	8	8	8	8	8	8	8	8	8	8	8	9	9	9	9	9	10	11	13	14	15	16	16	16	17	20	21	19	19	24	29	29	30	33	35	36	37	38	40	40	40	41	39	37	35	35	37	43	48	51	56	61	64	67	68	68	70	71	70	72	73	76	79	81	82	80	80	81	82	82	83	84	83	83	84	86	87	88	89	90	91	93	93	92	91	90	91	94	98	100	101	103	105	108	110	109	106	103	100	99	102	104	106	108	107	105	102	102	108	113	113	115	118	121	124	127	131	135	137	138	140	143	146	149	152	155	159	161	164	167	169	171	172	172	170	168	166	164	164	164	163	162	161	160	158	154	153	153	152	150	147	142	140	141	141	144	147	148	149	150	152	155	157	157	157	158	159	161	163	164	165	165	166	168	170	172	175	178	181	183	186	189	191	193	196	198	201	205	208	212	216	219	221	224	227	232	237	239	241	244	247	250	254	256	258	261	265	268	270	272	273	274	275	277	279	281	283	285	286	287	289	289	290	291	291	291	290	291	292	293	292	292	291	290	290	290	291	290	289	288	288	288	288	287	288	290	292	292	292	292	293	296	298	298	297	297	300	303	306	309	312	314	317	319	321	322	322	322	321	320	316	311	310	310	309	307	305	302	301	300	300	301	301	301	300	298	298	298	302	314	318	320	322	324	326	326	328	330	333	334	334	332	328	325	325	325	326	324	319	315	311	309	309	309	308	307	309	313	316	319	322	323	324	325	326	328	329	332	337	341	344	349	354	361	366	369	373	377	383	388	392	396	402	407	411	414	420	428	435	441	448	455	461	468	474	479	483	487	490	494	498	501	504	509	514	517	520	522	524	527	529	531	534	537	541	548	556	563	569	575	581	585	588	589	586	583	578	572	568	565	561	557	553	549	544	540	535	529	524	518	513	509	504	498	493	488	483	476	470	466	459	450	443	438	434	430	425	422	420	419	418	419	422	421	418	417	418	418	416	415	416	417	419	420	421	421	420	418	413	408	402	396	391	386	381	376	371	366	361	355	351	345	338	331	326	322	319	316	311	306	302	295	290	286	281	275	270	264	256	249	246	242	239	238	237	236	235	234	234	233	233	233	233	233	232	231	230	229	228	225	222	219	216	213	210	207	205	202	200	197	194	191	188	185	183	181	180	177	174	172	169	167	164	162	158	154	150	147	143	140	137	133	129	126	123	121	118	116	116	116	117	119	125	128	127	125	125	126	127	127	124	122	121	122	124	125	124	122	121	121	122	122	121	120	119	116	116	118	121	124	126	127	129	131	132	133	133	132	131	129	128	128	129	129	129	128	127	125	124	123	123	123	123	125	126	127	128	128	128	128	126	125	122	119	115	111	107	105	103	101	101	101	101	101	100	99	97	95	93	90	88	85	83	82	83	83	82	81	79	78	76	75	72	68	67	68	69	69	69	71	71	67	64	64	64	64	64	63	63	64	64	66	69	75	78	79	80	81	82	84	85	85	86	88	89
6	6	6	6	6	7	7	6	6	6	7	7	7	7	6	7	8	8	6	5	3	3	2	0	0	0	0	0	0	0	0	0	0	0	0	0	0	0	0	0	0	0	0	0	0	0	0	0	0	0	0	0	0	0	0	0	0	0	0	0	0	0	0	0	0	0	0	0	0	0	0	0	0	0	0	0	0	0	0	0	0	0	0	0	0	0	0	0	0	0	0	0	0	0	0	0	0	0	0	0	0	0	0	0	0	0	0	0	0	0	0	0	0	0	0	0	0	0	0	0	0	0	0	0	0	0	0	0	0	0	0	0	0	0	0	0	0	0	0	0	0	0	0	0	0	0	0	0	0	0	0	0	0	0	0	0	0	0	0	0	0	0	0	0	0	0	0	0	0	0	0	0	0	0	0	0	0	0	0	0	0	0	0	0	0	0	0	0	0	0	0	0	0	0	0	0	0	0	2	5	7	7	7	7	7	7	7	7	7	7	7	7	7	7	7	7	6	7	8	8	8	8	8	8	8	8	8	8	8	8	8	8	8	8	8	8	8	8	8	8	8	8	8	8	8	8	8	9	14	15	11	16	19	18	18	20	21	22	20	12	9	9	9	9	9	9	9	9	9	9	9	8	8	8	8	8	8	8	8	8	8	8	8	8	8	8	8	8	8	8	8	8	8	8	8	8	8	8	8	8	8	8	8	8	8	8	8	8	8	8	8	8	8	8	8	8	8	8	8	8	8	8	8	8	8	8	8	8	8	8	8	8	8	8	8	8	8	9	8	8	8	8	8	8	8	8	8	8	8	8	8	8	8	8	8	8	9	9	9	9	8	9	10	11	13	15	16	16	16	16	17	17	18	18	19	21	24	28	30	32	33	34	37	40	40	40	41	41	40	39	36	36	38	43	49	53	56	62	66	66	68	71	71	69	69	70	71	75	76	76	79	80	80	81	82	83	83	82	81	82	84	85	85	86	88	89	89	89	90	92	92	90	89	93	95	98	101	105	107	109	108	106	104	101	99	99	100	105	110	108	107	104	104	108	112	114	116	119	123	125	128	132	135	136	138	140	142	146	149	152	155	158	160	162	165	168	169	170	170	169	167	165	163	162	161	160	159	158	157	155	152	151	150	149	149	146	140	138	140	142	144	145	146	147	148	150	153	157	158	158	159	161	162	164	164	165	165	167	169	171	174	176	179	182	184	187	190	192	194	197	199	202	207	211	215	219	221	224	227	231	236	240	241	243	247	250	253	256	258	260	263	267	269	271	273	275	276	276	278	279	281	283	284	285	286	286	287	287	287	288	287	287	287	289	289	289	288	288	287	287	287	287	286	285	284	284	285	286	284	283	284	287	289	290	289	289	290	293	296	295	295	300	304	307	310	312	314	315	317	318	319	320	321	319	315	312	308	307	306	306	306	303	300	298	297	298	298	297	296	295	294	295	296	303	312	316	319	321	323	323	324	325	328	332	334	334	330	325	322	321	321	320	319	317	312	308	306	306	305	305	304	307	310	313	317	319	321	320	320	320	322	327	331	336	341	346	350	355	361	366	369	374	378	384	390	394	398	402	407	412	415	424	431	436	443	450	455	461	468	474	479	483	487	491	494	497	499	503	508	512	514	517	519	520	523	525	527	530	534	538	543	549	558	567	573	579	583	585	585	582	577	571	566	564	560	555	550	547	543	539	535	530	524	519	514	509	505	500	494	488	482	476	470	464	459	450	443	438	433	429	425	421	419	417	415	414	414	417	417	415	415	418	417	412	411	412	414	416	417	418	418	418	417	413	408	402	396	391	385	380	375	370	365	359	353	350	345	338	331	326	323	320	318	313	308	303	296	290	284	279	274	269	262	255	251	248	245	242	242	241	241	239	238	238	239	240	240	239	238	237	235	233	232	231	229	226	222	218	216	212	209	207	204	202	198	195	192	189	186	184	183	181	179	177	174	172	169	166	163	159	155	151	148	145	142	138	135	131	128	125	122	119	116	115	114	114	115	117	120	121	120	119	120	121	121	119	118	117	118	119	120	120	118	117	118	118	120	118	115	114	113	114	116	119	121	122	124	126	127	129	131	131	130	128	126	125	126	126	126	126	126	124	122	118	118	119	121	122	124	125	127	128	128	128	128	127	126	123	119	115	111	108	106	105	104	104	104	104	104	103	102	100	97	94	91	89	86	85	84	85	85	84	83	82	81	79	77	74	70	67	68	68	69	69	71	71	67	65	65	64	63	63	63	63	62	62	65	68	71	73	75	76	77	79	80	81	82	83	85	86
6	6	6	6	6	7	7	6	6	6	6	7	7	7	6	7	8	8	7	5	4	4	3	1	0	0	0	0	0	0	0	0	0	0	0	0	0	0	0	0	0	0	0	0	0	0	0	0	0	0	0	0	0	0	0	0	0	0	0	0	0	0	0	0	0	0	0	0	0	0	0	0	0	0	0	0	0	0	0	0	0	0	0	0	0	0	0	0	0	0	0	0	0	0	0	0	0	0	0	0	0	0	0	0	0	0	0	0	0	0	0	0	0	0	0	0	0	0	0	0	0	0	0	0	0	0	0	0	0	0	0	0	0	0	0	0	0	0	0	0	0	0	0	0	0	0	0	0	0	0	0	0	0	0	0	0	0	0	0	0	0	0	0	0	0	0	0	0	0	0	0	0	0	0	0	0	0	0	0	0	0	0	0	0	0	0	0	0	0	0	0	0	0	0	0	0	0	0	2	5	7	7	7	7	7	7	7	7	7	7	7	7	7	7	7	7	7	7	7	8	8	8	8	8	8	8	8	8	8	8	8	8	8	8	8	8	8	8	8	8	8	8	8	8	8	8	8	8	13	14	11	14	18	18	17	19	21	21	16	9	9	9	9	9	9	9	9	9	9	9	8	8	8	8	8	8	8	8	8	8	8	8	8	8	8	8	8	8	8	8	8	8	8	8	8	8	8	8	8	8	8	8	8	8	8	8	8	8	8	8	8	8	8	8	8	8	8	8	8	8	8	8	8	8	8	8	8	8	8	8	8	8	8	8	8	8	8	9	8	8	8	8	8	8	8	8	8	8	8	8	8	8	8	8	8	8	9	9	9	9	9	9	9	10	12	13	15	16	16	17	17	17	17	18	18	18	20	26	29	30	31	31	35	39	40	40	41	41	42	41	39	37	36	38	44	49	53	58	63	64	67	70	69	68	68	68	69	72	71	67	73	77	79	81	82	82	82	81	79	80	82	83	83	84	85	86	87	87	88	90	92	91	89	92	92	94	98	103	105	105	105	106	108	104	99	99	99	103	109	110	109	108	108	110	112	114	117	120	123	126	129	132	135	136	138	140	142	145	149	152	155	157	159	161	164	166	168	168	168	167	166	164	162	160	159	158	157	156	155	153	150	149	147	147	146	142	138	138	140	141	142	143	144	146	148	150	153	156	158	160	161	163	165	165	166	167	169	170	172	173	175	177	180	182	185	188	192	194	196	199	201	204	208	213	217	221	224	226	230	234	238	241	242	245	249	252	255	257	259	261	264	267	269	272	274	275	276	276	278	279	280	281	282	282	283	283	283	284	285	285	285	284	285	285	286	286	285	285	285	285	285	284	282	281	280	280	282	282	279	278	279	281	284	286	286	286	286	286	287	290	295	300	304	307	309	311	312	312	313	314	315	318	319	316	312	310	307	305	304	304	303	300	297	294	293	294	294	294	293	293	293	293	295	304	311	313	316	319	321	321	321	324	327	330	332	331	327	323	320	318	317	316	315	313	308	304	303	303	303	302	301	304	308	310	313	316	317	316	316	317	319	325	332	338	343	348	352	356	362	367	371	377	381	386	392	396	400	404	408	412	417	426	432	437	446	452	457	462	468	474	479	482	486	490	493	496	498	501	505	509	512	515	516	517	518	521	524	527	531	536	540	545	553	563	571	577	580	581	579	575	570	565	562	559	555	550	545	541	537	534	530	525	519	514	510	505	500	495	489	483	476	470	464	458	449	442	438	434	428	425	422	418	416	414	412	410	410	412	412	410	411	414	411	406	406	407	409	412	414	415	416	417	416	413	408	402	397	392	385	379	375	370	364	358	353	350	346	340	334	329	325	322	319	314	309	303	295	289	284	279	274	269	262	256	253	251	248	247	246	246	245	244	243	243	243	244	245	244	242	240	238	237	235	233	231	228	224	221	218	214	211	209	206	204	200	196	194	191	187	185	183	182	180	178	176	173	171	169	166	162	157	153	150	147	143	140	136	133	130	127	123	121	117	114	113	113	114	114	112	113	113	115	117	117	116	115	114	114	114	115	115	115	114	114	114	114	113	110	109	109	109	111	113	115	117	117	119	121	123	125	127	128	128	126	124	123	123	123	124	124	123	121	117	115	115	117	120	122	123	124	126	128	128	129	128	128	126	124	120	115	112	109	108	107	107	108	107	107	106	105	104	101	99	96	92	90	88	87	87	88	87	86	85	84	83	80	78	76	73	70	69	69	67	67	69	69	68	67	67	66	65	63	62	62	62	62	64	66	68	70	72	73	75	76	78	79	80	81	82	83
6	6	6	6	6	7	7	7	6	6	6	7	7	6	6	7	8	8	7	6	6	5	3	1	0	0	0	0	0	0	0	0	0	0	0	0	0	0	0	0	0	0	0	0	0	0	0	0	0	0	0	0	0	0	0	0	0	0	0	0	0	0	0	0	0	0	0	0	0	0	0	0	0	0	0	0	0	0	0	0	0	0	0	0	0	0	0	0	0	0	0	0	0	0	0	0	0	0	0	0	0	0	0	0	0	0	0	0	0	0	0	0	0	0	0	0	0	0	0	0	0	0	0	0	0	0	0	0	0	0	0	0	0	0	0	0	0	0	0	0	0	0	0	0	0	0	0	0	0	0	0	0	0	0	0	0	0	0	0	0	0	0	0	0	0	0	0	0	0	0	0	0	0	0	0	0	0	0	0	0	0	0	0	0	0	0	0	0	0	0	0	0	0	0	0	0	0	0	1	4	6	7	6	7	7	7	7	7	7	7	7	7	7	7	7	7	7	7	7	7	8	8	8	8	8	8	8	8	8	8	8	8	8	8	8	8	8	8	8	8	8	8	8	8	8	8	8	8	10	13	11	12	18	18	17	18	21	21	16	9	9	9	9	9	9	9	9	9	9	9	8	8	8	8	8	8	8	8	8	8	8	8	8	8	8	8	8	8	8	8	8	8	8	8	8	8	8	8	8	8	8	8	8	8	8	8	8	8	8	8	8	8	8	8	8	8	8	8	8	8	8	8	8	8	8	8	8	8	8	8	8	8	8	8	8	8	8	9	9	8	8	8	8	8	8	8	8	8	8	8	8	8	8	8	8	9	9	9	9	9	9	9	9	9	10	12	14	15	16	17	17	17	17	18	18	19	20	23	28	29	29	30	34	37	38	40	41	41	42	42	41	40	37	37	38	43	49	53	56	58	62	64	66	67	67	67	68	70	70	65	64	67	70	78	81	82	82	81	78	79	81	83	82	82	82	84	86	87	86	87	89	91	92	92	89	90	93	97	99	101	102	104	108	104	99	99	99	100	104	108	108	107	109	111	112	114	117	120	124	127	129	132	135	137	138	141	143	145	148	151	153	156	158	160	162	164	165	166	166	165	164	162	160	159	157	155	154	153	152	150	149	147	146	145	143	138	135	136	138	140	140	142	145	147	150	152	155	157	159	161	164	167	167	167	169	171	173	174	175	176	177	179	181	183	186	190	192	195	198	201	203	206	210	214	219	223	227	230	232	235	238	240	243	247	250	252	255	257	259	262	264	266	268	271	273	274	275	276	277	278	279	279	279	279	280	280	280	282	283	283	282	282	282	282	283	283	283	283	284	283	282	280	278	276	276	276	276	276	274	274	274	275	277	279	279	280	279	280	282	287	294	300	305	307	308	309	309	309	309	310	312	313	314	311	309	308	306	303	302	301	299	296	293	290	289	289	291	293	293	291	290	291	293	299	309	311	314	316	318	319	319	322	325	328	329	327	323	320	318	315	314	313	311	308	304	302	301	300	299	298	297	299	305	307	309	310	311	314	316	318	321	326	333	340	345	350	354	359	364	370	375	379	383	389	395	398	402	405	408	413	419	427	433	439	448	454	458	463	468	473	478	481	485	488	491	494	496	498	501	506	510	512	513	514	516	518	521	524	528	534	540	544	552	561	569	574	576	576	573	569	564	561	558	554	550	545	541	536	532	529	525	519	514	510	505	501	495	489	483	478	472	465	459	451	443	436	431	427	423	421	419	415	412	410	409	407	407	408	408	407	406	406	403	402	402	404	407	409	411	413	415	416	415	412	408	402	397	392	386	379	375	370	365	360	356	352	348	343	338	332	326	324	321	315	308	302	294	288	284	279	273	268	263	258	254	253	252	252	252	250	248	248	248	247	247	248	248	247	246	244	241	239	237	235	233	230	226	223	220	217	213	210	208	206	202	198	195	193	190	187	185	183	181	179	177	175	173	171	168	165	160	155	152	149	144	141	137	134	131	127	124	122	118	113	112	112	112	111	109	108	109	112	115	115	113	112	110	110	110	110	110	109	109	108	106	106	108	104	104	106	107	108	109	111	112	112	114	116	119	121	123	124	125	123	121	121	120	120	121	122	120	118	115	113	113	115	120	124	124	125	126	127	128	129	129	128	127	124	121	117	114	112	111	110	111	111	111	110	109	107	105	102	100	97	94	92	91	91	91	91	90	89	88	86	84	82	80	78	75	73	72	70	68	67	67	67	67	67	67	68	68	66	63	62	62	61	62	62	64	67	70	71	72	74	76	77	78	79	80	81
