12	13	13	14	15	15	15	15	16	17	18	18	18	18	18	18	19	20	21	21	21	21	22	22	23	23	23	23	23	23	23	23	23	22	21	20	20	20	20	20	20	20	20	19	19	19	18	18	18	18	18	18	18	18	18	18	17	17	16	16	16	15	15	14	14	13	13	13	13	13	13	13	13	13	13	12	12	12	13	16	20	23	24	25	24	22	20	18	16	14	12	10	9	7	6	5	5	5	5	5	6	5	5	5	5	5	4	4	4	4	5	5	5	5	5	5	5	5	5	5	5	5	5	5	5	5	5	6	6	6	6	6	6	6	6	6	6	6	5	5	5	5	5	5	5	5	5	5	5	5	5	5	5	5	5	6	6	6	6	5	5	6	6	6	6	6	6	6	6	6	6	6	5	5	5	5	5	5	5	5	6	6	6	7	7	7	7	7	7	7	8	9	9	9	9	10	11	11	13	14	15	17	18	20	20	20	19	19	18	18	18	18	19	19	19	19	19	19	19	19	18	18	18	18	18	17	16	15	14	14	14	14	14	14	14	14	14	14	14	14	15	16	17	18	19	20	21	22	23	23	24	24	24	24	24	24	23	21	20	20	20	20	20	20	20	20	20	20	20	20	20	20	20	20	20	20	20	20	20	19	19	19	19	18	18	18	18	17	17	17	16	16	16	16	16	16	16	16	17	16	17	17	17	17	17	17	17	17	17	17	17	17	17	17	17	17	17	16	16	16	16	16	16	15	15	15	15	15	14	13	13	16	18	20	22	22	22	22	22	22	21	21	20	19	19	19	19	19	19	19	18	17	17	17	17	17	17	17	17	17	16	16	16	15	15	15	15	15	15	16	16	16	16	16	16	16	17	17	17	17	17	17	17	17	17	18	18	19	19	19	19	20	20	20	20	20	20	20	20	21	21	21	21	21	21	21	21	21	21	21	20	20	20	20	20	19	19	19	18	17	16	17	17	17	18	18	18	18	18	19	21	22	23	24	24	24	25	26	27	28	28	29	30	31	33	34	37	40	42	45	46	48	49	50	51	52	53	53	54	54	55	56	57	59	61	62	63	64	65	65	66	67	67	68	67	67	67	66	65	64	62	60	58	55	52	51	50	48	47	46	45	43	42	41	41	41	40	40	39	39	38	38	37	37	36	36	36	36	36	36	36	36	36	36	36	36	36	36	36	36	35	35	34	34	33	32	30	29	27	27	27	27	27	27	26	26	25	24	24	24	23	23	23	23	22	22	22	21	21	21	20	20	20	20	20	20	19	19	18	18	18	18	18	18	18	18	18	18	17	17	16	16	15	14	14	14	14	13	13	13	13	13	13	13	12	13	13	13	12	12	12	12	12	12	12	12	12	13	14	14	14	14	14	13	12	11	10	10	11	11	11	11	11	10	9	9	8	8	9	10	11	11	11	11	11	11	11	10	10	10	10	10	10	10	9	9	10	10	10	10	11	11	11	11	11	12	12	12	12	12	13	13	13	13	13	13	13	13	13	13	13	13	13	13	13	13	13	13	13	13	14	14	14	14	15	14	14	14	14	14	14	14	14	14	14	14	14	14	14	14	14	14	14	14	14	14	14	14	15	15	15	15	15	15	15	15	15	15	15	15	15	15	15	15	15	15	15	15	15	15	15	16	16	16	16	16	16	16	16	16	16	16	16	16	16	16	16	16	16	16	16	17	18	20	21	21	22	23	23	24	25	25	25	24	24	23	22	22	22	22	22	22	22	22	22	22	21	21	21	21	22	22	22	22	22	22	22	22	23	23	23	24	24	24	25	26	27	28	29	30	30	30	30	30	30	30	30	29	29	30	30	30	30	30	30	30	30	30	30	30	30	30	30	30	30	30	30	30	30	30	30	30	30	30	30	30	30	30	30	30	30	30	31	31	31	31	31	31	32	33	33	33	33	33	33	34	34	34	34	34	35	36	38	39	40	41	42	42	42	42	42	41	41	41	41	41	42	43	44	44	45	46	47	48	50	51	52	54	55	56	57	57	58	58	58	58	58	58	58	58	58	58	58	58	58
12	13	13	14	14	15	15	15	16	17	18	18	18	18	18	18	19	20	21	21	21	21	22	22	23	23	23	23	23	23	23	23	23	22	22	21	20	20	20	20	20	20	20	19	19	18	18	18	18	18	18	18	18	18	18	18	17	17	16	16	15	15	15	14	14	13	13	13	13	13	13	13	13	13	13	12	12	12	12	13	16	19	20	21	20	19	17	15	14	12	10	9	8	6	5	5	5	5	5	5	5	5	4	4	4	4	4	4	4	4	4	5	5	5	5	5	5	5	5	5	5	5	5	5	5	5	5	5	6	6	6	6	6	6	6	6	6	5	5	5	5	5	5	5	5	5	5	4	5	5	5	5	5	5	5	5	6	6	5	5	5	6	6	6	6	6	6	6	6	6	6	6	6	5	5	5	5	5	5	5	6	6	6	7	7	7	7	7	7	8	8	9	9	9	9	10	11	12	13	14	15	17	18	19	20	19	19	18	18	18	18	18	18	18	18	18	18	18	18	18	18	18	18	18	17	17	16	15	14	14	14	14	14	14	14	14	14	14	14	15	16	17	17	18	19	20	21	22	22	23	23	23	24	24	24	24	23	21	20	20	20	20	20	20	20	20	20	20	20	20	20	20	20	20	20	20	21	21	20	19	19	19	19	19	19	18	18	17	17	17	16	16	15	16	16	16	16	16	16	16	16	16	16	16	16	17	17	17	17	17	17	17	17	17	17	17	16	16	16	16	16	15	15	15	15	15	14	14	13	13	15	17	20	22	24	24	24	24	24	24	24	23	21	20	19	19	19	19	18	18	17	17	17	17	16	17	17	17	17	16	16	15	15	15	14	14	15	15	15	16	16	16	16	16	16	16	16	17	17	17	17	16	16	16	16	17	17	19	19	19	20	20	20	20	20	20	20	20	20	20	20	20	20	20	20	20	20	20	20	20	20	20	20	20	19	19	19	19	18	17	16	17	17	17	18	18	18	18	18	20	21	22	23	23	23	23	24	26	27	28	29	30	31	32	34	36	39	41	44	45	47	48	49	51	52	53	54	55	56	56	57	58	59	61	63	64	65	66	67	68	68	69	70	70	70	70	69	69	68	66	64	62	60	57	54	53	51	50	49	48	47	46	44	44	43	43	43	42	42	41	41	40	39	38	38	37	37	36	36	36	37	37	37	37	37	37	37	37	36	36	36	35	34	34	33	33	32	31	29	28	27	27	27	27	26	25	24	23	23	24	23	23	23	22	22	22	22	21	21	21	21	20	20	20	20	20	19	19	18	18	18	18	18	18	18	18	17	17	17	16	16	16	15	14	14	14	14	13	13	13	13	13	13	13	12	12	12	13	12	12	12	12	12	11	11	11	12	12	13	14	14	14	13	12	11	10	10	11	11	11	11	11	11	11	10	9	8	8	9	10	10	11	11	11	11	11	10	10	10	10	10	10	10	10	10	9	9	9	10	10	11	11	11	11	11	12	12	12	12	12	12	13	13	13	13	13	13	13	13	13	13	13	13	13	13	13	13	13	13	13	14	14	14	14	14	15	14	14	14	14	14	14	14	14	14	14	14	14	14	14	14	14	14	14	14	14	14	14	14	15	15	15	15	15	15	15	15	15	15	15	15	15	15	15	15	15	15	15	15	15	15	15	16	16	16	16	16	17	16	16	16	16	16	16	16	16	16	16	16	16	17	18	19	21	22	23	24	24	25	26	26	27	26	26	25	24	23	22	22	22	22	22	22	22	22	21	21	21	21	21	21	22	22	22	22	22	22	22	22	23	23	23	24	24	25	26	27	28	29	30	30	30	30	30	30	30	29	29	29	29	29	29	29	29	29	29	29	29	29	29	29	29	29	29	29	29	29	29	29	29	29	29	29	29	29	29	29	29	30	30	30	30	30	30	31	31	31	31	32	32	32	33	33	33	33	33	33	33	34	34	34	35	36	37	38	39	40	41	41	41	41	41	41	40	40	40	41	41	42	43	43	44	45	46	47	48	50	52	53	54	55	55	56	56	55	55	55	55	55	55	56	56	56	56	56
12	13	13	14	14	15	15	16	16	17	18	18	18	18	18	19	19	20	21	21	21	21	22	23	23	23	23	24	24	23	23	23	23	23	22	22	22	21	20	20	20	20	19	19	19	18	18	18	18	18	18	18	18	18	18	18	17	17	16	16	15	15	14	14	14	13	13	13	13	13	13	13	13	13	13	13	12	12	11	11	13	15	16	17	17	16	14	13	12	10	8	7	6	5	5	5	5	5	5	5	5	4	4	4	4	4	4	4	4	4	4	4	5	5	5	5	5	5	5	5	5	5	5	5	5	5	5	5	5	6	6	6	6	6	6	6	6	5	5	5	5	5	5	5	5	5	4	4	4	5	5	5	5	5	5	5	5	5	5	5	6	6	6	6	6	6	5	5	6	6	6	6	6	6	5	5	5	5	5	5	6	6	6	7	7	7	7	7	7	8	9	9	9	9	10	10	11	12	13	14	15	17	18	19	19	19	18	18	18	18	18	18	17	17	18	18	18	18	18	18	18	18	17	17	17	16	15	15	14	15	14	14	14	14	14	14	15	14	14	15	16	17	17	18	19	20	21	22	22	22	23	23	24	24	24	24	23	22	20	20	20	20	20	20	20	20	20	20	20	20	20	20	20	20	20	20	21	21	20	20	19	19	19	19	19	18	18	17	17	17	16	15	15	15	15	16	16	16	16	16	16	16	16	16	16	16	16	16	17	17	17	17	17	17	17	16	16	16	16	16	15	15	15	15	14	14	14	14	13	14	16	19	22	24	26	26	27	27	26	26	25	24	23	21	20	19	19	18	18	18	17	17	16	16	16	16	17	17	16	16	15	15	14	14	14	14	14	15	15	15	16	16	16	16	16	16	16	16	17	16	16	16	16	16	16	16	17	18	19	19	20	20	20	20	20	20	20	20	20	20	20	20	20	20	20	20	20	20	20	20	20	20	20	20	19	19	19	18	17	16	16	17	17	17	18	18	18	18	18	20	22	22	22	23	22	23	24	26	27	29	30	31	32	33	35	37	40	42	44	46	47	48	49	51	53	54	55	56	57	58	58	60	61	62	64	66	67	68	69	70	70	71	72	73	73	73	72	71	70	68	67	65	63	59	56	54	53	52	51	50	49	48	47	46	46	45	45	44	43	43	43	42	41	40	39	39	38	37	36	37	38	38	38	39	39	39	38	38	38	37	36	36	35	34	34	33	33	32	31	29	28	27	27	27	26	25	23	22	22	23	23	23	23	22	22	22	22	21	21	21	20	20	20	20	19	19	18	18	17	17	17	18	18	18	18	17	17	16	16	16	16	16	16	14	14	14	14	13	13	13	13	13	13	12	12	12	13	13	12	12	12	11	11	11	11	11	11	12	12	13	13	12	11	10	10	10	11	11	11	11	11	11	11	11	10	9	8	8	9	10	10	11	11	11	10	10	10	10	10	10	10	10	10	10	10	9	9	9	10	10	11	11	11	11	11	12	12	12	12	12	12	13	13	13	13	13	13	13	13	13	13	13	13	13	13	13	13	13	13	13	14	14	14	14	14	15	14	14	14	14	14	14	14	14	14	14	14	14	14	14	14	14	14	14	14	14	14	14	14	14	15	15	15	15	15	15	15	15	15	15	15	15	15	15	15	15	15	15	15	15	15	15	15	16	16	16	16	16	16	16	16	16	16	16	16	16	16	16	17	17	17	19	20	22	23	24	25	26	27	27	28	28	28	27	26	25	23	22	22	22	22	22	22	22	21	21	21	21	21	21	21	21	21	22	22	22	22	22	22	22	23	23	23	24	25	26	27	28	29	30	30	30	30	30	29	29	29	29	29	29	29	29	29	29	29	29	29	29	29	29	29	29	29	29	29	29	29	29	29	29	29	29	29	29	29	29	29	29	29	29	29	30	30	30	30	30	30	31	31	31	32	32	32	32	32	32	33	33	33	33	33	33	34	36	37	38	39	39	40	40	41	40	40	40	39	40	40	40	40	41	41	42	43	44	45	46	48	49	51	52	53	53	54	53	53	53	53	53	53	53	53	53	54	54	55
12	13	13	14	14	15	16	16	17	17	18	18	18	18	19	19	20	20	21	21	21	22	22	23	23	23	24	24	24	23	23	23	23	22	22	22	22	22	22	21	21	20	20	19	19	19	18	18	18	18	18	18	18	18	18	18	17	17	16	16	15	15	14	14	13	13	13	13	13	13	13	13	13	13	13	13	12	12	11	11	11	12	14	14	14	13	12	11	10	8	6	5	5	5	6	5	5	5	5	5	4	4	4	4	4	4	4	4	4	4	4	4	4	4	5	5	5	5	5	5	5	5	5	5	5	5	5	5	5	6	6	6	6	6	6	6	5	5	5	5	5	5	5	5	5	5	4	4	4	5	5	5	5	5	5	5	5	5	5	5	5	6	6	6	6	6	5	5	6	6	6	6	6	5	5	5	5	5	5	5	5	6	6	7	7	7	7	7	8	9	9	9	9	9	10	11	11	12	13	14	15	17	18	19	19	18	18	18	18	18	17	17	17	17	17	17	17	17	17	17	17	17	17	17	16	16	15	15	14	15	14	14	14	14	14	14	15	14	14	15	16	17	17	18	19	20	21	21	22	23	23	24	24	24	24	24	23	22	21	20	20	20	20	20	20	20	20	20	20	20	20	20	20	20	20	20	21	21	21	20	20	20	20	19	19	18	18	17	17	17	16	15	15	15	15	15	16	16	16	16	16	17	16	16	16	16	16	16	16	16	16	16	16	17	16	16	17	16	16	16	15	15	15	14	14	14	14	13	13	15	19	22	24	26	28	28	28	28	28	27	27	26	24	23	21	20	20	19	18	18	17	17	16	16	16	16	16	16	16	15	15	14	14	14	14	14	14	15	15	15	15	16	16	16	16	16	16	16	16	16	16	16	16	16	17	16	17	18	19	20	20	20	20	20	20	20	20	20	20	20	20	20	20	20	20	20	20	20	20	20	20	20	20	19	19	19	18	17	16	16	16	17	17	17	18	18	18	18	19	21	22	22	22	22	23	24	26	27	28	30	31	32	33	34	36	38	40	42	44	45	47	48	50	51	53	55	56	57	58	59	60	61	62	64	65	68	69	71	72	72	72	73	74	76	76	76	75	74	72	70	69	66	64	61	57	56	55	54	53	52	51	50	49	48	48	47	47	46	45	45	44	43	42	41	40	39	38	37	37	38	39	39	40	40	40	40	40	39	39	38	37	36	36	35	34	34	33	33	32	31	29	28	27	26	26	25	23	22	22	22	23	23	22	22	22	21	21	21	20	20	20	19	19	19	19	18	17	16	16	16	16	17	17	17	17	17	16	16	16	16	16	16	15	14	13	14	14	13	13	13	13	13	13	13	13	13	13	13	13	12	12	11	10	10	10	11	11	11	11	11	11	11	10	10	11	11	11	11	11	11	11	10	11	11	10	9	8	8	9	10	10	11	11	10	10	10	10	10	10	10	10	10	10	10	9	9	9	9	10	11	11	11	11	11	11	12	12	12	12	12	12	13	13	13	13	13	13	13	13	13	13	13	13	13	13	13	13	13	13	13	13	14	14	14	14	15	14	14	14	14	14	14	14	14	14	14	14	14	14	14	14	14	14	14	14	14	14	14	14	14	14	15	15	15	15	15	15	15	15	15	15	15	15	15	15	15	15	15	15	15	15	15	15	16	16	16	16	16	16	16	16	16	16	16	16	16	16	16	17	18	18	19	21	23	24	25	26	27	28	29	29	29	29	29	28	26	24	22	22	22	22	22	22	21	21	21	20	20	21	21	21	21	21	21	22	22	22	22	22	22	22	23	23	24	25	26	28	29	30	30	30	30	30	30	29	29	28	28	28	28	28	28	28	28	28	28	28	28	28	28	28	28	28	28	28	28	28	28	28	28	28	28	28	28	28	28	29	29	29	29	29	29	29	29	30	30	30	30	31	31	31	31	31	32	32	32	32	32	33	33	33	33	33	34	35	36	37	38	38	39	40	40	39	39	39	39	39	39	39	40	40	40	42	43	44	45	46	47	48	49	51	51	51	51	51	51	50	50	50	51	51	51	52	52	53
12	13	13	14	15	15	16	17	17	18	18	18	18	19	19	20	20	21	21	21	21	22	23	23	23	24	24	24	24	23	23	23	23	22	22	22	22	22	22	22	22	21	21	20	20	19	19	19	19	18	18	18	18	18	18	18	17	17	16	16	15	15	14	14	13	13	13	13	13	13	13	13	13	13	13	13	12	12	11	11	10	10	11	12	11	11	10	10	8	7	6	5	6	6	6	5	4	4	5	4	4	4	4	4	4	4	4	4	4	4	4	4	4	4	4	5	5	5	5	5	5	5	5	5	5	5	5	5	5	5	6	6	6	6	6	6	5	5	5	5	5	5	5	5	5	5	5	4	5	5	5	5	5	5	5	5	5	5	5	5	5	5	5	6	6	5	5	6	6	6	6	6	6	5	5	5	5	5	5	5	5	6	6	7	7	7	7	7	8	9	9	9	9	9	10	11	12	13	13	14	16	17	18	19	19	18	18	18	17	17	17	17	16	16	16	16	17	16	16	16	16	16	16	16	16	15	15	14	14	14	14	14	14	14	14	14	15	14	15	16	17	17	18	19	20	20	21	22	23	23	24	24	25	25	25	25	24	22	21	20	20	20	20	20	20	20	20	20	20	20	20	20	20	21	21	21	21	21	21	21	20	20	20	19	19	18	18	18	17	16	16	15	14	14	14	15	15	16	16	16	16	17	16	16	16	16	16	16	16	16	16	16	16	16	16	16	17	16	16	15	15	15	14	14	14	14	13	13	14	18	21	24	26	28	29	29	30	29	29	29	28	27	26	24	23	22	21	20	19	18	18	17	16	16	16	16	16	16	15	15	14	14	14	14	14	14	15	14	15	15	15	15	16	16	16	16	16	16	16	16	16	16	16	16	16	16	17	18	20	20	20	20	20	20	20	20	20	20	20	20	20	20	19	19	19	19	19	19	19	20	20	19	19	19	18	17	16	15	15	15	16	17	17	17	18	18	18	18	19	21	22	22	22	22	23	25	27	27	28	30	32	33	33	35	37	38	40	42	44	45	47	48	50	52	53	55	56	58	59	60	61	63	64	65	67	69	71	73	74	74	74	75	77	78	79	79	78	75	73	71	69	67	64	61	58	57	57	56	55	54	53	52	51	51	50	50	48	47	47	47	46	45	44	43	42	40	39	38	38	39	40	40	41	41	41	41	41	40	40	39	38	37	36	35	35	34	33	33	32	32	31	29	27	26	25	24	23	23	22	22	22	22	22	21	21	21	20	20	20	20	20	19	19	19	18	17	16	16	16	16	16	16	17	17	17	17	16	16	16	16	16	16	15	14	14	14	13	13	13	13	13	13	14	14	14	15	15	14	13	12	12	11	10	10	10	11	11	11	11	11	11	11	11	11	11	11	11	11	11	11	11	11	11	11	10	9	8	8	8	10	10	11	10	10	10	10	10	10	10	10	10	10	10	10	9	9	9	9	10	11	11	11	11	11	12	12	12	12	12	12	12	13	12	13	13	13	13	13	13	13	13	13	13	13	13	13	13	13	13	13	13	14	14	14	14	14	14	14	14	14	14	14	14	14	14	14	14	14	14	14	14	14	14	14	14	14	14	14	14	14	14	14	15	15	15	15	15	15	15	15	15	15	15	15	15	15	15	15	15	15	15	15	15	15	16	16	16	16	16	16	16	16	16	16	16	16	16	17	18	18	19	20	21	23	25	26	27	28	29	29	30	30	31	30	30	27	25	23	22	22	22	22	21	21	20	20	20	20	20	20	21	21	21	21	22	22	22	22	22	22	23	23	23	24	25	26	28	29	30	30	30	30	30	29	29	28	28	28	28	28	28	28	28	28	28	28	28	28	28	28	28	28	27	27	27	27	27	27	27	27	27	27	28	28	28	28	28	28	28	28	28	29	29	29	29	29	30	30	30	30	30	31	31	31	31	31	31	32	32	32	32	32	32	33	34	35	36	36	37	38	39	39	39	39	39	39	39	39	39	39	39	40	41	42	43	44	45	45	46	48	48	49	49	49	49	48	48	48	48	49	49	49	50	50	51
12	13	14	14	15	16	17	17	18	18	19	19	19	19	20	20	21	21	21	21	22	23	23	23	24	24	24	24	23	23	23	23	23	22	22	22	22	22	22	22	22	22	22	21	21	20	20	20	19	19	19	19	19	18	18	18	17	17	16	16	15	14	14	14	14	13	13	13	13	13	13	13	13	13	13	13	12	12	11	11	10	10	10	10	10	10	9	9	8	6	6	6	5	5	6	5	4	4	4	4	4	4	4	4	4	4	4	4	4	4	4	4	4	4	4	4	4	5	5	5	5	5	5	5	5	5	5	5	5	5	5	5	6	6	6	5	5	5	5	5	5	5	5	5	5	5	5	5	5	5	5	5	5	5	5	5	5	5	5	5	5	5	5	5	5	5	6	6	6	6	6	6	5	5	5	5	5	5	5	5	6	6	6	6	7	7	7	7	8	9	9	9	9	9	10	11	12	13	14	15	16	17	18	19	19	18	18	17	17	17	17	16	16	16	16	16	16	16	16	15	16	16	16	16	15	15	14	14	14	14	14	14	14	14	14	14	14	14	15	16	17	17	18	19	20	21	22	23	23	24	24	24	25	25	25	25	24	23	21	20	20	21	20	20	21	21	21	21	21	21	21	21	22	22	22	22	21	21	21	21	21	20	20	19	19	18	18	17	17	16	15	14	14	14	14	15	15	15	16	16	16	16	16	16	17	16	16	16	16	16	16	16	16	16	16	16	16	16	16	15	15	14	14	14	14	13	13	13	16	20	24	26	28	29	30	31	31	31	31	30	29	28	26	25	24	23	22	20	19	18	18	17	17	16	16	16	16	15	15	14	14	14	14	14	14	14	15	14	14	15	15	15	15	15	16	16	16	16	16	16	16	16	17	16	16	17	18	19	20	20	20	20	20	20	20	20	19	19	19	19	19	19	19	19	19	19	19	19	19	19	19	19	19	18	17	15	15	14	15	16	17	17	17	18	18	18	18	18	19	21	22	22	22	23	24	25	27	27	28	30	32	33	34	36	37	39	40	42	43	45	46	48	50	52	53	55	57	58	59	60	62	63	65	66	68	70	72	74	75	76	76	77	79	80	82	81	79	76	73	71	69	66	63	61	59	58	58	57	57	56	55	55	54	53	52	51	50	49	49	48	47	46	45	44	43	41	40	39	39	40	41	42	42	42	42	42	42	41	41	40	39	38	37	36	35	34	34	33	32	32	31	30	28	27	25	24	23	22	22	21	21	21	21	21	20	20	20	20	20	20	19	19	19	19	18	17	16	16	16	16	16	16	17	17	17	17	17	16	16	15	15	15	14	14	14	13	13	13	14	14	14	15	15	15	15	15	15	15	14	13	12	12	11	10	10	11	11	11	11	11	11	11	11	11	11	11	11	11	11	11	11	10	10	11	10	9	9	8	8	9	10	10	10	10	10	10	10	10	10	10	10	10	10	9	9	9	9	9	10	11	11	11	11	11	12	12	12	12	12	12	13	13	12	13	13	13	13	13	13	13	13	13	13	13	13	13	13	13	13	13	13	14	14	14	14	14	15	14	14	14	14	14	14	14	14	14	14	14	14	14	14	14	14	14	14	14	14	14	14	14	14	14	14	14	15	15	15	15	15	15	15	15	15	15	15	15	15	15	15	15	15	15	15	15	15	16	16	16	16	16	16	16	16	16	16	16	16	17	18	18	19	20	22	24	25	27	28	28	29	30	31	31	31	31	30	28	26	23	22	22	22	22	21	21	20	20	20	20	20	20	20	21	21	21	21	22	22	22	22	22	23	23	24	25	26	27	28	29	30	30	30	30	30	29	29	28	28	28	27	28	28	27	27	27	27	27	27	27	27	27	27	27	27	27	27	27	27	27	27	27	27	27	27	27	28	28	28	28	28	28	28	28	28	28	29	29	29	29	29	29	30	30	30	30	30	31	31	31	31	31	31	31	32	32	33	33	34	35	36	37	38	39	39	39	38	38	38	38	39	39	39	39	40	41	42	43	43	44	45	46	47	47	47	47	46	46	46	45	45	45	46	47	48	49	49
12	13	14	15	16	16	17	18	18	19	19	19	20	20	21	21	21	21	22	22	23	23	23	24	24	24	23	23	23	23	23	23	23	23	22	22	22	22	22	22	22	22	22	22	22	21	21	21	20	20	20	20	19	18	18	17	17	16	16	16	15	14	14	14	14	14	14	14	13	13	13	13	13	13	13	12	12	11	11	11	10	10	9	9	9	9	9	8	7	6	5	5	5	5	6	5	5	4	4	4	4	4	4	4	4	4	4	4	4	4	4	4	4	4	4	4	4	4	5	5	5	5	5	5	5	5	5	5	5	5	5	5	5	5	5	5	5	5	5	5	5	5	5	5	5	5	5	5	5	5	5	5	5	5	5	5	5	5	5	5	5	5	5	5	5	6	6	6	6	6	5	5	5	5	5	5	5	5	5	5	6	6	6	6	7	7	7	8	9	9	9	9	9	9	10	11	12	13	14	14	15	16	17	18	18	18	17	17	17	16	16	16	15	15	15	15	15	15	15	15	15	15	15	15	15	14	14	14	14	14	14	14	14	14	14	15	14	15	15	16	17	18	19	20	21	22	23	24	24	24	24	25	25	25	25	25	25	24	22	21	21	22	22	22	22	22	23	23	23	23	23	23	23	24	23	23	22	21	21	21	21	20	19	19	18	17	17	16	16	15	15	14	14	14	15	14	14	15	15	16	16	16	16	16	16	16	16	16	16	16	16	16	16	16	16	16	16	15	15	15	14	14	14	14	13	12	12	15	19	23	26	28	30	31	32	33	33	32	32	31	30	28	27	26	24	23	22	20	19	18	18	18	17	17	16	16	15	15	14	14	14	14	14	14	14	15	14	14	14	15	15	15	15	15	15	15	16	16	16	15	15	16	16	17	17	17	18	19	19	19	19	19	19	19	19	19	19	19	19	19	19	19	19	19	19	19	19	19	19	18	18	17	17	16	15	14	14	15	15	16	17	17	17	18	18	18	18	18	19	21	22	23	23	24	24	26	27	27	27	29	31	33	34	36	37	39	40	42	43	44	46	48	49	51	53	55	57	58	59	60	61	63	64	66	68	70	72	74	75	76	78	79	80	81	82	81	79	76	74	71	69	66	64	61	60	59	59	59	59	58	57	57	56	55	54	53	52	51	50	50	49	48	47	45	44	43	42	41	41	42	43	44	44	44	43	43	43	43	42	41	40	39	38	37	36	35	34	33	32	32	31	31	29	28	26	24	23	22	21	21	20	20	20	20	20	20	20	20	20	19	19	19	19	18	18	17	16	16	16	16	16	17	17	17	17	17	17	16	15	15	14	14	14	13	13	13	14	14	15	15	16	16	16	15	15	15	15	15	14	13	13	12	11	10	10	10	11	11	11	11	11	11	11	11	11	11	11	11	11	11	10	10	10	10	11	9	9	8	8	9	10	10	10	10	10	10	10	10	10	10	10	10	9	9	9	9	9	9	10	11	11	11	11	12	12	12	12	12	12	12	13	13	12	13	13	13	13	13	13	13	13	13	13	13	13	13	13	13	13	13	13	13	14	14	14	14	15	14	14	14	14	14	14	14	14	14	14	14	14	14	14	14	14	14	14	14	14	14	14	14	14	14	14	14	14	14	15	15	15	15	15	15	15	15	15	15	15	15	15	15	15	15	15	15	15	15	15	15	16	16	16	16	16	16	16	15	16	17	18	18	19	20	22	24	26	27	28	29	30	31	31	32	31	31	30	29	26	23	22	21	21	21	21	20	20	20	20	20	20	20	20	20	21	21	21	21	22	22	22	22	23	23	24	25	26	26	28	29	29	30	30	30	29	29	28	28	27	27	27	27	27	27	27	27	27	27	27	27	27	27	27	27	27	27	27	27	27	27	26	26	27	27	27	27	27	28	28	28	28	28	28	28	28	28	28	28	29	29	29	29	29	29	29	30	30	30	30	30	31	31	31	31	31	31	32	32	33	34	35	36	37	38	39	39	38	38	38	38	38	38	39	39	39	40	41	41	42	43	44	44	45	45	45	45	44	44	43	42	42	41	42	43	44	45	47
12	13	14	15	16	17	18	18	19	19	20	20	21	21	22	22	22	22	22	23	23	23	24	24	24	24	24	23	23	23	23	23	23	23	22	22	22	22	22	22	22	22	22	22	22	22	22	22	21	21	20	19	19	18	18	17	17	16	16	15	15	14	14	14	14	14	14	14	13	13	12	12	12	12	12	12	12	11	11	10	10	9	9	9	9	9	8	7	7	6	6	5	5	5	5	5	4	5	5	4	4	4	4	4	4	4	4	4	4	4	4	4	4	4	4	4	4	4	4	4	5	5	5	5	5	5	5	5	5	5	5	5	5	5	5	5	5	5	5	5	5	5	5	5	5	5	5	5	5	5	5	5	5	5	5	5	5	5	5	5	5	5	5	5	5	6	6	6	6	5	5	4	4	5	5	5	5	5	5	6	6	6	6	6	7	7	7	8	9	9	9	9	9	9	9	10	12	13	14	14	15	16	17	18	18	17	17	17	16	16	16	15	15	15	15	15	15	15	14	14	14	14	15	15	15	14	14	14	14	14	14	14	14	14	14	14	14	15	16	16	17	18	20	21	22	23	24	25	25	25	24	25	25	25	25	25	25	25	24	23	23	23	24	24	24	24	24	24	24	24	25	25	24	24	24	24	23	22	21	21	20	20	19	18	17	17	17	16	16	16	15	14	14	14	15	14	14	15	15	15	16	16	16	16	16	16	16	16	16	16	16	17	17	16	16	16	16	15	15	14	14	14	13	13	12	12	14	17	21	25	28	30	32	33	34	34	34	33	33	32	30	29	28	26	25	24	22	21	20	19	18	18	17	17	16	15	15	14	14	14	14	14	14	14	14	15	14	15	14	14	15	15	15	15	15	15	15	15	15	15	15	16	17	17	17	18	18	19	19	19	19	19	19	19	19	19	19	19	19	19	19	19	19	18	18	18	18	18	17	17	16	15	15	14	14	15	15	15	16	16	17	17	17	18	18	18	18	19	20	21	23	24	24	24	25	26	27	27	27	29	31	32	34	36	37	38	40	41	42	44	45	47	49	51	53	55	56	57	58	59	61	62	63	65	67	69	71	72	74	75	77	78	80	81	82	81	79	77	75	72	69	67	65	63	62	61	61	61	60	60	59	59	58	57	56	55	54	53	52	51	50	49	48	47	46	45	44	43	43	44	45	46	46	46	45	45	45	44	43	42	41	40	39	38	37	35	34	33	32	31	31	30	30	28	26	24	22	21	21	20	20	20	20	20	20	20	20	20	20	19	19	19	19	18	18	17	16	16	16	16	16	17	17	17	17	17	16	16	15	14	14	14	13	13	14	14	15	15	16	16	16	15	15	15	15	15	14	14	14	14	13	12	12	10	10	10	10	10	11	11	11	11	11	11	11	11	11	11	11	10	9	9	8	10	10	10	9	8	8	9	10	10	10	10	10	10	10	10	10	10	10	9	9	9	9	9	9	9	10	11	11	11	11	11	12	12	12	12	12	12	13	13	12	13	13	13	13	13	13	13	13	13	13	13	13	13	13	13	13	13	13	13	14	14	14	14	15	14	14	14	14	14	14	14	14	14	14	14	14	14	14	14	14	14	14	14	14	14	14	14	14	14	14	14	14	14	14	14	15	15	15	15	15	15	15	15	15	15	15	15	15	15	15	15	15	15	15	15	15	15	15	15	16	16	15	15	16	17	17	18	18	20	23	25	26	27	28	29	30	31	31	31	31	30	29	28	26	24	22	21	21	20	20	20	19	19	19	19	20	20	20	20	21	21	21	21	21	22	22	22	23	23	24	24	25	26	27	28	29	29	29	30	29	29	28	28	27	27	27	27	27	27	27	27	27	27	27	27	27	27	27	27	27	26	26	26	26	26	26	26	26	27	27	27	27	27	27	27	27	27	27	27	27	27	28	28	28	28	28	28	28	28	29	29	29	29	30	30	30	30	30	31	31	31	31	32	32	33	34	35	36	37	38	39	39	39	38	38	38	38	38	39	39	39	40	40	41	42	42	43	43	43	43	42	42	42	41	40	40	39	39	39	40	41	42
12	12	13	14	15	17	18	19	19	20	21	21	22	22	22	22	22	23	23	23	24	24	24	25	25	25	25	25	25	24	24	23	23	22	22	22	22	22	22	22	22	22	22	22	22	22	22	22	22	21	20	19	19	18	18	17	17	16	16	15	14	14	14	14	14	14	14	14	13	12	12	11	11	11	11	11	11	11	10	10	10	9	9	9	9	9	8	7	7	6	6	6	6	5	5	4	4	4	5	4	4	4	4	4	4	4	4	4	4	4	4	4	4	4	4	4	4	4	4	4	4	5	5	5	5	5	5	5	5	5	5	5	5	5	5	5	5	5	5	5	5	5	4	4	4	4	5	5	5	5	5	5	5	5	5	5	5	5	5	5	5	5	5	5	5	5	6	6	6	5	4	4	4	5	5	5	5	5	5	6	6	6	6	6	7	7	7	8	9	9	9	9	9	9	9	10	12	13	13	14	15	16	16	17	17	16	16	16	16	16	15	15	15	14	14	14	14	14	14	14	14	14	14	14	15	14	14	14	14	14	14	14	14	14	14	14	14	15	16	17	17	19	21	22	23	24	25	25	26	25	25	25	25	25	25	25	25	25	25	25	25	25	25	25	25	25	25	25	24	25	25	25	25	25	25	24	23	23	22	21	21	20	19	18	17	17	17	16	16	16	15	14	14	14	14	15	14	15	15	15	15	16	16	16	16	16	16	16	16	16	16	16	16	16	16	16	15	15	14	14	14	13	12	12	12	13	16	20	23	27	29	32	34	35	35	35	35	34	34	33	31	30	29	27	26	24	23	21	20	19	18	17	17	16	15	15	14	14	14	14	14	14	14	14	15	14	14	14	14	14	15	15	15	15	15	15	15	15	15	15	15	16	17	17	17	18	18	18	18	18	19	19	19	19	19	19	19	19	19	19	18	18	17	17	16	16	16	15	15	14	14	14	14	14	15	15	15	15	16	16	17	17	17	17	18	19	20	21	21	22	23	24	24	25	25	26	27	27	27	28	30	32	34	35	36	38	39	41	42	44	45	47	49	50	52	54	55	56	57	59	60	61	62	64	66	67	69	70	72	73	75	76	78	80	82	81	80	79	76	73	71	69	67	66	65	64	63	62	62	62	62	61	61	60	58	57	56	54	54	53	52	50	49	48	47	46	46	45	45	46	47	48	48	48	47	47	46	46	45	43	42	41	39	38	37	36	34	33	32	31	30	30	29	28	26	24	22	21	20	20	20	20	20	20	20	20	20	19	19	19	19	19	18	18	18	18	17	17	16	16	16	17	17	17	16	16	16	16	15	15	14	14	14	14	15	15	16	16	15	15	15	15	15	15	15	15	14	14	14	14	13	12	12	11	10	10	10	10	10	11	11	11	11	11	11	11	11	11	11	10	9	8	8	9	10	10	9	8	8	9	10	10	10	10	10	10	10	10	10	10	10	9	9	9	9	9	9	9	11	12	11	11	11	11	12	12	12	12	12	12	13	13	12	13	13	13	13	13	13	13	13	13	13	13	13	13	13	13	13	13	13	13	14	14	14	14	14	15	14	14	14	14	14	14	14	14	14	14	14	14	14	14	14	14	14	14	14	14	14	14	14	14	14	14	14	15	14	14	14	14	14	14	15	15	15	15	15	15	15	15	15	15	15	15	15	15	15	15	15	15	15	15	15	15	15	15	16	16	17	17	18	20	23	25	26	28	29	30	30	31	31	30	30	30	29	28	26	24	22	20	20	20	19	19	19	19	19	19	19	20	20	20	20	21	21	21	21	21	22	22	23	23	23	24	25	26	26	27	28	28	29	29	29	28	28	28	27	27	26	26	26	26	26	26	27	27	27	27	27	27	26	26	26	26	26	26	26	26	26	26	26	26	26	27	27	27	27	27	27	27	27	27	27	27	27	27	27	27	27	27	28	28	28	28	29	29	29	30	30	30	30	30	30	30	31	31	31	32	33	34	35	36	37	38	39	39	38	38	38	38	38	38	39	39	39	40	40	40	41	41	41	41	40	40	40	40	40	39	39	39	38	38	38	38	39
12	12	13	14	16	17	18	19	20	21	22	22	22	23	23	23	23	23	23	24	24	25	25	25	26	26	27	27	27	27	26	25	24	24	23	23	22	22	22	22	22	22	22	22	22	22	22	22	22	21	20	19	19	18	18	17	17	16	15	15	14	14	13	13	13	13	13	13	12	11	11	11	11	11	11	11	11	10	10	10	9	9	9	9	9	9	8	7	7	6	6	5	5	5	4	4	4	4	5	4	4	4	4	4	4	4	4	4	4	4	4	4	4	4	4	4	4	4	4	4	4	4	5	5	5	5	5	5	5	5	5	5	5	5	5	5	5	5	5	5	5	4	4	4	4	4	5	5	5	5	5	5	5	5	5	5	5	5	5	5	5	5	5	5	5	5	6	6	5	4	4	4	5	5	5	5	5	5	6	6	6	6	6	7	7	7	7	8	9	9	9	9	9	9	10	11	12	12	13	14	15	16	16	16	16	16	16	16	16	15	15	15	14	14	14	14	14	14	14	14	14	14	14	14	14	15	14	14	14	14	14	14	14	14	14	14	15	15	16	17	18	20	22	23	24	25	25	26	26	25	25	25	25	25	25	25	25	25	25	25	25	25	25	25	25	25	25	25	25	25	25	26	26	26	25	25	24	23	22	22	21	20	19	18	17	17	17	16	16	16	15	14	14	14	14	14	14	14	15	15	15	15	15	15	16	16	16	16	16	16	16	16	16	16	16	15	15	14	14	14	13	12	12	12	12	13	16	21	25	28	31	33	35	36	36	36	36	35	35	34	32	31	30	28	26	25	23	22	20	19	18	16	16	15	15	14	15	14	14	14	14	14	14	15	15	14	14	14	15	15	15	15	15	15	15	15	15	15	15	15	16	16	17	17	17	17	17	18	18	18	18	18	18	18	18	18	18	18	18	18	17	16	16	15	14	14	14	14	14	14	14	14	15	15	15	15	15	16	16	16	17	17	17	17	18	19	21	21	21	21	23	24	24	24	25	26	27	27	27	29	30	32	33	34	36	37	39	40	42	43	44	46	48	49	51	53	54	55	57	58	59	60	61	63	65	66	67	68	69	71	72	74	76	79	81	82	81	80	78	76	73	71	69	68	67	67	66	65	64	64	64	64	63	62	60	59	57	56	55	54	53	52	51	50	49	48	47	47	47	48	49	50	50	50	49	49	48	47	45	44	42	41	40	39	37	36	35	33	32	31	30	29	29	28	26	24	22	21	20	20	20	20	20	20	20	19	19	19	19	19	19	19	18	18	18	18	18	17	17	17	17	17	17	16	16	16	16	15	15	15	15	14	15	15	16	16	16	15	15	15	15	15	15	15	15	15	14	15	14	14	13	12	12	11	10	10	10	10	10	11	11	11	11	11	11	11	11	11	11	9	8	8	8	9	10	10	9	8	8	9	10	10	10	10	10	10	10	10	10	10	10	9	9	9	9	9	9	9	11	12	11	11	11	11	12	12	12	12	12	13	13	12	13	13	13	13	13	13	13	13	13	13	13	13	13	13	13	13	13	13	13	13	14	14	14	14	14	15	14	14	14	14	14	14	14	14	14	14	14	14	14	14	14	14	14	14	14	14	14	14	14	14	14	14	14	14	14	14	14	14	14	14	15	15	15	15	15	15	15	15	15	15	15	15	15	15	15	15	15	15	15	15	15	15	15	15	16	16	17	17	18	20	22	24	26	28	29	30	30	30	30	30	29	29	28	27	25	23	21	20	19	19	19	18	18	18	18	19	19	19	19	20	20	20	20	21	21	21	22	22	22	23	23	24	24	25	26	26	26	27	27	27	27	27	27	27	27	26	26	26	26	26	26	26	26	27	27	27	26	26	26	26	26	26	26	26	26	26	26	26	26	26	26	26	26	27	27	27	27	27	27	27	27	27	27	27	27	27	27	27	27	27	28	28	28	29	29	29	30	30	30	30	30	30	30	30	31	31	32	33	34	35	36	37	38	38	38	38	38	38	38	38	38	38	39	39	39	39	40	40	40	39	39	39	39	39	39	38	38	38	38	37	37	37	38
12	13	14	15	16	18	19	20	21	22	22	23	23	24	24	24	24	24	24	24	25	25	26	26	26	26	27	28	29	29	29	28	27	26	26	25	24	23	23	22	22	22	22	22	22	22	22	22	22	21	20	19	19	18	17	17	16	16	15	15	14	13	12	12	11	11	11	11	11	10	10	10	10	10	10	10	10	10	9	9	9	9	9	9	9	9	8	8	7	6	6	5	5	4	4	4	4	4	5	4	4	4	4	4	4	4	4	4	4	4	4	4	4	4	4	4	4	4	4	4	4	4	4	4	5	5	5	5	5	5	5	5	5	5	5	5	5	5	5	5	5	4	4	4	4	4	5	5	5	5	5	5	5	5	5	5	5	5	5	5	5	5	5	5	5	5	6	6	5	4	4	5	5	5	5	5	5	6	6	6	6	6	6	7	7	7	7	8	9	9	9	9	9	9	10	11	12	12	12	13	15	16	16	16	16	16	16	16	16	15	15	15	14	14	14	14	14	14	14	14	14	14	14	14	14	14	15	14	14	14	14	14	14	14	14	14	15	16	16	17	19	20	22	24	25	25	26	26	26	25	25	25	25	25	25	25	25	25	25	25	25	25	26	26	26	25	25	25	25	26	26	26	26	26	26	26	25	24	23	22	21	20	19	18	18	17	17	17	16	16	15	14	14	14	14	14	14	14	15	15	15	15	15	15	15	15	16	16	16	16	16	16	16	16	15	15	15	14	14	13	12	11	12	12	13	14	17	21	25	28	31	34	35	36	36	36	36	36	36	35	33	32	30	29	27	25	24	22	21	19	17	16	15	15	14	15	14	14	14	14	14	14	15	15	14	14	14	15	15	15	15	15	15	14	14	15	15	15	15	16	16	16	17	16	16	17	17	17	17	17	17	17	17	17	17	17	17	17	17	16	15	15	14	14	14	14	14	14	14	14	15	15	15	15	15	15	16	16	16	16	16	17	17	17	18	20	21	21	21	21	22	23	22	23	24	26	27	27	28	29	30	31	32	34	35	37	38	39	41	42	43	45	47	48	50	52	53	54	56	57	58	59	60	62	63	64	65	66	67	68	69	71	73	77	80	81	81	81	80	78	75	73	72	71	70	70	69	68	68	67	67	66	65	64	62	61	59	58	57	56	55	54	53	52	51	50	49	49	49	50	51	52	52	52	51	51	50	48	46	44	43	42	41	39	38	36	35	33	32	30	30	29	28	27	26	24	22	21	20	20	20	20	20	20	19	19	19	19	19	19	18	18	18	18	18	18	17	17	17	17	17	16	16	16	16	16	16	15	15	15	15	15	15	16	16	15	15	15	15	15	15	15	15	15	15	15	14	14	14	14	13	13	13	12	11	10	10	10	11	11	11	11	11	11	11	11	11	11	10	9	8	8	8	8	10	10	9	8	8	9	10	10	10	10	10	10	10	10	10	10	10	9	9	9	9	9	9	10	11	12	11	11	11	11	12	12	12	12	13	13	13	12	13	13	13	13	13	13	13	13	13	13	13	13	13	13	13	13	13	13	13	13	14	14	14	14	14	14	15	14	14	15	14	14	14	14	14	14	14	14	14	14	14	14	14	14	14	14	14	14	14	14	14	14	14	14	14	14	14	14	14	15	15	15	15	15	15	15	15	15	15	15	15	15	15	15	15	15	15	15	15	15	15	15	15	15	15	16	17	17	18	19	22	24	26	27	29	29	29	29	29	29	29	28	27	26	24	22	21	20	19	19	18	18	17	18	18	18	19	19	19	19	19	20	20	20	21	21	21	22	22	23	23	23	24	24	25	25	25	26	26	26	26	27	27	27	26	26	26	26	26	26	26	26	26	26	26	26	26	26	26	26	26	26	26	26	26	26	26	26	26	26	26	26	26	26	26	27	27	27	27	27	26	26	26	26	26	26	26	27	27	27	28	28	28	28	29	29	29	29	29	30	30	30	30	30	30	31	32	33	34	34	35	37	37	38	38	38	38	38	38	38	38	38	38	38	39	39	39	39	39	39	39	39	39	38	38	38	37	37	37	37	37	37	37
13	15	16	17	18	19	20	21	22	23	23	24	24	24	25	25	25	24	24	25	25	26	26	26	26	27	28	29	30	30	30	30	29	29	28	27	26	25	24	23	23	22	22	22	22	22	22	22	21	21	20	19	19	18	17	17	16	16	15	14	14	13	12	11	10	10	10	10	9	9	9	9	9	9	9	9	9	9	9	9	9	9	9	9	9	9	8	8	7	6	6	5	5	5	5	5	5	4	5	5	4	4	4	4	4	4	4	4	4	4	4	4	4	4	4	4	4	4	4	4	4	4	4	4	4	4	5	5	5	5	5	5	5	5	4	4	4	5	5	5	5	4	4	4	4	4	4	5	5	5	5	5	5	5	5	5	5	5	5	5	5	5	5	5	5	5	6	6	5	4	4	5	5	5	5	5	6	6	6	6	6	6	7	7	7	7	7	8	9	9	9	9	10	10	10	12	12	12	12	13	15	16	16	16	16	16	16	16	15	15	15	15	14	14	14	14	14	14	14	14	14	14	14	14	14	14	14	15	14	14	14	14	14	15	14	15	15	16	16	17	19	21	23	24	25	26	26	27	26	26	25	25	25	25	25	25	25	25	25	25	25	26	26	26	26	26	26	26	26	27	27	27	27	27	27	27	26	25	23	22	22	21	20	19	18	18	17	17	16	16	15	14	14	14	14	14	14	14	14	15	15	15	15	15	15	15	15	15	16	16	16	16	16	16	15	15	14	14	14	12	11	12	12	13	13	15	18	22	26	28	31	33	35	36	36	36	36	36	36	35	34	33	31	29	28	26	24	23	21	19	18	16	15	14	15	14	14	14	14	14	14	14	15	14	14	14	14	15	15	15	15	15	14	14	15	15	15	16	16	16	16	16	16	16	16	16	17	17	17	17	17	16	16	16	16	16	15	15	15	15	14	14	14	14	14	14	15	15	15	14	14	15	15	15	15	16	16	16	16	17	17	17	17	18	19	21	22	22	21	21	22	23	23	23	24	26	27	27	28	29	30	31	32	33	34	36	37	38	40	41	42	44	46	48	49	51	52	53	55	56	57	58	59	60	61	62	62	63	64	65	67	69	72	75	78	80	81	81	80	79	78	76	75	74	73	73	72	72	71	71	70	69	67	66	64	62	61	60	59	58	57	55	54	53	53	52	51	51	51	52	53	54	54	54	53	52	51	49	46	45	43	42	41	39	37	36	34	33	31	30	29	29	28	27	25	24	23	22	21	21	21	21	21	20	20	20	20	19	19	19	19	19	19	18	18	17	17	17	17	17	17	17	17	17	16	16	16	16	15	15	15	15	16	16	15	15	15	15	15	15	15	15	15	15	15	14	14	14	14	13	13	13	13	13	11	10	10	10	11	11	11	11	11	11	11	10	11	11	10	9	8	8	8	8	10	10	9	8	8	8	9	10	10	10	10	10	10	10	10	10	9	9	9	9	9	9	9	10	11	12	11	11	11	11	12	12	12	13	13	13	12	13	13	13	13	13	13	13	13	13	13	13	13	13	13	13	13	13	13	13	13	13	14	14	14	14	14	14	15	15	14	14	14	15	14	14	14	14	14	14	14	14	14	14	14	14	14	14	14	14	14	14	14	14	14	14	14	14	14	14	14	15	15	15	15	15	15	15	15	15	15	15	15	15	15	15	15	15	15	15	15	15	15	15	15	15	15	16	17	18	18	20	22	23	25	27	28	28	28	28	28	28	27	27	26	25	23	21	20	19	19	19	18	18	17	17	18	18	18	19	19	19	19	19	20	20	20	21	21	22	22	22	23	23	23	24	24	24	24	25	25	25	26	26	26	26	26	26	26	26	26	26	26	26	26	26	26	26	26	26	26	26	26	26	26	26	26	26	26	26	26	26	26	26	26	26	26	26	26	26	26	26	26	26	26	26	26	26	26	26	27	27	27	28	28	28	28	29	29	29	29	29	30	30	30	30	30	30	31	32	33	34	35	36	37	37	37	38	38	38	38	39	39	38	38	38	38	38	38	38	38	38	38	38	38	38	37	37	37	37	36	36	36	36	36
14	17	19	20	21	21	22	23	23	24	24	24	25	25	25	25	25	25	25	25	26	26	26	26	27	28	29	30	31	32	32	32	31	30	30	29	28	27	25	24	23	23	23	22	22	22	22	22	21	20	20	19	18	18	17	17	16	15	15	14	14	13	12	10	9	9	9	9	9	9	9	9	9	9	9	9	9	9	9	9	9	9	9	9	9	9	8	8	7	7	6	5	5	5	5	5	5	5	5	4	4	4	4	4	4	4	4	4	4	4	4	4	4	4	4	4	4	4	4	4	4	4	4	4	4	4	4	4	5	5	5	5	5	5	4	4	4	4	5	5	5	4	4	4	4	4	5	5	5	5	5	5	5	5	5	5	5	5	5	5	5	5	5	5	5	5	6	5	5	4	4	5	5	5	5	6	6	6	6	6	6	7	7	7	7	7	8	9	10	10	10	10	10	10	10	11	12	12	12	13	15	16	16	16	16	16	16	16	15	15	15	14	14	14	14	13	13	14	14	14	13	13	13	13	14	14	14	15	15	14	14	14	14	15	14	15	15	16	17	18	20	21	23	24	25	26	27	27	26	26	26	25	25	25	25	25	25	25	25	25	26	26	26	26	26	26	26	26	27	28	28	28	28	28	27	27	27	25	24	23	22	21	20	20	19	18	17	17	16	16	15	14	13	13	13	14	14	14	14	14	14	15	15	15	15	15	15	15	15	15	16	16	16	15	15	15	14	14	13	12	11	12	12	13	13	15	19	22	26	28	30	33	34	36	36	37	37	37	36	36	35	34	32	30	28	26	24	23	21	19	18	16	15	14	14	14	14	14	14	14	14	14	15	14	14	14	14	15	15	15	15	14	15	15	15	15	15	16	16	16	16	16	16	16	16	16	16	16	16	16	16	16	15	15	15	14	14	14	14	14	14	14	14	14	15	15	15	14	14	14	15	15	15	15	16	17	17	18	17	17	17	17	18	19	21	23	23	23	22	22	23	23	23	23	24	26	27	27	28	29	30	31	31	32	34	35	36	37	38	39	41	43	45	47	48	49	51	52	53	55	56	56	57	58	59	59	59	60	61	63	65	68	71	74	76	78	80	81	81	81	80	79	78	77	76	76	76	75	75	74	73	72	70	67	66	64	63	62	62	61	59	58	56	55	54	54	53	53	53	54	55	56	56	56	55	54	52	50	47	45	44	43	41	39	38	36	34	33	31	30	29	29	28	27	25	24	23	22	22	21	21	22	21	21	21	21	21	21	21	21	21	21	21	20	19	19	18	18	18	18	18	18	18	17	17	16	16	16	15	15	15	16	16	16	15	15	15	15	15	15	15	15	15	15	14	14	14	14	13	13	13	13	13	13	12	10	10	10	11	11	11	11	11	11	11	11	11	11	10	8	8	9	8	8	9	10	9	8	8	8	9	10	10	10	10	10	10	10	10	10	9	9	9	9	9	9	9	10	11	12	11	11	11	11	12	12	12	13	13	12	13	13	13	13	13	13	13	13	13	13	13	13	13	13	13	13	13	13	13	13	13	13	13	14	14	14	14	14	15	14	14	14	14	14	15	15	14	14	14	14	14	14	14	14	14	14	14	14	14	14	14	14	14	14	14	14	14	14	14	14	14	15	15	15	15	15	15	15	15	15	15	15	15	15	15	15	15	15	15	15	15	15	15	15	15	15	15	16	17	18	19	20	22	23	25	26	27	27	27	27	27	27	26	25	25	23	22	20	19	19	19	19	18	17	17	17	17	18	18	18	18	19	19	19	19	20	20	20	21	21	22	22	22	23	23	23	23	24	24	24	24	24	25	25	25	26	25	25	25	25	25	26	26	26	26	26	26	26	26	26	26	26	26	26	26	26	26	26	26	26	26	25	25	26	26	26	26	26	26	26	26	26	26	26	26	26	26	26	26	26	26	27	27	27	27	28	28	28	29	29	29	29	29	29	29	29	30	30	30	31	32	33	34	35	36	36	37	37	38	38	39	39	39	39	39	39	38	38	38	38	38	38	38	38	38	38	37	36	36	36	36	36	36	36	35
16	19	21	22	23	23	24	24	25	25	25	25	26	26	26	26	26	25	25	26	26	26	26	27	29	29	31	32	32	33	33	33	32	31	31	30	29	28	26	25	24	24	23	23	22	22	22	21	21	20	20	19	18	18	17	17	16	15	15	14	14	13	12	10	9	9	9	9	9	9	9	9	9	9	9	9	9	9	9	9	9	9	9	9	9	9	9	8	7	7	6	6	6	6	6	6	6	5	5	4	4	4	4	4	4	4	4	4	4	4	4	4	4	4	4	4	4	4	4	4	4	4	4	4	4	4	4	4	4	4	5	5	5	5	4	4	4	4	4	5	5	4	4	4	4	4	4	5	5	5	5	4	4	4	4	5	5	5	5	5	5	5	5	5	5	5	5	5	4	4	5	5	5	5	5	6	6	6	6	6	6	7	7	7	7	8	8	9	10	10	10	10	10	10	10	11	11	12	12	13	15	16	16	16	16	16	16	16	15	15	15	14	14	14	13	13	13	13	13	13	13	13	13	13	13	14	14	14	15	15	14	14	14	14	14	15	16	16	17	18	20	22	23	25	25	26	27	27	27	26	26	26	25	25	25	25	25	25	25	25	26	26	26	26	26	26	26	26	27	28	28	28	28	28	28	28	28	26	24	23	22	22	21	20	19	18	17	17	16	15	15	14	13	13	13	13	14	14	14	14	14	14	14	14	15	15	15	15	15	15	15	16	16	15	15	14	14	14	13	11	11	12	13	13	13	15	19	22	26	28	30	32	34	35	36	36	37	37	37	36	35	34	32	30	28	26	24	23	21	20	18	16	15	14	14	14	14	14	14	14	14	14	15	14	14	14	14	14	15	15	14	14	15	15	15	15	15	15	15	15	15	15	15	15	15	15	16	16	15	15	15	15	14	14	14	14	14	14	14	14	14	14	15	15	15	14	14	15	15	15	15	15	15	15	17	18	19	19	19	18	18	18	19	21	22	23	24	24	24	24	24	24	24	24	24	26	27	27	27	28	29	30	31	31	33	34	35	35	37	38	40	42	44	46	47	48	50	51	52	53	54	54	55	56	56	57	57	57	59	61	64	67	70	72	75	77	78	79	80	81	81	81	80	80	79	79	79	79	78	78	77	74	72	69	67	66	65	65	65	63	62	60	58	57	56	55	55	54	55	56	57	58	58	57	56	55	53	51	48	46	45	43	42	40	38	36	34	32	31	30	29	29	28	27	26	25	24	23	23	22	22	22	22	22	22	22	22	22	22	22	22	22	22	22	22	21	21	21	20	19	19	19	19	18	17	17	16	16	16	16	16	16	16	16	16	15	15	15	15	15	15	15	14	14	14	14	14	14	14	14	14	13	14	13	12	10	10	10	11	11	11	11	11	11	10	11	11	11	9	8	8	9	8	8	9	10	10	9	8	8	9	10	10	10	10	10	10	10	10	10	9	9	9	9	9	9	9	10	11	12	11	11	11	11	12	12	12	13	12	13	13	13	14	13	13	13	13	13	13	13	13	13	13	13	13	13	13	13	13	13	13	13	13	14	14	14	14	14	14	14	14	14	14	14	14	14	15	15	15	14	14	14	14	14	14	14	14	14	14	14	14	14	14	14	14	14	14	14	14	14	14	15	15	15	15	15	15	15	15	14	14	14	14	15	15	15	15	15	15	15	15	15	15	15	15	15	15	16	17	18	19	20	22	23	24	25	26	26	26	26	26	25	25	24	23	22	20	19	19	19	19	19	18	17	17	17	17	17	18	18	18	18	19	19	19	20	20	20	21	21	21	22	22	22	23	23	23	23	23	24	24	24	24	24	25	25	25	25	25	25	25	26	26	26	26	26	26	26	26	26	26	26	26	25	25	25	25	25	25	25	25	25	25	25	26	26	25	25	26	26	26	26	26	26	26	26	26	26	26	26	26	26	27	27	27	27	28	28	28	29	29	29	29	29	29	29	29	29	30	30	31	32	33	34	35	36	36	37	38	39	39	39	40	39	39	39	39	38	38	38	38	38	38	38	38	37	37	36	36	36	36	35	35	35	35
18	20	22	23	24	25	26	26	27	27	27	27	26	26	26	26	26	26	26	26	26	27	28	29	30	31	32	33	33	34	34	33	33	32	31	30	29	28	27	26	25	24	23	23	22	22	21	21	21	20	20	19	18	18	17	17	16	15	15	14	14	13	12	10	9	9	9	9	9	9	9	9	9	9	9	9	9	9	9	9	9	9	9	9	9	9	9	8	7	7	6	6	6	6	6	6	6	5	5	5	4	4	4	4	4	4	4	4	4	4	4	4	4	4	4	4	4	4	4	4	4	4	4	4	4	4	4	4	4	4	4	5	5	5	4	4	4	4	4	4	5	5	4	4	4	4	3	4	4	4	4	4	3	4	4	4	4	5	5	5	5	5	5	5	4	4	5	4	4	4	5	5	6	6	6	6	6	6	6	6	7	7	8	8	8	8	8	9	10	10	10	10	10	10	10	10	11	12	13	14	15	16	16	16	16	16	16	16	15	15	14	14	14	14	13	13	13	13	13	13	13	12	12	12	12	13	13	14	14	14	15	15	14	14	15	15	16	16	17	19	20	22	24	25	25	26	27	27	27	26	26	26	25	25	25	25	25	25	25	26	26	26	26	26	26	26	26	26	27	28	28	28	28	28	28	28	28	27	25	23	23	22	21	20	19	18	17	17	17	16	14	13	13	13	13	13	13	14	14	14	15	15	14	14	15	15	15	15	15	15	15	15	15	15	14	14	14	13	12	11	11	12	13	13	13	15	19	22	26	28	30	31	33	34	35	36	36	36	36	36	35	34	32	30	28	27	25	23	22	20	18	16	15	14	14	14	14	14	14	14	14	14	15	14	14	14	14	14	15	14	14	14	15	15	15	15	15	15	15	15	15	15	15	15	15	15	15	15	15	14	14	14	14	14	14	14	14	14	14	14	15	15	15	14	14	14	15	15	15	15	15	15	15	16	18	20	21	21	20	20	19	20	21	22	23	23	24	25	25	25	25	24	24	24	25	26	27	27	27	27	28	29	29	30	31	32	33	34	35	36	38	40	42	44	46	48	49	50	50	51	51	52	53	53	54	54	54	55	57	60	63	66	69	71	73	75	76	77	78	80	81	82	82	82	82	82	82	82	81	81	79	77	74	71	69	68	67	68	67	66	64	63	61	60	59	58	57	57	56	57	59	60	60	59	57	56	54	52	49	47	45	44	42	40	38	36	34	32	30	30	29	29	28	27	26	26	25	24	23	23	23	23	23	22	22	22	22	22	22	22	22	22	22	22	22	22	22	22	21	21	20	20	19	19	18	18	17	17	16	16	16	16	16	16	16	15	15	15	15	14	14	14	14	14	14	14	14	14	14	14	14	14	14	14	12	10	10	10	11	11	11	11	11	11	11	11	11	10	9	8	8	9	8	8	9	10	10	9	8	8	9	9	10	10	10	10	10	10	10	10	9	9	9	9	9	9	9	10	11	12	12	12	12	12	12	12	12	13	13	13	14	15	15	15	15	14	13	13	13	13	13	13	13	13	13	13	13	13	13	13	13	13	13	14	14	14	14	14	14	14	14	14	14	14	14	14	14	14	15	15	14	14	14	14	14	14	14	14	14	14	14	14	14	14	14	14	14	14	15	14	14	15	15	15	15	15	15	15	14	14	14	14	14	14	14	14	15	15	15	15	15	15	15	15	15	15	15	16	17	18	19	20	22	23	24	24	25	25	25	25	24	24	23	22	21	21	20	19	19	19	19	18	18	17	16	17	17	17	18	18	18	18	19	19	19	19	20	20	20	21	21	21	22	22	22	22	23	23	23	23	23	24	24	24	24	25	25	25	25	25	25	25	26	26	26	26	26	26	26	26	26	26	25	25	25	25	25	25	25	25	25	25	25	25	25	25	25	25	25	25	25	25	25	25	25	25	25	26	26	26	26	26	26	26	27	27	27	28	28	28	28	29	29	29	29	29	29	29	29	30	31	32	33	33	34	35	36	37	38	39	39	40	40	40	40	39	39	39	38	38	38	38	38	38	38	37	37	36	36	36	35	35	35	35	35
19	22	23	25	26	27	28	29	30	30	29	29	28	26	26	26	26	26	26	26	27	28	30	31	31	32	33	34	34	35	35	34	34	33	32	30	29	28	27	26	25	24	24	23	22	21	21	21	20	20	20	19	18	18	17	17	16	15	15	14	14	13	12	10	9	9	9	9	9	9	9	9	9	9	9	9	9	9	9	9	9	9	9	9	9	9	9	8	8	7	6	6	6	6	6	6	6	5	5	4	4	4	4	4	4	4	4	4	4	4	4	4	4	4	4	4	4	4	4	4	4	4	4	4	3	4	4	4	4	4	4	4	5	4	4	4	4	4	4	4	4	4	4	4	4	4	3	3	4	4	4	3	3	3	3	4	4	5	5	5	5	5	5	5	5	5	5	5	5	5	5	6	6	6	6	6	6	6	6	7	7	8	8	8	8	8	9	9	10	10	10	10	10	10	10	10	11	11	13	14	15	15	15	15	16	16	16	15	15	14	14	14	14	13	13	13	12	12	12	12	12	12	12	12	12	12	12	13	13	14	14	14	15	14	15	15	16	16	18	19	20	22	23	24	25	26	27	27	27	27	26	26	26	25	25	25	25	25	25	26	26	26	26	26	26	26	26	26	27	28	28	28	28	28	28	28	28	27	25	24	23	22	21	20	19	18	17	17	17	16	14	13	13	13	13	13	13	14	14	14	14	15	14	14	14	15	15	15	15	15	15	15	15	14	14	14	14	12	11	11	12	13	12	13	13	16	19	22	25	28	29	31	32	33	34	35	36	36	36	36	35	33	32	30	28	27	25	23	22	20	18	16	14	14	14	14	14	14	14	14	14	14	15	14	14	14	14	15	15	14	14	15	15	15	14	15	15	15	15	14	14	14	14	14	14	14	14	14	14	14	14	14	14	14	14	14	14	15	15	15	14	14	14	14	15	15	15	15	15	15	15	15	16	18	20	21	21	21	21	21	21	21	22	22	23	24	24	25	26	26	25	24	24	24	25	26	27	27	27	27	27	28	28	29	30	30	31	32	33	35	36	38	40	43	45	46	47	48	48	48	48	49	50	51	51	52	53	54	56	59	62	65	67	69	71	73	73	74	76	78	79	81	82	84	85	85	84	84	84	83	81	79	76	73	71	70	70	70	70	69	67	65	64	63	61	60	60	59	59	59	60	62	62	60	58	57	55	52	50	48	45	43	42	40	38	36	33	31	30	29	29	28	27	27	26	26	25	24	24	24	23	23	23	23	22	22	22	22	22	22	22	22	22	22	22	22	22	22	22	22	21	20	20	19	19	18	18	18	17	17	16	16	16	16	16	15	15	15	15	15	15	15	14	14	14	14	14	15	14	14	14	14	14	14	13	11	10	10	11	11	11	11	11	11	11	11	11	10	8	8	9	9	9	8	8	10	10	9	8	8	8	9	10	10	10	10	10	10	10	9	9	9	9	9	9	9	9	10	12	12	12	12	12	12	12	12	13	13	13	14	15	16	17	17	16	16	15	14	14	13	13	13	13	13	13	13	13	13	13	13	13	13	13	13	13	13	14	14	14	14	14	14	14	14	14	14	14	14	14	14	15	14	14	14	14	14	14	14	14	14	14	14	14	14	14	14	14	14	15	14	14	15	15	15	15	14	14	14	14	14	14	14	14	14	14	14	14	15	15	15	15	15	15	15	15	15	15	16	17	18	18	20	22	23	23	23	24	24	24	24	23	23	22	21	20	20	19	19	19	19	18	18	17	17	16	16	17	17	18	18	18	18	19	19	19	19	19	20	20	21	21	21	21	22	22	22	22	23	23	23	23	23	23	24	24	24	24	24	25	25	25	25	25	26	26	26	26	26	26	26	26	26	25	25	25	25	25	25	25	25	25	25	25	25	25	25	25	25	25	25	25	25	25	25	25	25	25	25	26	26	26	26	26	26	26	27	27	27	27	28	28	28	28	29	29	29	29	29	29	29	30	31	32	33	34	35	36	36	37	38	39	40	40	40	40	40	39	39	39	38	38	38	38	38	38	37	36	36	36	36	35	35	35	35	34
21	23	25	26	28	29	31	32	32	33	32	31	30	28	26	25	26	26	26	27	28	30	31	32	33	33	34	35	36	36	35	35	34	33	32	30	29	28	27	26	25	24	24	23	22	21	21	21	20	20	20	19	18	18	17	17	16	16	15	14	14	13	12	10	9	9	9	9	9	9	9	9	9	9	9	9	9	9	9	9	9	9	9	9	9	9	9	8	8	7	7	6	6	6	6	6	6	6	5	4	4	4	4	4	4	4	4	4	4	4	4	4	4	4	4	4	4	4	4	4	4	4	4	3	3	3	4	4	4	4	4	4	4	4	4	4	4	4	4	4	4	4	4	4	4	3	3	4	4	4	4	3	3	3	3	4	4	5	5	5	5	5	5	5	5	5	5	5	6	6	6	6	6	6	6	6	6	6	7	7	7	8	8	9	9	9	9	10	10	10	10	10	11	11	10	10	10	11	13	14	15	15	15	15	15	15	15	15	14	14	14	14	14	13	13	12	12	12	12	11	11	11	11	11	11	11	11	12	12	13	14	14	14	14	15	15	16	16	18	19	20	22	23	24	25	26	27	27	27	27	26	26	26	25	25	25	25	25	25	26	26	26	26	26	26	26	26	26	27	28	28	28	28	28	28	28	27	27	25	24	23	23	21	20	19	18	18	17	16	16	15	13	13	13	13	13	13	13	14	14	14	15	14	14	14	14	14	14	14	15	15	15	15	14	14	13	12	11	10	11	12	13	12	13	13	16	19	22	25	27	28	29	31	32	33	34	34	34	34	34	34	32	31	30	28	26	25	23	22	20	18	16	14	13	13	13	14	14	14	14	14	14	15	15	14	14	14	15	14	14	14	15	15	15	14	14	14	14	14	14	13	14	14	14	14	14	14	14	14	14	14	14	15	15	15	14	14	14	14	14	14	14	14	15	15	15	15	16	16	16	16	16	18	20	21	21	21	21	21	22	22	22	22	23	23	24	24	25	25	25	25	24	24	24	24	25	26	26	26	27	27	27	27	28	28	28	29	30	30	32	34	36	38	41	43	44	45	46	46	46	46	47	47	48	49	50	52	54	56	58	60	63	65	67	69	70	71	72	74	76	78	80	81	84	86	87	87	86	86	84	83	81	78	76	75	73	73	73	72	71	70	68	66	65	64	63	62	62	62	61	62	63	62	61	59	57	55	53	50	48	45	43	41	39	37	35	32	30	29	29	28	27	26	26	26	26	25	25	24	24	24	24	24	23	23	23	23	23	23	23	23	23	23	23	23	22	22	22	22	22	22	21	20	20	19	18	18	18	18	17	17	17	17	16	16	15	15	15	15	15	15	15	15	15	14	15	14	15	14	14	14	15	15	15	14	12	10	10	10	11	11	11	11	11	11	11	11	9	8	8	9	9	9	8	8	9	10	10	9	8	8	9	10	10	10	10	10	10	10	9	9	9	9	9	9	9	10	11	12	12	12	12	12	12	12	12	12	13	13	15	16	18	19	19	19	18	17	16	16	15	14	14	13	13	13	13	13	13	13	13	13	13	13	13	13	14	14	14	14	14	14	14	14	14	14	14	14	14	14	14	14	15	14	14	14	14	14	14	14	14	14	14	14	14	14	14	14	14	14	14	15	15	15	15	14	14	15	15	14	14	14	14	14	14	14	15	14	14	14	14	15	15	15	15	14	15	15	15	16	17	18	20	22	23	23	23	23	24	23	23	22	22	21	20	19	19	19	19	19	18	18	17	17	16	16	16	17	17	17	18	18	18	18	19	19	19	19	19	20	20	20	21	21	22	22	22	22	22	22	23	23	23	23	24	24	24	24	24	24	25	25	25	25	25	26	26	26	26	26	26	26	25	25	25	25	25	24	24	24	24	24	24	24	24	24	24	25	25	25	25	25	25	25	25	25	25	25	25	25	25	26	26	26	26	26	26	27	27	27	27	28	28	28	28	28	29	29	29	29	29	30	30	31	32	33	34	35	36	37	38	39	40	40	40	40	40	39	39	39	38	38	38	38	38	38	37	36	36	36	36	35	34	34	34	34
22	24	26	28	30	31	33	34	34	34	34	33	32	30	28	26	25	26	27	28	30	31	32	33	34	35	36	36	37	37	36	35	34	33	32	30	29	28	27	26	25	24	24	23	22	22	21	21	20	20	20	19	18	18	17	17	16	15	15	14	14	13	12	10	9	9	9	9	9	9	9	9	9	9	9	9	9	9	9	9	9	9	9	9	9	9	9	8	8	7	7	6	6	6	6	6	6	6	5	5	4	4	4	4	4	4	4	4	4	4	4	4	4	4	4	4	4	4	4	4	4	4	4	3	3	3	4	4	4	4	4	4	4	4	4	4	4	4	4	4	4	4	4	4	3	3	4	4	3	3	4	4	3	3	4	4	5	5	5	5	5	5	5	5	5	5	5	5	6	6	6	6	6	6	6	6	6	7	7	8	8	8	8	9	9	10	10	10	11	11	11	11	11	11	10	10	10	11	13	14	14	15	15	15	15	15	15	15	14	14	14	14	13	13	13	12	12	11	11	11	11	11	11	11	11	11	11	12	12	13	13	13	14	14	15	15	16	17	18	19	20	22	23	24	25	26	26	27	27	27	27	26	26	26	25	25	25	25	25	25	25	26	26	26	26	26	26	26	27	27	27	27	28	28	28	27	27	26	25	24	24	23	22	21	20	19	18	17	16	16	15	13	13	12	13	13	13	13	13	14	14	14	15	14	14	14	14	14	14	14	15	15	14	14	13	11	10	10	11	12	13	13	13	13	13	15	18	21	24	26	27	28	29	30	31	32	33	33	33	33	32	31	30	29	27	26	24	23	21	20	18	15	13	13	13	13	13	13	14	14	14	14	14	14	15	15	14	15	14	14	15	15	15	14	14	14	13	13	13	13	14	14	14	14	14	14	14	14	14	14	15	14	15	15	15	15	15	14	14	14	14	14	15	15	15	16	16	16	16	16	16	17	18	20	22	22	22	22	22	22	22	22	23	23	23	24	24	24	24	24	24	24	24	24	24	24	25	25	25	26	26	26	26	27	27	27	28	27	28	30	32	34	36	39	41	42	43	44	44	44	44	45	46	46	48	49	51	53	55	56	58	60	62	64	66	68	69	71	72	74	76	78	80	83	86	88	88	88	88	86	85	83	81	80	79	78	77	76	75	74	72	71	69	68	66	65	65	64	64	63	63	63	62	61	59	57	55	53	50	48	45	43	41	38	36	34	32	30	29	29	28	27	26	26	26	26	25	25	25	25	25	25	25	24	24	24	24	24	25	25	24	24	24	24	23	23	22	22	22	22	22	21	20	20	20	19	18	18	18	18	18	18	17	17	16	15	15	15	15	15	15	15	15	15	14	14	14	14	14	15	15	15	15	15	15	14	12	11	10	10	11	11	11	11	11	11	10	9	8	8	9	9	9	8	8	9	10	10	9	8	8	8	9	10	10	10	10	10	9	9	9	9	9	9	9	9	10	11	12	12	12	12	12	12	12	12	12	13	14	16	18	19	20	21	21	21	20	20	20	19	18	17	16	15	14	14	14	14	14	14	14	14	14	14	14	14	14	14	14	14	14	14	14	14	14	14	14	14	14	14	14	15	14	14	14	14	14	14	14	14	14	14	14	14	14	14	14	14	14	15	15	15	15	15	14	14	14	14	14	14	14	14	14	14	14	14	14	14	14	14	14	15	14	14	14	15	15	15	16	17	18	20	22	23	23	23	23	23	22	22	21	21	20	20	19	19	18	19	18	18	18	17	17	16	16	16	17	17	17	18	18	18	18	19	19	19	19	19	19	20	20	21	21	21	21	22	22	22	22	22	23	23	23	24	24	24	24	24	24	25	25	25	25	25	25	26	26	26	26	26	26	25	25	25	25	24	24	24	24	24	24	24	24	24	24	24	24	24	24	24	25	25	25	24	24	25	25	25	25	25	25	25	26	26	26	26	26	27	27	27	27	28	28	28	28	28	29	29	29	29	29	30	31	32	33	34	35	35	36	37	38	39	40	40	40	40	40	39	39	39	38	38	38	38	37	37	36	36	36	36	35	34	34	34	34
22	25	27	30	32	33	34	35	35	35	35	34	33	32	29	27	25	26	27	29	31	32	33	34	35	36	37	38	38	38	37	36	35	33	32	30	29	28	27	26	25	25	24	23	23	22	21	21	20	20	20	19	18	18	17	17	16	15	15	14	14	13	12	10	9	9	9	9	9	9	9	9	9	9	9	9	9	9	9	9	9	9	9	9	9	9	9	8	8	7	7	6	6	6	6	6	6	6	5	5	4	4	4	4	4	4	4	4	4	4	4	4	4	4	4	4	4	4	4	4	4	4	3	3	3	3	3	4	4	4	4	4	4	4	4	4	4	4	4	4	4	4	4	4	4	3	3	3	3	3	4	4	4	4	4	5	5	4	4	5	5	5	5	5	5	5	5	5	6	6	6	6	6	6	6	6	7	7	8	8	9	9	9	10	10	11	11	11	11	12	12	11	11	11	10	10	10	11	12	14	14	14	14	14	15	15	14	14	14	14	13	13	13	13	12	12	12	11	11	11	11	11	11	11	11	11	11	12	13	13	13	13	14	14	15	15	16	17	18	19	20	22	23	24	25	26	26	27	27	27	27	26	26	26	25	25	25	25	25	25	25	25	25	25	25	25	26	26	26	27	27	27	27	27	27	27	26	26	25	25	24	23	22	21	20	19	18	17	16	16	15	14	12	12	12	12	12	13	13	14	14	14	15	15	15	15	15	14	14	15	15	14	13	12	11	10	10	11	12	12	13	12	13	13	13	15	18	20	22	24	25	26	27	28	29	30	31	31	31	31	30	30	29	28	26	25	24	22	21	19	17	14	13	13	13	13	13	13	14	14	14	14	14	14	14	14	15	14	14	14	15	15	14	14	13	13	13	13	13	14	14	14	14	14	14	14	14	14	14	14	15	15	15	15	15	15	15	15	15	15	14	15	15	15	16	16	16	17	17	16	17	17	18	20	21	22	22	22	22	22	22	23	23	23	23	24	24	24	24	24	24	24	24	24	24	24	24	24	24	25	25	26	26	26	26	27	27	26	27	29	31	33	35	37	39	40	41	42	42	42	43	43	44	45	47	48	50	52	53	55	56	58	60	62	65	66	68	69	71	73	75	77	80	82	85	88	90	90	89	88	87	85	84	83	82	81	80	79	78	76	74	73	72	70	69	68	67	66	66	65	64	64	63	61	59	57	55	53	51	48	45	43	40	38	35	32	30	29	29	28	27	26	26	26	26	26	26	26	26	26	26	26	26	26	25	25	26	26	26	26	26	25	25	25	24	24	23	22	22	22	21	21	20	20	20	20	19	18	18	18	18	18	18	17	17	17	17	17	16	16	15	15	15	15	15	15	15	15	15	15	15	15	15	15	15	15	14	12	11	10	10	10	10	10	10	11	10	9	8	8	8	8	8	9	8	8	9	10	9	9	8	8	9	9	10	10	10	10	10	9	9	9	9	9	9	10	11	12	12	12	12	12	12	12	12	12	12	13	15	17	19	20	22	23	24	24	24	24	24	23	23	22	21	19	17	16	16	16	15	14	14	14	14	14	14	14	14	14	14	14	14	14	14	14	14	14	14	14	14	14	14	15	14	14	14	14	14	14	14	14	14	14	14	14	14	14	14	14	14	15	15	15	15	15	14	14	14	14	14	14	14	14	14	14	14	14	14	14	14	14	14	14	14	14	14	15	15	15	16	17	17	19	21	22	23	23	22	22	22	21	21	20	19	19	18	18	18	18	18	18	17	17	16	16	16	16	17	17	17	18	18	18	18	18	19	19	19	19	19	20	20	20	21	21	21	21	22	22	22	22	22	23	23	23	24	24	24	24	24	24	25	25	25	25	25	25	26	26	26	26	25	25	25	25	24	24	24	24	24	24	24	24	24	24	24	24	24	24	24	24	24	24	24	24	24	24	24	25	25	25	25	25	26	26	26	26	26	26	27	27	27	27	28	28	28	28	28	29	29	29	29	30	30	31	32	33	34	34	35	36	37	38	39	40	40	40	40	39	39	39	38	38	38	38	37	37	36	36	36	36	35	34	34	34	34
23	25	28	31	33	34	35	36	36	36	36	35	34	33	31	28	27	27	28	30	32	33	34	35	36	37	38	39	40	39	39	37	35	33	32	30	29	28	27	26	25	25	24	23	23	22	22	21	20	20	20	19	18	18	17	17	16	15	15	14	14	13	12	10	9	9	9	9	9	9	9	9	9	9	9	9	9	9	9	9	9	9	9	9	9	9	9	8	8	7	7	6	6	6	6	6	6	6	5	5	5	4	4	4	4	4	4	4	4	4	4	4	4	4	4	4	4	4	4	4	4	3	3	3	3	4	4	3	3	4	4	4	4	4	4	4	4	4	4	4	4	4	3	4	4	4	3	3	3	3	3	3	4	4	5	4	4	4	4	4	5	5	5	5	5	5	5	5	6	6	6	6	6	6	7	7	7	8	8	9	9	10	10	11	11	11	12	12	12	12	12	12	11	11	11	10	10	11	12	13	14	14	14	14	14	14	14	14	13	13	13	13	12	12	12	12	11	11	11	11	11	11	11	11	11	11	11	12	14	14	14	14	14	14	15	15	16	17	18	19	20	21	23	24	24	25	26	27	27	27	27	27	26	26	25	25	25	24	24	24	24	24	24	24	24	24	25	25	26	26	26	26	27	26	26	26	26	26	25	25	24	24	23	21	20	19	18	17	16	16	15	14	12	12	12	12	12	13	13	14	14	14	14	14	14	14	14	14	15	14	14	12	11	10	10	11	11	12	13	13	12	13	13	13	13	15	17	19	20	21	23	25	26	26	27	28	29	29	29	29	29	28	27	26	25	24	23	21	20	18	16	13	12	13	13	13	13	13	13	14	14	14	14	14	14	14	15	14	14	15	14	13	13	13	13	13	13	13	13	13	14	14	14	14	14	14	14	14	14	14	14	14	15	15	15	15	15	15	15	15	15	15	15	16	16	16	16	16	16	16	17	17	17	19	21	22	22	22	22	22	23	23	23	23	23	24	24	24	24	24	24	24	24	24	24	24	24	24	24	25	25	25	26	26	26	27	27	26	26	28	31	32	33	35	37	38	39	39	40	41	42	43	44	45	47	48	50	51	52	53	55	56	58	60	63	65	66	68	70	72	74	76	79	81	84	87	90	91	91	90	88	87	86	85	84	83	82	82	80	78	76	74	73	72	70	69	68	67	67	66	65	64	63	61	59	58	56	53	51	48	45	43	40	38	34	31	29	29	28	28	27	26	26	26	27	27	26	26	26	26	26	26	26	26	26	26	26	26	26	26	26	26	26	25	25	24	23	22	22	22	21	21	20	20	20	20	20	20	19	18	18	18	18	18	18	19	19	19	18	18	17	16	16	17	17	17	17	16	15	15	15	15	15	15	15	15	15	14	13	12	11	10	10	10	10	10	10	10	9	9	8	8	8	8	8	8	9	10	10	9	8	8	8	9	10	10	10	10	10	9	9	9	9	10	10	11	11	12	11	12	12	12	12	12	12	12	13	14	16	18	20	21	24	25	26	27	27	27	27	26	26	26	25	23	21	19	19	18	17	15	14	14	14	14	14	14	14	14	14	14	14	14	14	14	14	14	14	14	14	14	15	15	14	14	14	14	14	14	14	14	14	14	14	14	14	14	14	14	15	15	15	15	15	14	14	14	14	14	14	14	14	14	14	14	14	14	14	14	14	14	14	14	14	14	15	15	15	15	15	16	17	18	20	21	22	22	22	21	21	20	20	19	18	18	17	17	17	18	17	17	17	17	16	16	16	16	17	17	17	18	18	18	18	18	18	19	19	19	19	20	20	20	20	21	21	21	21	21	22	22	22	22	23	23	24	24	24	24	24	24	24	25	25	25	25	25	25	26	26	26	25	25	25	25	24	24	24	24	24	24	24	24	24	24	24	24	24	24	24	24	24	24	24	24	24	24	24	24	24	25	25	25	25	25	26	26	26	26	26	27	27	27	27	28	28	28	28	28	29	29	29	29	30	31	31	32	33	34	34	35	36	37	38	39	39	40	40	39	39	39	39	38	38	38	37	37	37	36	36	36	35	34	34	34	34
23	26	28	31	33	34	35	36	36	36	36	35	34	33	31	29	28	28	30	31	33	34	36	37	38	39	40	41	41	41	40	38	36	34	32	31	29	28	27	26	25	25	24	24	23	22	22	21	21	20	20	19	18	18	17	17	16	15	15	14	14	13	12	10	9	9	9	9	9	9	9	9	9	9	9	9	9	9	9	9	9	9	9	9	9	9	9	8	8	7	7	6	6	6	6	6	6	6	6	5	5	5	4	4	4	4	4	4	4	4	4	4	4	4	4	4	4	4	4	4	4	3	2	3	3	4	4	3	3	4	4	4	4	4	4	4	4	4	4	4	4	3	3	3	4	4	3	3	3	3	3	3	4	4	4	4	4	4	4	4	5	5	5	5	5	5	5	5	6	6	6	6	6	6	7	8	8	8	9	9	10	10	11	11	12	12	12	12	13	13	12	12	12	11	11	10	10	10	12	13	14	14	14	14	14	14	14	13	13	13	12	12	12	12	11	11	11	11	11	11	11	11	11	11	11	11	11	14	16	16	15	15	15	14	15	15	16	17	18	19	20	21	22	23	24	25	26	26	27	28	27	27	27	26	26	25	25	24	24	24	24	23	23	23	23	23	23	24	25	25	26	26	26	26	26	26	26	26	25	25	24	24	23	21	20	19	18	17	17	16	15	13	12	12	12	12	12	12	13	13	14	14	14	14	14	14	14	14	14	14	12	10	10	10	11	12	12	13	13	12	13	13	13	13	13	14	15	17	18	19	21	23	24	25	26	27	27	28	28	27	27	26	26	25	24	23	21	20	19	17	14	13	12	13	13	13	13	13	13	14	14	14	14	14	14	14	14	15	15	14	14	13	13	13	13	13	13	13	13	13	13	13	13	13	13	13	13	13	13	13	14	14	14	15	15	15	15	15	15	15	15	15	16	16	17	16	16	16	16	17	17	17	17	18	20	21	22	23	23	23	23	23	23	23	23	24	24	24	24	24	24	24	24	24	24	24	24	24	24	24	25	25	25	25	26	26	26	26	27	29	31	32	33	34	35	36	37	39	40	41	43	44	46	47	48	49	51	52	53	54	55	56	58	60	62	63	65	67	69	71	73	76	78	80	83	86	89	90	91	91	90	89	88	87	86	84	83	82	81	79	76	75	73	72	71	70	69	68	67	66	65	64	62	61	59	58	56	53	50	48	45	43	40	38	34	30	29	28	28	28	27	26	27	27	28	27	27	26	26	26	26	26	26	26	26	27	27	27	27	27	27	27	26	26	25	24	23	22	22	22	21	21	21	21	21	21	21	21	20	19	19	18	18	19	19	19	19	19	19	19	18	18	18	18	18	18	17	16	15	15	15	15	15	15	15	15	15	14	14	14	13	12	12	11	10	10	10	10	10	9	9	9	8	8	8	8	9	10	10	9	9	8	8	8	9	10	10	10	10	9	9	10	10	11	11	11	11	11	11	11	11	12	12	12	12	12	13	13	16	19	21	22	25	27	28	28	29	29	29	29	29	28	27	26	24	22	21	19	18	16	15	15	15	14	14	14	14	15	15	15	14	14	14	14	14	14	14	14	14	14	15	14	14	14	14	14	14	14	14	14	14	14	14	14	14	14	14	14	15	15	15	15	15	14	15	14	14	14	14	14	14	14	14	14	14	14	14	14	14	14	14	14	14	14	14	15	15	15	15	15	16	17	19	20	20	21	21	20	20	20	19	18	18	17	17	17	17	17	17	17	17	16	16	15	16	16	17	17	17	18	18	18	18	18	18	19	19	19	19	20	20	20	20	20	21	21	21	21	21	22	22	22	23	23	23	24	24	24	24	24	24	24	25	25	25	25	25	25	26	25	25	25	25	25	24	24	24	24	24	24	24	24	24	24	24	24	24	24	24	24	24	24	24	24	24	24	24	24	24	24	25	25	25	25	26	26	26	26	26	26	27	27	27	27	28	28	28	28	28	29	29	29	30	30	31	32	32	33	34	35	36	36	37	38	38	39	39	39	39	39	39	38	38	38	37	37	37	37	37	36	36	35	35	35	35
23	25	28	30	33	34	35	36	36	36	35	34	33	32	30	29	29	29	30	32	34	36	37	38	40	41	42	42	42	42	40	38	36	34	32	31	29	28	27	26	26	25	24	24	23	23	22	21	21	20	20	19	18	18	17	17	16	15	15	14	14	13	12	11	10	9	9	9	9	9	9	9	9	9	9	9	9	9	9	9	9	9	9	9	9	9	8	8	8	7	7	6	6	6	6	6	6	6	6	5	5	5	4	4	4	4	4	4	4	4	4	4	4	4	4	4	4	4	4	4	4	3	2	3	3	4	3	3	3	4	4	4	4	4	4	4	4	4	4	4	3	3	3	3	4	4	4	4	3	3	3	3	4	4	4	4	4	5	5	4	4	5	5	5	5	5	5	5	6	6	6	6	6	7	8	9	9	9	9	10	10	11	11	12	12	13	13	13	13	13	13	12	12	11	11	10	10	10	11	12	13	14	14	14	14	13	13	13	12	12	12	12	11	11	11	11	11	11	11	11	11	11	11	11	11	11	12	17	19	18	17	16	15	15	14	15	16	17	18	19	20	21	22	23	24	25	25	26	27	27	28	27	27	27	26	26	25	24	24	24	23	22	22	22	22	22	23	23	24	24	25	25	26	26	26	26	26	26	26	25	25	24	23	21	20	19	18	17	16	15	14	13	12	12	12	12	12	12	13	13	13	14	14	14	14	14	14	14	14	12	10	10	10	11	12	12	12	13	13	12	13	13	13	13	13	13	15	15	16	17	19	21	22	23	24	25	25	26	26	26	25	25	24	23	22	21	20	19	17	15	13	13	13	13	13	13	13	13	13	14	14	14	13	14	14	14	14	14	15	14	13	13	13	13	13	13	13	13	13	13	13	13	13	13	13	13	13	13	13	13	13	13	14	15	15	15	15	15	15	15	15	15	16	16	16	16	16	16	16	17	17	17	18	18	19	20	22	23	23	23	23	23	23	23	23	24	24	24	24	24	24	24	24	24	24	24	24	24	24	24	24	25	25	25	25	26	26	27	28	30	32	32	33	34	36	37	38	40	42	43	45	47	48	49	51	52	53	54	55	56	57	58	59	61	62	64	65	67	69	71	73	75	78	80	82	85	88	90	91	91	90	89	89	88	86	84	83	81	80	78	76	74	73	72	71	69	68	67	65	64	63	62	61	60	58	57	55	52	50	47	45	43	41	38	35	31	30	29	28	28	28	27	28	28	28	28	27	26	26	26	26	26	27	27	27	27	27	28	28	28	28	27	27	26	26	25	23	22	22	22	22	22	21	21	21	21	21	21	21	20	19	19	19	19	19	19	19	19	19	19	19	18	18	18	18	18	17	16	15	15	15	15	15	15	15	15	15	15	15	14	14	14	13	13	12	11	11	10	10	10	9	9	9	9	9	9	9	10	11	10	9	8	8	8	8	9	10	10	10	10	10	11	11	11	11	11	11	11	11	11	11	11	12	12	12	12	13	13	15	18	21	23	25	28	28	29	29	29	30	30	30	29	29	28	26	24	22	21	19	17	16	15	14	14	14	15	15	14	14	14	15	15	14	14	14	14	14	14	14	14	15	14	14	14	14	14	14	14	14	14	14	14	14	14	14	14	14	14	14	15	15	15	15	14	15	14	14	14	14	14	14	14	14	14	14	14	14	14	14	14	14	14	14	14	14	14	15	15	15	15	16	17	18	19	19	20	20	19	19	19	18	18	17	17	16	16	16	17	16	16	16	16	15	15	16	16	17	17	17	18	18	18	18	18	18	19	19	19	19	19	20	20	20	20	20	21	21	21	21	22	22	22	22	23	23	23	24	24	24	24	24	24	24	25	25	25	25	25	25	25	25	25	25	24	24	24	24	24	24	24	24	24	24	24	24	24	24	24	24	24	24	24	24	24	24	24	24	24	24	24	24	25	25	25	25	26	26	26	26	26	26	27	27	27	27	28	28	28	28	29	29	29	29	30	31	31	32	32	33	34	35	36	36	37	37	38	38	39	39	39	39	38	38	38	38	37	37	37	36	36	36	36	35	35	35
22	25	28	30	32	34	35	35	35	34	34	33	31	30	29	28	28	29	31	33	35	37	39	40	42	43	43	43	43	42	40	38	36	34	32	30	29	28	27	26	25	25	24	24	23	23	22	21	21	20	20	19	18	18	17	17	16	15	15	14	14	13	12	12	11	11	10	10	10	10	10	10	10	10	10	10	9	9	9	9	9	9	9	9	9	9	8	8	8	7	7	6	6	6	6	6	6	6	5	5	4	4	4	4	4	4	4	4	4	4	4	4	4	4	4	4	3	3	4	4	4	3	3	3	3	3	3	3	3	3	4	4	4	4	4	4	4	4	4	3	3	3	3	3	4	4	4	4	3	3	3	3	4	4	4	4	4	4	4	4	4	5	5	5	5	5	5	5	6	6	6	6	6	8	9	9	10	10	10	10	11	11	12	13	13	13	13	13	13	13	13	12	12	11	11	11	10	10	10	11	12	13	13	13	13	13	12	12	12	12	11	11	11	10	10	10	10	11	11	10	11	11	11	11	11	11	14	19	20	18	17	16	15	14	14	15	16	17	17	18	19	20	21	22	23	24	25	26	26	27	28	28	27	27	26	26	25	24	24	23	22	21	21	21	21	21	22	22	23	23	24	24	25	25	26	26	26	26	26	25	25	24	23	22	20	19	18	17	16	15	14	13	12	12	12	12	12	12	12	13	13	13	14	14	14	14	14	14	12	10	10	10	11	12	12	12	12	13	13	12	13	13	13	13	13	13	14	15	15	16	19	20	21	22	23	23	23	24	24	24	23	23	22	22	21	20	19	18	16	14	13	13	13	13	13	13	13	13	13	14	14	13	13	13	14	14	14	14	15	14	13	13	13	13	13	13	13	13	13	13	13	13	13	13	13	13	13	13	13	13	13	13	14	15	15	15	15	15	15	15	15	15	16	16	16	16	16	16	16	17	17	17	18	18	19	19	21	22	23	23	23	23	23	23	24	24	24	24	24	24	24	24	24	24	24	24	24	24	25	25	25	25	26	26	26	27	27	29	31	32	33	34	34	36	37	39	40	41	43	45	47	48	50	51	53	54	55	56	57	59	60	60	62	63	64	65	67	68	69	71	73	75	78	80	82	85	87	89	91	91	90	89	89	87	85	83	81	80	78	76	74	73	72	71	69	68	67	65	64	62	61	60	59	58	57	56	54	51	49	47	45	43	41	39	36	33	32	30	29	28	28	28	28	28	28	28	28	27	27	27	27	27	28	28	28	28	28	29	29	29	28	28	27	26	26	25	23	22	22	22	22	22	22	22	21	21	21	21	21	21	20	20	20	19	19	19	19	19	19	19	19	18	18	18	18	18	18	16	15	15	15	15	15	15	15	15	15	15	15	14	14	14	14	14	13	13	12	12	11	11	10	10	9	9	9	9	10	10	11	11	10	9	8	8	8	9	9	10	10	11	11	11	11	11	11	11	11	11	11	11	11	11	12	12	12	12	13	13	15	18	21	23	26	28	28	28	29	30	30	31	31	30	29	29	27	26	24	22	20	19	17	16	15	14	14	14	14	14	14	14	14	15	15	14	14	14	14	14	15	14	14	14	14	14	14	14	14	14	14	14	14	14	14	14	14	14	14	14	14	14	15	15	15	14	15	14	14	14	14	14	14	14	14	14	14	14	14	14	14	14	14	14	14	14	14	14	14	14	15	15	15	16	17	18	18	18	18	18	18	18	17	17	16	16	16	17	16	16	16	16	16	15	15	15	16	16	17	17	17	18	18	18	18	18	18	18	19	19	19	19	20	20	20	20	20	20	20	21	21	21	22	22	22	22	23	23	24	24	24	24	24	24	24	24	25	25	25	25	25	25	25	25	24	24	24	24	24	24	24	24	24	24	24	24	24	24	24	24	24	24	24	24	24	24	24	24	24	24	24	24	24	24	25	25	25	26	26	26	26	26	26	26	27	27	27	28	28	28	28	29	29	29	29	30	30	31	32	32	33	34	34	35	36	36	36	37	37	38	38	38	38	38	38	38	37	37	37	36	36	35	35	35	35	34	34
21	24	27	29	31	32	33	34	33	33	32	30	29	28	27	27	28	29	31	33	36	38	40	42	43	44	44	44	43	42	40	38	36	34	31	30	29	27	27	26	25	25	24	24	23	23	22	21	21	20	20	19	19	18	17	17	16	15	15	14	14	13	13	13	12	12	11	11	11	11	11	11	11	11	11	10	9	9	9	9	9	9	9	9	9	8	8	8	8	7	7	7	6	6	6	6	6	6	5	5	4	4	4	4	4	4	4	4	4	4	4	4	4	4	4	4	3	3	3	3	4	4	4	3	3	3	3	3	3	3	3	4	4	4	4	4	4	4	4	3	3	3	3	3	4	4	4	4	4	3	4	4	4	4	4	4	4	4	4	4	4	5	5	5	5	5	5	5	5	6	6	6	7	9	10	10	10	10	10	11	11	12	13	13	13	14	14	14	13	13	13	12	12	11	11	11	10	10	10	10	11	11	11	11	11	11	10	10	10	10	11	10	10	10	10	10	11	11	11	11	11	11	11	11	11	12	16	20	20	19	17	16	15	14	14	14	15	16	17	18	19	20	21	22	23	24	25	26	26	27	28	28	28	27	27	26	25	25	24	23	22	21	21	21	21	21	21	22	22	22	23	24	24	25	25	26	26	26	26	25	25	24	23	22	20	19	18	17	16	15	14	13	12	12	12	12	12	12	12	12	13	13	13	13	14	14	14	13	11	10	10	11	12	12	12	12	13	13	13	13	12	13	13	13	13	13	14	15	15	16	18	19	19	20	21	21	21	22	22	22	21	21	21	20	19	18	17	16	14	13	12	12	13	13	13	13	13	13	13	13	13	13	13	13	14	14	14	14	14	14	13	13	13	13	13	13	13	13	13	13	13	13	13	13	13	13	13	13	13	13	13	14	14	15	15	15	15	15	15	15	15	15	16	16	16	16	16	16	16	17	17	17	18	18	18	19	19	20	22	23	23	23	23	23	24	24	24	24	24	24	24	24	24	24	25	25	26	26	27	27	27	27	28	28	28	29	29	31	32	34	35	36	37	38	39	40	41	43	44	46	48	50	51	53	55	56	57	58	59	61	62	63	64	65	66	67	68	70	71	72	74	77	79	81	82	84	87	89	90	90	90	89	87	85	83	81	79	77	75	74	72	71	70	69	67	66	64	63	62	60	59	58	58	57	56	54	52	50	49	47	45	43	42	40	37	35	34	32	30	29	29	29	29	29	29	29	29	29	29	29	29	29	29	29	29	29	30	30	30	30	29	28	27	27	26	25	24	23	23	22	22	22	22	22	22	22	21	21	21	21	20	20	20	20	19	19	19	19	19	19	19	19	18	18	18	18	18	17	17	16	16	15	15	15	15	15	15	15	14	14	14	14	14	14	13	13	13	13	13	13	12	11	11	10	9	9	9	10	10	11	10	10	8	8	8	8	9	10	10	11	11	11	11	11	11	11	11	11	11	11	11	11	12	12	12	12	13	13	14	18	21	23	26	28	28	29	29	30	30	31	31	30	30	29	28	27	25	23	21	20	18	16	15	15	15	14	14	14	14	14	14	14	14	15	15	15	15	14	14	14	14	14	14	14	14	14	14	14	14	14	14	14	14	14	14	14	14	14	14	14	15	15	14	14	15	14	14	14	14	14	14	14	15	15	15	15	15	15	15	15	15	15	15	15	15	15	14	14	15	15	15	15	16	17	17	17	17	17	17	17	17	17	16	17	16	16	16	16	16	16	15	15	15	16	16	16	17	17	17	18	18	18	18	18	18	18	19	19	19	19	19	20	20	20	20	20	20	20	21	21	21	21	22	22	22	23	23	24	24	24	24	24	24	24	24	25	25	25	25	25	25	25	24	24	24	24	24	24	24	24	24	24	23	23	23	23	23	23	23	23	23	23	24	24	24	24	24	24	24	24	24	24	25	25	25	25	25	26	26	26	26	26	26	27	27	27	28	28	28	29	29	29	29	30	30	31	31	32	32	33	34	34	35	35	36	36	37	37	38	38	38	37	37	37	37	36	36	35	35	34	34	34	34	33	33
20	23	26	27	29	30	31	31	31	31	30	28	27	27	26	26	27	29	31	34	36	38	40	42	43	44	44	44	43	41	39	37	35	33	31	29	28	27	26	26	26	25	24	24	23	23	22	22	21	20	20	19	19	18	17	17	16	15	15	14	14	13	13	13	12	12	12	11	11	11	11	11	11	11	11	10	9	9	9	9	9	9	9	9	9	8	8	8	7	7	7	6	6	6	6	6	6	6	5	5	4	4	5	4	4	4	4	4	4	4	4	4	4	4	4	4	4	3	3	3	3	4	4	3	3	3	3	3	3	3	3	3	3	3	4	4	4	4	3	3	3	3	3	4	4	4	4	4	4	4	4	4	5	5	4	4	4	5	5	4	4	5	5	5	5	5	5	5	5	5	5	7	8	9	10	10	10	10	11	11	12	13	13	14	14	14	14	14	13	13	13	12	12	11	11	10	10	10	9	9	10	9	9	9	9	9	9	8	8	9	10	10	10	10	11	11	11	10	10	11	11	11	11	11	11	13	17	20	20	20	18	16	15	14	14	14	15	16	17	18	19	20	21	22	23	24	25	25	26	27	28	28	28	28	27	26	25	25	24	23	21	21	21	21	21	21	21	21	21	22	23	23	24	25	25	26	26	26	26	26	25	24	23	22	20	19	18	17	16	15	14	13	13	12	11	12	12	12	12	12	12	13	13	13	13	14	13	11	10	10	11	12	12	12	12	13	13	13	13	13	12	13	13	13	13	13	14	15	15	16	18	18	18	19	20	20	20	20	20	20	20	19	19	18	17	16	15	14	13	13	12	12	12	13	13	13	13	13	13	13	13	13	13	13	14	14	14	14	14	14	13	13	13	13	13	13	13	13	13	13	13	13	13	13	13	13	13	13	13	14	14	14	15	15	15	15	15	15	15	15	16	16	16	16	16	16	16	16	16	17	17	17	18	18	18	18	19	19	20	21	22	23	24	24	24	24	24	24	24	24	24	24	24	25	27	28	28	29	29	29	29	30	30	30	31	31	31	32	34	36	37	38	39	40	41	42	43	44	46	47	49	51	52	54	56	57	59	61	62	63	64	65	66	67	68	69	70	71	72	74	76	78	80	82	83	85	87	88	89	89	88	87	85	83	81	79	77	74	72	71	70	69	68	66	65	64	63	62	61	60	59	58	57	57	56	54	52	50	49	47	45	44	42	40	38	37	35	34	32	31	30	30	30	31	32	32	32	32	31	32	31	31	30	30	31	31	31	31	31	30	30	29	28	27	26	25	25	24	24	23	23	22	22	22	22	22	22	22	21	21	20	20	20	20	20	20	20	19	19	19	19	19	18	18	18	18	18	18	18	18	16	15	15	15	15	15	15	15	14	14	14	14	14	14	13	13	13	13	13	13	13	13	12	11	11	10	9	9	10	10	11	10	9	8	8	8	8	9	10	10	11	11	11	11	11	11	11	11	11	11	11	11	12	12	12	12	13	13	14	18	20	23	26	28	28	29	29	30	30	31	31	31	30	29	29	28	26	24	23	21	19	17	16	16	15	15	14	14	14	14	14	14	14	14	14	14	14	14	14	14	14	14	14	14	14	14	14	14	14	14	14	14	14	14	14	14	14	14	14	15	15	15	14	14	14	14	14	14	14	14	15	14	14	14	14	14	14	14	14	15	15	14	14	14	14	14	14	14	14	14	15	15	15	16	16	16	16	16	16	16	16	16	16	16	16	16	16	15	15	15	15	15	15	16	16	16	17	17	17	18	18	18	18	18	18	18	18	19	19	19	19	20	20	20	20	20	20	20	20	20	21	21	22	22	22	23	23	24	24	24	24	24	24	24	24	24	25	25	25	25	25	25	25	24	24	24	24	24	24	23	23	23	23	23	23	23	23	23	23	23	23	23	23	23	23	23	23	23	23	23	24	24	24	25	25	25	25	25	25	26	26	26	26	27	27	27	27	28	28	28	29	29	29	29	30	31	31	32	32	33	33	34	34	35	35	36	36	37	37	37	37	37	36	36	36	35	35	35	34	34	34	33	33	33	32
18	22	24	26	27	28	29	29	29	28	27	26	26	25	25	26	26	28	30	33	36	37	39	40	42	43	44	43	42	40	38	36	34	32	30	28	27	26	26	26	26	25	24	24	23	23	22	22	21	21	20	19	19	18	17	17	16	16	15	14	14	13	13	13	12	12	11	11	11	11	11	11	11	11	11	10	9	9	9	9	9	9	9	9	8	8	8	8	7	7	7	6	6	6	6	6	6	6	5	5	4	4	5	5	5	4	4	4	4	4	4	4	4	4	4	4	4	3	3	3	3	3	3	3	3	3	3	3	3	3	3	3	3	3	4	4	4	4	3	3	3	4	4	4	4	4	4	4	4	4	5	5	5	4	4	4	5	5	5	4	4	5	5	5	5	5	5	5	5	5	6	7	9	10	10	10	10	11	11	12	13	13	14	14	14	14	14	13	13	13	13	13	12	12	11	10	10	9	9	9	9	8	8	8	8	8	8	8	8	8	9	10	11	10	10	10	10	10	11	11	11	11	11	11	12	13	16	18	20	20	18	16	14	14	14	14	15	16	16	17	18	19	20	22	22	23	24	25	26	27	28	29	29	28	27	26	26	25	24	22	20	20	21	21	21	21	21	21	21	21	22	23	24	24	25	25	25	25	26	26	25	24	23	22	20	19	18	17	16	15	14	14	13	12	11	11	12	12	12	12	12	13	13	13	14	13	12	10	10	11	12	12	12	12	13	13	13	13	13	12	13	13	13	13	13	13	14	15	15	16	18	18	18	19	19	20	19	19	19	18	18	17	17	16	15	14	13	13	13	12	12	12	12	12	13	13	13	13	13	13	13	13	13	13	14	14	14	14	14	14	13	13	13	13	13	13	13	13	13	13	13	13	13	13	13	13	13	14	14	14	15	15	16	16	16	16	16	16	16	16	16	16	16	16	16	16	16	16	16	17	17	17	17	18	18	18	18	18	19	19	21	22	23	24	24	24	24	24	24	24	24	24	25	28	29	30	31	31	31	31	31	32	32	32	32	33	33	34	35	37	39	40	41	42	43	43	44	46	48	49	50	52	54	56	57	59	61	63	64	65	66	67	68	69	70	70	71	73	75	76	78	80	82	83	85	85	86	86	86	86	85	84	83	81	79	78	76	72	70	69	69	68	67	67	66	65	64	63	62	61	60	59	58	57	56	54	52	51	49	47	46	44	42	41	39	38	37	36	35	34	33	33	33	34	35	35	35	34	34	34	33	32	31	32	32	32	32	33	32	31	31	30	29	28	27	26	26	26	25	24	23	23	23	22	22	22	22	22	22	21	21	20	20	20	20	20	20	20	20	19	19	19	18	18	18	18	18	18	18	18	17	15	15	15	15	15	15	14	14	14	14	14	14	14	13	13	13	13	13	13	13	13	13	13	13	12	11	10	9	9	10	10	10	9	8	8	8	8	9	10	11	11	11	11	11	11	11	11	11	11	11	11	12	12	12	12	13	13	14	18	20	23	26	28	29	29	29	30	30	31	32	31	30	30	29	28	27	26	24	22	20	19	18	17	16	15	15	14	14	14	14	14	14	14	14	14	14	14	14	14	14	14	14	14	14	14	14	14	14	14	14	14	14	14	14	14	14	14	14	15	15	15	14	14	14	14	14	14	14	15	15	14	14	14	14	14	14	14	14	14	14	14	14	14	14	14	14	14	14	14	14	15	15	15	15	15	15	15	15	15	15	15	15	15	15	15	15	15	15	15	15	15	16	16	16	16	17	17	17	17	18	18	18	18	18	18	18	19	19	19	19	19	19	20	20	20	20	20	20	20	20	21	21	22	22	22	23	23	24	24	24	24	24	24	24	24	24	25	25	25	25	25	25	24	24	24	24	23	23	23	23	23	23	23	23	23	23	23	23	22	22	23	23	23	23	23	23	23	23	23	24	24	24	24	25	25	25	25	25	25	26	26	26	26	27	27	27	28	28	28	28	29	29	29	30	30	31	31	32	32	33	33	34	34	35	35	36	36	37	36	36	36	36	35	35	35	34	34	33	33	33	33	32	32	32
16	20	22	24	26	26	27	27	27	26	25	25	24	24	24	25	25	27	29	32	34	36	37	39	40	42	42	42	40	38	36	35	33	31	29	28	27	26	26	26	26	25	25	24	24	23	22	22	21	21	20	19	19	18	18	17	16	16	15	15	14	13	13	12	12	12	12	11	11	11	11	11	11	10	10	10	9	9	9	9	9	9	9	9	8	8	8	8	7	7	7	6	6	6	6	6	6	6	5	5	4	4	4	5	5	5	5	5	5	5	4	4	4	4	4	4	4	3	3	3	3	3	3	3	3	3	3	3	3	3	3	3	3	3	4	4	4	3	3	3	4	4	3	3	3	3	3	3	4	5	5	5	4	4	4	4	5	4	5	4	4	4	5	5	5	5	5	5	5	6	7	8	9	10	10	10	10	11	12	12	13	13	14	14	14	14	13	13	13	13	13	13	12	12	11	10	10	9	9	9	8	8	8	8	8	8	8	8	8	8	9	10	10	10	10	11	11	11	11	11	11	11	11	11	12	14	16	17	19	19	17	15	13	14	14	14	15	15	16	17	18	19	20	21	22	23	24	25	26	27	28	29	30	29	28	27	26	24	23	21	20	19	20	20	20	20	20	20	20	21	21	22	23	24	24	25	25	25	25	25	25	24	23	22	20	19	17	17	16	15	14	14	13	12	11	11	12	12	12	12	13	13	13	13	13	12	11	10	10	11	12	12	12	13	13	13	13	13	12	13	13	13	13	13	13	13	14	15	15	17	18	18	19	19	20	20	19	18	18	17	16	16	15	14	13	13	13	12	12	12	12	12	12	12	13	13	13	14	14	13	13	13	13	13	14	14	14	14	14	14	13	12	13	12	13	13	12	13	12	12	12	13	13	13	14	14	14	15	15	15	15	16	16	17	18	18	17	17	16	16	16	16	16	16	17	16	16	16	16	16	17	17	17	18	18	18	18	18	18	18	19	20	21	23	24	24	24	24	24	24	24	26	29	31	32	32	33	33	33	33	33	33	33	34	34	35	35	36	37	38	40	42	43	44	45	46	46	48	49	51	52	54	56	57	59	61	64	65	67	68	69	70	70	71	71	72	73	74	76	78	80	82	83	85	85	85	84	84	83	83	82	82	80	79	77	76	74	71	70	70	70	70	69	68	68	67	66	65	64	63	62	60	59	58	56	54	53	51	49	48	46	44	43	42	41	40	39	38	38	37	37	36	36	37	38	38	38	37	36	36	35	33	33	33	33	33	34	34	33	32	31	31	30	29	28	27	27	27	26	26	25	24	23	23	23	23	22	22	22	22	21	21	20	20	20	20	20	20	20	20	19	19	18	18	18	18	18	18	18	18	16	15	15	15	15	15	15	14	14	14	14	14	14	13	13	13	13	13	13	13	12	12	12	13	13	13	12	11	11	10	10	10	10	10	9	8	8	8	8	9	10	11	11	11	11	10	10	11	11	11	11	11	11	11	12	13	13	13	14	18	21	23	26	28	29	29	30	30	30	31	31	31	30	30	29	29	28	27	25	23	21	20	19	18	17	16	15	15	14	14	14	14	14	14	14	14	14	14	14	14	14	14	14	14	14	14	14	14	14	14	14	14	14	14	14	14	14	14	14	15	15	14	14	15	15	14	14	14	15	14	14	14	14	14	14	14	14	14	14	14	14	14	14	14	14	14	14	14	15	15	15	15	14	14	14	14	14	14	14	15	15	15	14	14	14	14	15	15	15	15	15	15	16	16	16	17	17	17	17	17	18	18	18	18	18	18	18	19	19	19	19	19	19	19	20	20	20	20	20	20	20	21	21	21	22	22	22	23	23	24	24	24	24	24	24	24	24	24	25	25	25	25	25	24	24	24	24	23	23	23	23	23	23	22	22	22	22	22	22	22	22	22	22	22	22	22	23	23	23	23	23	24	24	24	24	24	25	25	25	25	25	26	26	26	26	27	27	27	28	28	28	29	29	29	30	30	31	31	31	32	32	33	33	34	34	35	35	36	36	36	36	35	35	35	34	34	34	33	33	32	32	32	31	31	31
14	18	21	23	24	25	25	25	25	24	23	23	23	23	23	24	24	26	28	30	32	34	35	37	38	39	40	40	38	36	35	33	31	30	28	27	26	26	26	26	26	26	25	24	24	23	23	22	22	21	20	19	19	18	18	17	16	16	15	15	14	14	13	13	12	12	12	11	11	11	11	11	11	10	10	9	9	9	9	9	9	9	9	8	8	8	8	8	7	7	7	6	6	6	6	6	6	6	5	5	4	4	4	4	5	5	5	5	5	5	5	5	4	4	4	4	3	3	3	3	3	3	3	3	3	3	3	3	3	3	3	3	3	3	3	4	3	3	3	4	4	3	3	3	3	3	3	3	4	5	5	5	5	4	4	4	4	4	4	4	4	4	5	5	5	5	5	5	6	7	8	9	9	9	10	10	11	11	12	13	13	14	14	14	14	14	13	13	13	13	13	13	13	12	11	11	10	9	9	9	8	8	8	8	8	8	8	8	8	8	8	9	10	10	10	11	11	11	11	11	11	11	11	11	12	14	15	16	17	17	16	14	13	14	15	15	15	15	16	17	18	19	20	21	22	23	24	25	26	27	28	29	30	29	28	27	25	24	22	21	19	19	19	19	19	19	19	19	19	19	20	21	21	22	23	24	24	24	24	24	24	23	22	21	20	19	17	16	16	15	14	13	12	12	11	11	12	12	12	12	13	13	13	13	13	12	10	10	11	12	12	12	12	13	13	13	13	12	13	13	13	13	13	13	13	13	14	15	16	17	18	19	19	20	20	19	18	17	16	15	15	14	14	13	13	12	13	12	12	12	12	12	11	12	12	13	13	14	14	13	13	13	13	13	14	14	14	14	14	13	12	12	13	13	13	13	13	13	12	13	13	13	14	14	15	15	15	15	16	16	16	17	17	18	19	19	19	18	18	17	16	16	16	16	16	16	16	16	16	16	17	17	17	17	18	18	18	18	18	18	18	19	19	21	22	24	24	24	24	24	26	28	31	33	34	34	34	34	34	35	35	35	35	36	36	37	37	38	39	40	42	43	45	46	48	48	49	50	51	53	54	55	57	59	61	63	65	67	69	70	71	72	73	73	73	73	74	76	78	80	82	83	84	85	84	84	83	82	81	81	80	80	78	76	75	74	72	71	71	72	72	72	71	70	70	69	68	67	66	65	63	62	60	58	56	54	53	51	50	48	47	46	45	44	43	42	41	41	40	40	40	39	39	40	40	40	40	40	39	37	36	35	34	34	34	35	35	34	34	33	32	32	30	30	29	28	28	27	27	27	26	25	24	24	24	23	23	23	23	23	22	21	21	21	20	20	20	20	20	20	19	19	19	18	18	18	18	18	18	17	16	15	15	15	15	15	15	14	14	14	13	14	14	13	13	13	13	13	13	13	12	13	12	13	13	13	13	13	12	12	11	10	10	10	10	9	8	8	8	8	9	10	11	11	11	11	11	11	11	11	11	11	11	11	12	13	13	13	15	18	21	23	25	27	29	29	29	30	30	31	31	31	30	30	29	29	28	27	26	24	22	21	20	19	18	17	16	15	15	14	14	14	14	14	14	14	14	14	14	14	14	14	14	14	14	14	14	14	14	14	14	14	14	14	14	14	14	14	14	15	15	14	15	14	15	15	14	14	15	14	14	14	14	14	14	14	14	14	14	14	14	14	14	14	14	14	14	15	15	15	15	15	15	15	15	15	15	15	15	15	15	15	15	15	15	14	14	15	15	15	15	16	16	16	16	16	17	17	17	17	17	18	18	18	18	18	18	18	19	19	19	19	19	19	19	19	20	20	20	20	20	20	21	21	21	22	22	22	23	23	23	24	24	24	24	24	24	24	24	25	25	25	25	24	24	24	23	23	22	22	22	22	22	22	22	22	22	22	22	22	22	22	22	22	22	22	22	22	22	23	23	23	23	24	24	24	24	25	25	25	25	25	26	26	26	27	27	27	28	28	28	28	29	29	29	30	30	31	31	31	32	32	33	33	34	34	35	35	35	35	35	34	34	34	34	33	33	32	32	32	31	31	31	30	30
11	15	19	21	23	23	23	23	23	22	22	21	21	21	22	23	24	25	26	28	30	32	34	35	36	38	38	37	36	34	33	31	30	29	27	27	26	26	26	26	26	26	25	25	24	23	23	22	22	21	20	19	19	18	18	17	17	16	15	15	14	14	14	13	13	12	12	11	11	11	11	10	10	10	9	9	9	9	9	9	9	9	8	8	8	8	8	7	7	7	7	6	6	6	6	6	6	6	5	5	5	4	4	4	5	5	5	5	5	5	5	5	5	4	4	3	3	3	3	3	3	3	3	3	3	3	3	3	3	3	3	3	3	3	3	3	3	3	4	4	3	3	3	3	3	3	4	4	4	5	5	5	5	5	5	5	5	4	4	4	4	4	5	5	5	5	5	6	7	8	9	9	9	10	10	10	11	12	12	13	13	14	14	14	14	14	13	13	13	13	13	13	12	12	11	11	10	9	9	8	8	8	8	8	8	8	8	8	8	8	8	9	10	10	10	11	11	11	11	11	11	11	11	12	13	13	14	14	16	16	14	13	14	14	15	15	15	16	16	17	17	18	19	20	21	22	24	25	26	27	28	30	30	29	28	26	25	23	21	20	19	19	19	19	19	19	19	19	19	18	19	19	20	21	22	23	23	23	23	23	23	23	22	21	20	18	17	16	15	14	14	13	12	12	11	11	11	11	12	12	13	13	13	13	13	11	10	11	11	12	12	12	12	13	13	13	13	13	13	13	13	13	13	13	13	14	14	15	16	17	18	19	20	20	20	19	18	17	15	14	14	14	13	13	12	13	13	12	12	12	12	11	11	11	12	13	13	14	14	13	13	13	13	13	14	14	14	14	13	12	12	12	13	13	13	13	13	12	13	13	14	14	15	15	15	16	16	16	16	17	17	18	18	18	19	19	19	19	19	18	17	16	16	16	16	16	16	16	16	17	17	17	17	18	18	18	18	18	18	18	18	18	18	19	20	22	24	24	24	25	28	31	33	35	35	35	36	36	36	37	37	37	37	37	38	39	39	40	41	42	43	45	47	49	50	51	52	53	54	55	55	57	59	61	63	65	67	69	71	73	74	75	76	76	76	76	76	78	79	81	83	84	85	84	84	83	82	81	80	79	78	78	76	75	74	74	73	74	74	74	75	74	73	72	72	71	69	68	67	66	65	63	61	58	56	55	53	52	50	49	48	48	47	46	45	44	44	44	43	43	42	42	42	42	42	42	42	42	40	39	37	36	36	35	36	36	36	35	35	34	33	32	31	30	29	29	28	28	28	27	27	26	26	25	25	24	24	24	24	23	23	22	22	21	21	21	20	20	20	20	19	19	19	18	18	18	18	18	18	17	16	15	15	15	15	15	14	14	13	13	13	13	13	13	13	13	13	13	13	13	12	13	13	12	12	12	13	13	12	12	12	12	11	10	10	10	9	8	8	8	8	9	10	11	11	11	11	11	11	10	11	11	11	11	12	12	13	13	15	18	21	23	25	27	29	29	29	30	31	31	31	31	31	30	29	29	28	28	26	25	23	21	21	20	19	18	17	16	15	15	14	14	14	14	14	14	14	14	14	14	14	14	14	14	14	14	14	14	14	14	14	14	14	14	14	14	14	15	15	15	14	14	14	14	14	14	14	15	14	14	14	14	14	14	14	14	14	14	14	14	14	14	14	14	14	14	15	14	15	15	15	15	15	15	15	15	15	15	15	15	15	15	15	15	15	14	14	15	15	15	15	16	16	16	16	16	16	17	17	17	17	18	18	18	18	18	18	18	18	19	19	19	19	19	19	19	19	19	19	20	20	20	20	21	21	21	21	22	22	22	23	23	24	24	24	24	24	24	24	24	25	25	24	24	24	24	23	22	22	22	22	22	22	22	22	22	22	22	22	22	21	21	22	21	21	22	22	22	22	22	23	23	23	23	24	24	24	24	25	25	25	25	26	26	26	26	27	27	27	28	28	28	28	29	29	30	30	30	31	31	32	32	32	33	33	34	34	35	35	34	34	34	33	33	33	32	32	32	31	31	30	30	30	30	29
10	13	17	20	21	22	22	21	21	20	20	19	19	20	21	22	23	24	25	27	28	30	32	33	34	35	36	35	34	33	31	30	28	27	27	26	26	26	26	26	26	26	25	25	24	24	23	23	22	21	20	20	19	18	18	17	17	16	16	15	15	15	14	14	14	13	12	12	11	11	11	10	10	9	9	9	9	9	9	9	9	8	8	8	8	7	7	7	7	7	6	6	6	6	6	6	6	5	5	5	5	4	4	4	5	5	5	5	5	5	5	5	5	4	4	3	3	3	3	3	3	3	3	3	3	3	3	3	2	3	3	3	3	3	3	3	3	4	4	3	3	3	3	3	4	4	4	4	4	5	5	5	5	5	5	5	5	5	5	4	4	5	5	5	5	5	6	7	8	9	9	9	10	10	10	11	11	12	12	13	13	14	14	14	13	13	13	13	13	13	13	12	12	11	11	10	9	9	8	8	8	8	8	8	8	8	8	8	8	9	9	10	10	10	10	11	11	11	11	11	11	11	11	12	13	13	13	13	14	14	13	13	14	15	14	15	15	16	16	17	17	18	18	20	21	22	23	25	26	27	28	29	29	28	27	25	23	22	20	19	19	19	19	19	19	19	19	19	19	18	19	19	20	21	21	22	22	22	22	22	22	22	21	20	19	18	16	15	15	14	13	12	12	12	11	11	11	11	12	12	13	13	13	13	12	10	10	11	12	12	12	12	12	13	13	13	13	13	13	13	13	13	13	13	14	14	14	15	16	17	18	19	20	20	20	19	17	16	14	14	14	13	13	13	12	13	13	12	12	12	11	11	11	11	12	13	14	14	13	13	13	13	13	13	14	14	14	13	12	12	12	12	13	13	13	13	12	13	13	14	15	15	15	16	16	17	17	17	17	18	18	18	18	19	19	19	19	19	20	19	18	17	17	16	16	16	16	16	17	17	17	17	17	17	18	18	18	18	18	18	18	18	19	19	19	21	24	25	25	27	30	32	34	35	36	37	37	38	38	39	39	39	39	39	39	40	41	42	43	43	44	46	48	51	52	54	54	55	56	57	57	59	61	63	65	67	69	71	73	75	77	78	78	78	78	78	78	79	81	82	83	85	85	84	84	83	82	81	80	79	78	77	76	76	76	76	76	76	76	77	77	77	76	75	73	72	71	70	68	67	65	63	61	59	56	55	54	52	51	50	50	49	49	48	47	47	47	46	46	46	45	45	45	45	45	44	44	43	42	40	39	38	37	37	37	37	37	36	36	35	34	33	32	31	30	29	29	29	28	28	28	27	27	26	25	25	25	24	24	24	24	23	23	22	21	21	20	20	20	20	19	19	19	18	18	18	18	18	18	17	16	15	15	15	15	15	14	13	13	13	13	13	13	13	13	13	13	13	13	13	12	13	13	13	13	13	13	12	12	12	12	12	11	11	11	10	9	9	8	8	8	9	10	10	11	11	11	11	11	11	11	11	11	11	12	12	13	14	16	18	21	23	25	27	29	29	29	30	31	31	31	31	30	30	29	29	28	28	26	24	22	21	21	21	20	19	18	16	15	14	14	14	14	14	14	14	14	14	14	14	14	14	14	14	14	14	14	14	14	14	14	14	14	14	14	14	14	15	15	15	14	15	14	14	14	14	15	15	14	14	14	14	14	14	14	14	14	14	14	14	14	14	14	15	15	14	14	14	14	14	14	14	14	14	14	14	14	14	14	14	14	14	14	14	14	14	14	15	15	15	15	16	16	16	16	16	16	16	17	17	17	17	18	18	18	18	18	18	18	18	19	19	19	19	19	19	19	19	19	19	20	20	20	20	20	21	21	21	22	22	22	23	23	24	24	24	24	24	24	24	24	24	24	24	24	23	22	22	22	22	22	22	22	22	21	21	21	21	21	21	21	21	21	21	21	21	21	21	22	22	22	23	23	23	23	24	24	24	24	25	25	25	25	26	26	26	27	27	27	28	28	28	28	28	29	29	30	30	30	31	31	32	32	33	33	34	34	34	34	34	33	33	33	32	32	32	31	31	30	30	30	29	29	29	28
8	11	14	17	19	20	20	19	18	17	17	17	17	18	20	22	23	24	25	26	27	28	30	31	32	33	33	33	32	31	30	28	27	26	26	26	26	26	26	26	26	26	26	25	24	24	24	23	22	22	21	20	19	19	18	18	17	17	16	16	15	15	15	15	15	14	13	12	11	11	11	10	9	9	9	8	9	9	9	8	8	8	7	7	7	7	7	7	7	6	6	6	6	6	6	6	5	5	5	5	5	4	4	4	5	5	5	5	5	5	5	5	5	4	4	3	3	3	3	3	3	3	3	3	3	3	3	3	2	2	3	3	3	3	4	3	3	4	4	3	3	3	3	4	4	4	4	4	5	5	5	5	5	5	5	5	5	5	5	5	5	5	5	5	5	6	7	8	9	9	9	10	10	10	10	11	11	12	12	13	13	14	14	13	13	13	13	13	13	13	13	12	12	11	10	9	8	8	8	8	8	8	8	8	8	8	8	8	9	9	10	11	11	11	12	12	12	12	11	11	11	11	12	13	14	14	13	13	13	13	13	14	14	15	15	15	15	16	16	17	17	17	18	19	21	22	23	25	26	27	28	28	27	26	25	24	22	20	20	19	19	19	19	19	19	19	19	19	19	19	19	19	19	20	20	21	21	21	21	21	21	21	21	20	18	17	16	15	14	13	12	12	12	12	12	12	12	12	12	12	13	13	13	13	11	10	10	11	12	12	12	12	12	12	12	13	13	12	13	13	13	13	13	13	14	14	14	15	16	17	18	19	20	20	19	18	17	15	14	14	14	13	13	13	13	13	13	12	12	12	11	11	11	11	12	13	14	14	13	13	13	13	13	13	13	13	13	12	12	12	12	13	13	13	13	13	13	13	14	15	15	16	16	17	17	17	18	18	18	18	18	18	19	19	19	19	19	20	20	20	19	18	17	17	16	16	16	16	17	17	17	17	17	17	18	18	18	18	18	18	18	19	19	19	19	21	23	25	26	29	31	33	34	36	37	38	39	39	40	41	41	41	41	41	41	42	43	44	45	45	46	48	50	52	54	56	57	58	59	59	60	61	63	65	67	69	71	73	75	77	79	80	81	81	81	80	80	80	82	83	85	86	86	85	85	84	83	81	80	79	79	78	78	78	78	78	78	78	78	79	79	79	78	77	75	74	72	71	69	68	66	64	62	59	57	55	54	53	53	52	51	51	51	50	49	49	49	49	49	49	48	48	47	47	47	47	46	45	43	42	40	39	38	38	38	38	38	37	37	36	35	34	33	32	31	30	30	30	29	29	28	28	27	27	26	26	25	25	25	24	24	24	23	23	22	21	21	20	20	20	19	19	19	18	18	18	18	18	18	17	16	15	15	15	15	15	14	13	13	13	13	13	13	13	13	13	13	13	13	12	13	13	13	13	13	13	12	12	12	12	11	11	11	11	11	11	10	9	8	8	8	8	9	10	10	11	11	11	11	11	11	11	11	11	11	12	14	15	17	19	21	23	25	27	29	29	30	30	31	31	31	30	30	30	29	29	28	27	25	24	22	21	21	21	20	19	17	16	15	14	14	14	14	14	14	14	14	14	14	14	14	14	14	14	14	14	14	14	14	14	14	14	14	14	14	14	14	14	14	14	14	15	15	14	14	15	15	14	14	14	14	14	14	14	14	14	14	14	14	14	14	14	15	15	14	14	14	14	14	14	14	14	14	14	14	14	14	14	14	14	14	14	14	14	14	14	14	14	15	15	15	15	16	16	16	16	16	16	16	17	17	17	18	18	18	18	18	18	18	18	18	19	19	19	19	19	19	19	19	19	19	19	20	20	20	20	21	21	21	21	22	23	23	23	23	24	24	24	24	24	24	24	23	23	22	22	22	21	21	21	21	21	21	21	21	21	21	21	21	21	21	21	21	21	21	21	21	21	22	22	22	22	23	23	23	23	24	24	24	24	25	25	25	25	26	26	26	27	27	28	28	28	28	29	29	29	30	30	30	30	31	31	32	32	33	33	34	34	33	33	32	32	32	32	31	31	30	30	30	29	29	28	28	28	28
