101	99	98	97	97	96	96	95	93	91	89	86	83	79	74	70	66	68	71	74	78	82	85	87	89	91	93	94	96	96	97	97	96	94	92	89	87	84	81	78	74	71	69	66	63	61	60	58	56	54	51	48	46	46	47	47	48	49	50	52	53	54	55	57	57	58	59	60	61	62	63	64	64	62	60	56	49	47	47	47	47	47	47	47	47	47	47	47	46	45	42	37	34	33	34	32	31	32	32	33	33	34	34	34	34	34	34	33	33	33	33	33	33	33	33	33	33	33	33	33	33	33	31	30	29	29	29	29	30	35	39	42	39	33	33	34	35	35	34	33	33	33	33	33	34	35	36	37	39	40	42	42	43	43	43	43	43	44	44	44	44	45	46	47	48	48	49	49	49	49	49	49	49	48	48	48	48	48	48	48	48	48	51	53	55	56	56	57	57	57	58	58	58	57	55	53	52	52	51	51	51	51	51	52	52	51	51	51	51	51	51	51	51	51	50	49	48	47	46	44	43	42	39	36	33	30	25	19	15	13	13	13	13	12	13	13	13	13	12	12	12	12	12	12	12	12	12	12	12	12	12	12	12	12	12	13	13	13	14	14	13	12	12	12	12	12	12	12	12	12	12	12	12	12	11	11	11	11	11	11	11	11	10	9	9	9	9	9	10	11	11	14	18	22	25	28	29	30	33	36	39	42	44	46	47	47	48	49	49	49	50	52	56	59	60	61	61	59	58	57	57	56	55	54	53	52	51	50	50	49	48	47	47	46	46	45	44	43	42	41	41	40	39	37	35	33	31	27	24	21	19	17	16	15	13	11	10	8	7	7	8	7	7	7	7	7	7	7	7	7	7	7	7	7	7	7	7	7	7	7	8	8	8	8	8	8	8	8	8	8	8	8	8	8	8	8	8	8	8	8	8	8	8	7	7	7	7	7	6	6	6	7	7	7	6	6	5	5	5	5	6	7	7	7	8	9	8	8	8	8	8	8	8	9	9	9	9	9	9	9	9	9	9	10	10	10	10	11	11	11	11	11	11	12	14	17	21	25	27	28	29	29	30	29	29	28	27	26	25	24	22	20	17	11	5	4	5	5	5	6	6	8	8	9	8	8	10	13	16	18	20	22	24	25	25	25	25	26	29	33	37	40	43	46	48	50	52	53	55	57	60	62	64	66	66	66	66	66	66	68	69	70	70	71	72	73	73	74	74	75	75	76	76	77	78	80	81	83	84	86	87	89	90	91	94	96	96	95	95	95	95	95	95	94	94	94	95	96	96	96	96	96	96	96	96	96	95	93	91	90	90	90	90	90	90	90	91	91	91	91	91	91	91	89	88	89	89	89	89	89	89	88	87	87	87	86	86	85	85	85	84	84	84	84	84	84	83	81	79	79	79	80	80	80	80	81	81	81	81	81	81	81	81	81	81	81	81	79	76	73	70	67	64	61	59	57	55	53	51	49	47	45	43	42	40	39	38	37	36	35	34	33	31	29	29	31	34	36	38	39	39	39	40	40	39	37	36	34	33	32	30	29	27	26	25	24	23	22	20	18	19	20	20	19	19	19	18	17	15	14	12	9	8	7	7	7	6	5	4	4	5	6	5	5	5	5	5	5	5	5	5	5	5	5	5	5	5	5	5	5	5	5	5	5	5	4	4	4	4	4	5	5	5	5	5	5	5	5	4	4	4	4	4	4	4	4	3	3	4	4	4	4	5	5	5	5	6	7	8	8	9	9	9	9	9	9	9	9	9	9	9	8	8	8	8	8	7	7	7	6	6	6	6	6	6	6	6	6	6	6	6	6	6	6	6	6	6	6	6	6	6	6	5	5	5	5	5	5	5	8	11	14	15	17	18	19	20	21	22	22	22	22	22	22	22	22	22	22	22	21	21	21	21	20	19	17	15	12	10	7	5	4	3	3	2	2	1	1	1	1	1	1	0	0	0	0	0	0	0	0	0
103	102	101	100	100	99	99	98	96	93	91	88	84	80	75	71	68	70	73	76	79	83	86	89	91	93	95	96	98	99	99	99	98	96	93	91	88	85	82	79	75	72	69	66	64	61	59	57	55	53	50	48	47	48	49	49	50	51	52	53	55	56	58	59	60	61	62	63	63	64	65	66	65	63	60	57	50	46	46	47	47	47	47	47	47	47	47	46	44	41	37	35	34	34	34	34	34	34	34	34	34	34	34	34	34	34	34	34	33	33	33	33	33	33	33	33	33	33	33	33	33	33	32	30	29	29	29	29	29	32	37	41	41	34	32	33	35	37	37	35	34	34	34	35	36	37	38	40	41	42	43	43	43	43	44	44	44	44	44	45	46	47	48	49	49	49	49	49	49	49	49	49	49	49	49	49	48	48	48	49	48	48	48	50	50	50	50	51	51	51	53	54	55	56	56	56	54	54	54	53	53	52	52	52	52	51	51	51	51	51	51	51	51	51	51	50	49	47	46	45	44	42	40	36	33	29	23	16	13	13	13	13	13	13	13	12	13	13	13	13	12	12	12	12	12	12	12	12	12	12	12	12	12	12	13	13	13	13	14	14	13	12	12	12	12	12	12	12	12	12	12	12	12	12	12	11	11	12	12	11	11	11	10	9	9	9	9	9	11	11	11	14	19	23	25	27	28	30	32	36	40	43	45	46	47	48	48	49	50	50	51	53	56	59	60	61	62	61	59	59	58	57	56	55	54	53	52	50	49	49	48	47	46	46	45	45	44	43	42	41	41	40	38	36	34	31	29	25	22	19	18	17	15	14	12	11	9	7	7	8	9	8	8	7	7	7	7	7	7	7	7	7	7	7	7	7	7	6	6	7	8	9	8	8	8	8	8	8	8	8	8	8	8	8	8	8	8	8	8	8	8	8	8	8	8	7	7	7	7	7	7	7	7	7	7	6	5	5	5	5	6	7	7	8	8	9	8	8	8	8	8	8	9	9	9	9	9	10	10	10	10	10	10	10	10	10	11	11	11	11	11	11	12	13	15	18	23	26	28	28	29	29	29	29	28	28	27	25	24	23	22	19	16	12	6	4	5	5	6	7	8	8	9	8	8	8	11	14	17	18	20	23	25	25	25	26	26	26	28	32	36	39	42	45	47	49	50	52	54	56	59	61	63	64	65	65	64	64	64	65	66	67	68	69	70	71	72	73	74	75	76	76	77	79	80	82	83	85	86	87	89	90	90	92	95	96	95	95	96	95	95	95	94	94	94	93	94	94	95	96	97	96	96	96	96	96	95	93	90	90	90	90	90	90	91	91	91	91	91	91	91	91	90	88	88	89	89	89	89	89	89	88	87	86	86	85	84	84	84	84	84	84	84	84	84	84	83	80	78	78	79	80	80	79	80	80	81	81	81	81	81	81	81	81	81	81	81	80	78	74	71	68	65	62	59	57	55	53	51	48	46	45	43	42	41	39	38	36	35	34	33	31	30	29	27	28	31	34	36	37	37	38	39	39	38	37	35	34	33	32	31	30	28	27	26	26	25	23	22	20	20	21	21	21	20	20	19	18	16	15	13	10	8	7	7	7	6	5	5	5	5	6	6	5	5	5	5	5	5	5	5	5	5	5	5	5	5	5	5	5	5	5	5	5	5	5	5	5	5	5	5	5	5	5	5	5	5	5	5	4	4	4	4	4	4	4	4	4	4	4	4	4	5	5	5	5	6	7	8	8	9	9	9	10	10	10	10	10	10	9	9	9	8	8	8	8	7	7	7	6	6	6	6	6	6	6	6	6	6	6	6	6	6	6	6	6	6	6	6	6	6	6	5	5	5	5	5	5	5	7	11	14	15	16	18	19	20	21	22	22	22	22	22	22	22	22	22	22	22	22	22	22	22	22	20	18	16	13	11	8	6	4	3	3	2	2	2	1	1	1	1	1	1	0	0	0	0	0	0	0	0
106	105	104	103	103	102	102	100	98	96	93	89	85	80	75	72	70	72	75	77	80	84	87	90	92	94	96	98	100	101	102	101	100	98	95	92	90	87	84	80	77	73	70	67	63	61	58	56	55	52	50	48	49	50	51	51	51	52	53	55	57	59	60	61	62	63	65	66	67	67	67	66	65	63	61	58	52	47	46	47	47	47	47	47	47	47	46	44	40	37	35	34	34	34	34	34	34	34	34	34	34	34	34	34	34	34	34	34	33	33	33	33	34	34	34	35	35	35	34	34	34	33	32	31	29	29	29	29	29	30	35	40	44	39	36	36	37	39	39	38	37	36	36	37	38	39	40	41	42	43	43	44	44	44	44	45	45	46	46	47	48	49	49	49	49	49	49	49	49	49	49	49	49	49	49	49	49	49	49	49	49	48	48	48	48	48	48	48	48	48	48	49	50	51	52	54	56	57	56	56	55	54	53	53	52	52	51	51	51	52	52	51	51	51	51	50	49	48	46	45	44	42	39	35	32	28	23	16	13	13	13	13	13	13	13	12	13	13	13	13	13	13	13	13	12	12	12	12	12	12	12	12	12	13	13	13	13	13	14	14	13	12	12	12	12	12	12	12	12	12	12	12	12	12	12	11	11	12	12	12	12	10	9	9	9	9	9	9	11	11	11	14	20	23	24	26	27	29	31	36	40	43	45	47	47	48	49	50	50	50	52	54	57	59	61	62	62	62	61	60	59	58	57	55	54	53	52	51	49	48	47	47	46	46	45	44	44	43	42	41	41	39	37	35	32	30	26	23	20	18	17	16	14	13	12	10	9	8	8	9	9	9	9	8	7	7	7	7	6	6	6	6	7	7	7	7	7	6	6	7	8	9	9	8	8	8	8	8	8	8	8	8	8	8	8	8	8	8	8	8	8	8	8	8	8	7	7	7	7	7	7	7	7	7	7	6	5	5	5	5	6	6	7	8	8	9	8	8	8	8	8	9	9	9	9	10	10	10	10	10	10	10	10	11	11	11	11	11	11	11	11	12	13	14	16	20	24	27	28	28	29	29	29	29	28	28	26	25	24	23	21	18	14	11	7	5	5	6	7	7	8	8	8	8	8	9	12	15	17	19	21	24	25	26	26	26	26	26	27	31	35	38	41	44	46	48	49	50	52	55	58	59	61	62	63	63	62	61	61	61	63	64	65	67	68	69	70	71	72	74	75	76	77	79	81	83	84	86	87	88	90	90	90	93	95	96	95	96	96	95	95	95	94	94	94	93	93	93	93	94	96	97	96	96	96	97	95	91	90	90	90	90	90	90	91	91	91	91	91	91	91	91	90	88	88	89	90	89	89	89	87	86	84	84	84	83	83	83	83	83	84	84	84	84	84	84	83	80	78	78	79	79	80	80	80	80	80	81	81	81	81	81	81	81	81	81	81	81	79	75	72	69	66	63	60	57	55	53	50	48	45	44	43	42	40	39	38	36	35	33	32	31	29	28	27	26	27	30	33	35	36	37	37	38	37	36	35	34	33	32	31	30	29	28	27	26	26	25	24	23	22	23	23	22	21	21	20	19	17	16	14	11	9	7	7	6	6	6	6	5	5	6	6	5	5	5	5	5	5	5	5	5	5	5	5	5	5	5	5	5	6	6	6	6	6	5	5	5	5	5	5	5	5	5	5	5	5	5	5	5	4	4	4	4	4	4	4	4	4	4	4	4	4	4	4	5	6	7	8	8	9	9	9	10	10	11	11	10	10	10	10	9	9	9	8	8	8	7	7	6	6	6	6	6	6	6	6	6	6	6	6	6	6	6	6	6	5	5	6	6	6	6	6	5	5	5	5	5	5	6	10	13	15	16	18	19	20	21	21	22	22	23	23	23	22	22	22	23	22	22	22	22	22	22	22	19	17	15	12	9	7	5	4	3	3	2	2	1	1	1	1	1	1	1	0	0	0	0	0	0	0
108	108	107	106	106	105	104	102	100	98	94	90	86	80	75	73	73	75	77	79	82	85	88	91	93	96	98	100	102	103	104	103	101	99	97	94	91	88	85	82	78	74	71	67	64	61	58	55	53	51	49	50	51	52	52	53	53	54	55	57	59	61	62	64	65	66	68	69	69	69	68	66	65	64	62	59	55	49	46	47	47	47	47	47	46	45	43	40	37	36	35	34	34	34	34	34	34	34	34	34	34	34	34	34	34	34	34	34	33	33	34	35	35	36	36	37	37	37	36	36	35	35	33	31	30	29	29	29	29	29	32	39	44	43	41	40	40	40	40	39	38	38	38	38	39	40	41	43	44	44	44	45	45	45	46	46	47	48	49	49	50	50	50	49	49	49	49	50	50	50	50	50	49	49	49	49	49	49	49	49	49	48	48	47	47	48	48	48	48	48	48	48	48	48	49	50	54	57	57	57	57	56	55	54	53	52	52	51	51	52	51	51	51	51	51	50	49	48	46	45	44	41	38	34	30	27	22	15	13	13	13	13	13	13	13	12	12	13	13	13	13	13	13	13	13	13	13	13	13	13	13	13	13	13	13	14	14	14	14	14	13	12	12	12	12	12	12	12	12	12	12	12	12	12	12	11	11	11	12	12	12	10	9	9	9	9	9	9	10	11	11	14	19	22	24	25	27	28	30	35	40	43	45	47	48	49	50	51	51	51	53	56	58	60	61	62	63	63	62	61	60	59	57	56	55	54	53	51	50	48	47	46	45	45	45	44	43	43	42	41	40	38	35	33	31	28	25	21	19	17	16	15	13	12	11	10	10	10	9	9	9	9	9	9	8	7	7	7	6	6	6	6	6	6	7	7	7	6	6	8	8	9	9	8	8	8	8	8	8	8	8	8	8	8	8	8	8	8	8	8	8	8	8	7	7	7	7	7	7	7	7	7	7	7	7	6	5	5	6	6	6	6	7	8	8	9	8	8	8	8	8	9	9	10	10	10	10	10	10	10	10	11	11	11	11	11	11	11	11	11	12	13	14	15	17	21	24	27	28	28	28	29	29	28	28	27	26	24	23	21	19	16	13	9	7	6	5	6	7	8	8	8	8	8	8	10	14	16	18	20	22	24	25	26	26	26	27	27	27	30	34	36	39	42	44	46	47	48	51	53	56	58	59	60	61	61	60	59	58	58	60	61	62	64	65	67	69	70	71	72	74	76	77	78	80	82	84	85	87	88	90	90	90	93	95	96	95	95	95	95	95	95	94	94	94	94	94	93	93	92	93	96	96	96	96	95	92	90	89	90	90	90	90	90	90	91	91	91	91	91	91	90	89	87	88	89	90	89	89	88	86	84	81	80	80	81	81	82	83	83	83	83	84	84	83	83	82	80	78	78	79	79	79	80	80	80	80	80	81	81	81	80	81	81	81	81	81	81	79	75	72	68	65	63	60	58	55	52	50	47	45	44	43	42	40	38	37	36	35	33	32	31	29	28	27	26	26	28	30	33	34	35	36	36	36	36	35	34	33	32	31	30	29	28	27	27	27	26	26	25	25	24	24	24	23	22	21	20	18	17	15	12	10	8	7	6	6	6	6	5	6	6	6	5	5	5	5	5	5	5	5	5	5	5	5	5	5	6	6	7	7	8	8	8	8	7	7	6	5	5	5	5	5	5	5	5	5	5	5	5	4	4	4	4	4	4	4	4	4	4	4	4	4	4	4	5	6	7	8	8	9	9	9	10	10	11	11	11	10	10	10	9	9	9	9	8	8	7	7	6	6	6	6	6	6	6	6	6	6	6	6	6	6	6	6	6	5	5	5	6	6	6	6	5	5	5	5	5	5	6	8	12	15	16	18	19	21	21	22	23	24	25	25	24	24	24	24	24	23	23	23	23	23	23	22	21	19	16	13	10	8	6	5	4	3	2	2	1	1	1	1	1	1	1	0	0	0	0	0	0	0
111	111	110	109	109	108	106	104	102	99	95	90	86	80	76	76	77	78	80	82	84	87	90	93	96	98	100	102	104	105	105	104	103	101	99	96	93	90	87	84	80	75	71	68	65	62	58	54	51	50	50	52	54	54	55	55	56	56	57	59	61	63	64	66	68	69	70	71	71	70	69	67	65	64	62	60	57	52	48	46	46	47	47	46	45	43	40	38	36	35	35	34	34	34	34	34	34	34	34	34	34	34	34	34	34	34	34	34	34	35	36	37	37	37	37	37	38	38	37	37	37	36	35	33	31	29	29	29	29	29	30	36	42	45	44	43	42	42	41	40	40	40	40	40	41	42	44	45	46	46	47	47	47	48	48	48	49	49	50	50	50	50	50	50	50	50	50	50	50	50	50	50	50	50	50	49	49	49	49	49	49	49	48	48	47	48	48	48	48	48	48	48	48	49	49	49	51	54	56	57	58	58	57	55	54	53	52	51	51	51	51	51	51	51	51	50	49	47	46	44	42	39	35	32	29	26	21	14	13	13	13	13	13	13	13	13	13	13	13	13	13	13	13	13	13	13	13	13	13	13	13	13	12	13	13	14	14	14	14	14	12	12	12	12	12	12	12	12	12	12	13	13	13	12	12	12	11	11	11	12	11	10	9	9	9	9	9	9	10	11	11	13	18	22	23	25	27	28	30	34	38	42	44	46	48	49	51	52	52	53	55	57	60	61	62	63	64	64	63	61	60	59	57	56	55	54	53	51	50	48	46	45	45	45	44	44	43	43	41	40	38	36	34	32	29	26	23	20	18	17	15	14	12	11	11	11	11	11	11	10	9	9	9	9	9	8	8	7	6	6	6	6	6	6	6	6	6	6	7	8	9	9	8	8	8	8	8	8	8	8	8	8	8	8	8	8	8	8	8	8	8	8	8	7	7	7	7	7	7	7	7	7	7	7	7	6	6	6	6	6	6	6	7	8	8	8	8	8	8	8	8	9	9	10	10	10	10	10	11	11	11	11	11	11	11	11	11	11	11	12	13	14	14	15	18	21	24	27	28	28	28	28	28	28	27	26	25	23	21	19	17	14	11	8	7	6	6	7	8	9	9	8	8	9	10	12	15	16	18	20	22	24	25	26	26	27	27	27	27	29	32	35	38	40	42	43	45	46	49	52	55	57	58	59	59	59	58	57	56	56	58	59	60	61	63	65	66	68	69	70	72	74	76	78	80	81	83	85	86	88	89	90	90	92	95	96	95	95	95	95	95	95	94	94	94	94	94	94	94	93	92	92	94	96	96	93	90	89	90	90	90	90	90	90	90	90	91	91	91	91	91	89	87	87	89	89	89	89	89	88	86	83	80	79	78	78	79	81	82	83	83	83	83	83	83	82	80	79	78	78	78	79	79	80	80	80	80	80	81	81	81	80	80	81	81	81	81	81	79	75	71	68	65	62	60	57	55	52	49	47	45	44	43	41	39	38	37	36	35	33	32	31	29	28	27	26	25	26	29	31	33	34	35	35	35	35	34	33	32	31	30	30	29	29	28	28	28	27	27	27	26	26	25	25	24	24	23	21	19	17	16	13	11	10	8	7	6	5	5	5	6	6	6	5	5	5	5	5	5	5	5	5	5	6	6	6	6	7	8	9	9	9	9	9	9	9	9	7	6	5	5	5	5	5	5	5	5	5	4	4	4	4	4	4	4	4	4	4	4	4	4	4	4	5	5	5	6	7	7	8	9	9	9	10	10	11	11	11	10	10	10	10	9	9	9	8	8	7	6	6	6	6	6	6	6	6	6	6	6	6	6	6	6	6	6	6	5	5	5	6	6	6	6	6	5	5	5	5	5	5	6	10	13	16	17	19	21	22	23	24	26	27	27	27	26	26	25	25	25	25	25	25	25	25	24	23	22	18	14	11	8	7	5	4	3	3	2	1	1	1	1	1	1	1	1	0	0	0	0	0	0
114	113	113	112	111	110	107	105	102	98	94	90	85	81	78	79	81	82	84	86	88	91	94	96	99	101	103	105	107	108	107	105	104	102	100	97	94	91	88	85	82	77	72	69	66	63	58	54	52	53	54	55	56	57	57	58	58	59	60	61	63	65	67	69	70	71	71	71	71	70	68	67	65	63	62	59	57	54	50	46	46	47	47	45	43	40	38	36	36	35	34	34	34	34	34	34	34	34	34	34	34	34	34	34	34	34	34	35	36	37	37	37	38	38	38	38	38	38	38	38	37	37	36	35	33	31	29	29	30	29	29	34	41	45	46	46	45	44	42	42	41	41	41	42	44	46	47	48	49	49	49	50	50	50	50	50	50	50	50	50	50	50	50	50	50	50	50	50	50	50	50	50	50	50	50	50	50	49	49	49	49	49	49	48	48	47	48	48	48	48	48	48	48	49	49	49	49	50	55	57	58	58	57	54	53	52	51	51	51	51	51	51	51	51	50	49	48	46	44	42	40	36	32	30	28	24	18	14	14	14	13	13	13	13	13	13	13	13	13	12	12	13	13	13	13	13	13	13	13	13	13	12	13	13	14	14	14	14	14	14	13	12	12	12	12	12	12	12	12	13	13	13	13	12	12	12	12	11	11	11	11	11	10	9	9	9	9	9	9	10	11	12	16	21	23	25	27	29	31	34	38	41	43	45	47	49	51	53	54	56	57	59	61	62	63	64	64	64	64	62	61	59	58	56	55	54	53	51	50	48	45	44	44	44	44	43	43	42	40	37	35	34	32	29	26	23	21	19	17	16	14	13	13	12	12	12	12	12	11	10	9	9	9	9	9	9	8	8	7	7	7	7	6	6	6	6	5	6	8	9	9	9	8	8	8	8	8	8	8	8	8	8	8	8	8	8	8	8	8	8	8	8	8	7	7	7	7	7	7	7	7	7	7	7	7	7	7	7	7	7	7	7	7	8	8	8	8	8	8	8	8	9	10	10	10	11	11	11	11	11	11	10	11	11	11	11	11	12	13	13	14	15	14	15	18	22	25	27	28	28	28	28	28	27	26	25	24	22	19	17	14	11	9	8	7	6	6	7	9	9	9	9	9	10	12	14	16	17	18	20	22	24	25	26	27	27	27	28	27	28	31	33	36	38	40	41	43	45	47	50	53	55	56	57	57	56	56	55	54	54	55	56	57	59	61	63	64	66	67	68	70	72	74	77	78	80	82	84	85	87	88	89	90	91	94	96	96	95	95	95	95	95	95	94	94	94	94	95	95	95	94	92	91	93	94	90	89	90	90	90	90	90	90	90	90	90	90	91	91	91	90	87	86	88	89	89	89	89	89	88	85	83	80	78	77	76	78	80	82	83	83	83	83	83	82	81	79	77	76	76	77	78	79	79	80	80	80	80	80	81	81	80	80	81	81	81	81	81	78	74	70	68	65	62	59	57	54	52	50	47	46	44	43	41	39	38	37	36	35	33	32	30	29	28	28	27	25	26	28	30	32	32	33	33	34	34	33	32	32	31	30	29	29	29	29	29	28	28	28	28	27	27	26	26	25	25	24	23	20	18	16	15	13	11	10	8	7	6	5	5	5	6	6	5	5	5	5	5	5	5	5	6	6	7	7	8	8	8	9	9	9	9	9	9	9	10	9	8	6	6	6	6	5	5	5	5	5	5	4	4	4	4	4	4	4	4	4	4	4	4	4	5	5	5	5	5	6	7	8	8	9	9	9	10	10	11	11	11	10	10	10	10	9	9	9	9	8	7	6	6	6	6	6	6	6	6	6	6	6	6	6	6	6	6	6	5	4	4	5	6	6	6	6	6	6	5	5	5	5	5	5	7	11	14	17	19	21	22	23	24	26	28	29	29	29	28	27	26	27	28	28	28	28	27	26	26	25	21	16	12	9	8	6	5	4	3	2	2	1	1	1	1	1	1	1	0	0	0	0	0	0
116	116	115	114	113	111	108	104	101	97	93	88	84	81	80	82	84	87	89	91	93	96	98	100	102	104	106	108	110	111	109	107	105	103	101	98	95	92	90	87	83	78	73	70	67	62	57	54	55	56	57	58	59	60	60	60	61	61	62	64	66	69	70	71	72	72	72	71	70	68	67	65	64	62	60	57	55	53	50	47	46	46	45	43	41	38	37	36	35	34	34	34	34	34	34	34	34	34	34	34	34	34	34	34	34	34	35	36	37	37	38	38	38	38	38	38	38	37	37	38	37	37	37	36	35	32	30	29	30	29	29	33	39	45	48	49	48	47	45	44	43	43	44	46	48	49	50	51	51	51	51	51	51	51	51	51	51	50	50	50	50	50	50	50	50	50	50	50	50	50	50	50	50	50	50	50	50	50	50	50	50	49	49	49	48	48	48	48	48	48	48	48	48	49	49	49	49	49	52	56	57	57	55	53	51	51	50	49	49	49	50	50	50	50	49	47	45	43	41	39	36	33	31	29	28	24	17	14	14	14	13	13	13	13	12	12	12	12	12	13	13	13	13	12	12	12	12	12	12	12	12	13	13	13	14	14	14	14	14	14	12	12	12	12	12	12	12	12	13	13	13	13	13	13	12	12	12	11	11	11	11	11	10	9	9	9	9	9	9	10	11	11	14	20	24	26	28	30	32	35	38	40	43	44	46	49	51	53	56	57	59	61	62	63	64	64	65	65	65	64	62	60	59	57	55	54	53	51	49	47	45	43	42	41	41	40	40	39	36	34	33	32	30	26	23	20	19	18	17	15	14	14	14	14	14	13	12	12	12	11	10	10	9	9	9	9	9	9	8	8	8	7	7	7	6	6	5	6	8	9	9	8	8	8	8	8	8	8	8	8	8	8	8	8	8	8	8	8	8	8	8	8	8	7	7	7	7	7	7	7	7	8	8	8	8	8	8	8	8	8	7	7	7	8	8	8	8	8	8	8	9	9	10	10	11	11	11	11	11	11	11	11	11	11	12	12	12	13	14	14	14	14	14	15	19	22	25	26	27	28	28	27	27	26	25	24	22	20	17	14	12	9	8	7	7	6	6	8	9	9	9	9	10	11	12	15	16	17	18	19	21	23	25	26	27	27	27	28	28	28	30	32	34	36	38	39	41	43	46	48	51	53	54	55	55	54	53	52	51	51	52	53	55	57	59	61	62	63	65	66	67	69	71	74	76	78	80	82	84	86	87	88	89	90	93	95	96	96	95	95	95	95	95	95	95	95	95	95	95	96	96	95	93	91	90	89	90	90	91	91	90	90	90	90	90	90	90	91	90	89	88	86	87	89	89	89	89	89	89	87	85	83	80	78	75	75	76	79	81	81	81	81	81	80	79	78	76	75	73	73	75	76	78	79	80	80	80	80	80	81	81	80	80	81	81	81	81	81	79	74	71	68	65	62	59	57	55	53	51	48	47	45	44	42	40	38	37	36	34	33	32	30	29	28	28	27	26	25	26	28	30	31	31	31	32	33	32	31	31	30	29	29	29	29	29	29	29	29	29	29	28	28	27	27	26	26	25	24	21	19	17	15	14	12	11	9	7	6	5	5	5	6	6	5	5	5	5	5	6	6	6	7	7	8	8	8	9	9	9	9	9	9	9	9	9	9	9	8	7	7	7	7	7	6	5	5	5	5	5	5	5	4	4	4	4	4	4	4	4	4	4	4	4	5	5	5	6	7	8	8	9	9	9	10	10	11	11	11	10	10	10	10	10	9	9	8	8	7	6	6	6	6	6	6	6	6	6	6	6	6	6	6	6	6	5	4	4	4	5	5	6	6	6	6	6	6	5	5	5	5	5	5	7	12	16	18	20	21	23	24	26	28	30	31	31	30	29	29	29	30	31	31	31	29	28	27	26	23	18	14	11	8	7	5	4	3	2	2	1	1	1	1	1	1	1	0	0	0	0	0	0
118	117	116	115	114	111	107	103	100	96	92	88	84	83	84	86	88	91	94	95	97	100	103	105	106	108	110	112	113	113	111	109	106	104	102	99	96	93	90	87	84	79	74	70	66	61	57	56	58	59	60	61	62	62	63	63	64	64	65	68	70	72	73	73	73	72	71	70	68	66	65	63	61	59	57	54	52	50	48	46	45	45	44	42	39	38	37	36	35	34	34	34	34	34	34	34	34	34	34	34	34	34	34	34	35	36	36	37	38	38	38	37	38	38	37	37	38	38	37	37	37	37	37	37	35	33	31	30	30	30	29	32	38	44	49	50	50	49	48	47	46	46	47	49	50	51	51	51	51	51	51	51	51	51	51	51	51	51	51	51	51	51	51	51	50	50	50	51	51	51	51	51	51	51	51	50	50	50	50	50	50	50	49	49	48	48	48	48	48	48	48	48	48	49	49	49	49	49	51	55	57	56	54	51	50	49	48	48	48	48	48	48	48	48	46	44	42	40	38	36	34	32	30	29	29	27	22	15	14	14	13	13	13	13	13	13	13	13	13	13	13	13	13	13	13	13	13	13	13	13	13	13	13	14	14	14	14	14	14	13	12	12	12	12	12	12	12	13	13	13	13	13	13	13	12	12	12	12	11	11	11	12	11	10	9	9	9	9	9	10	11	11	13	18	23	27	29	31	33	36	39	40	42	45	47	50	53	55	57	59	60	62	63	64	65	65	65	66	66	65	63	62	60	58	56	54	53	51	49	47	45	42	40	38	37	36	34	33	32	31	30	28	26	23	21	19	18	18	16	15	14	14	15	15	15	14	13	12	12	12	11	11	10	9	9	9	9	9	9	9	9	8	8	8	7	6	6	6	8	9	9	8	8	8	8	8	8	8	8	8	8	8	8	8	8	8	8	8	8	8	8	8	8	7	7	7	7	7	7	7	8	8	8	8	8	8	8	8	8	8	8	8	8	8	8	8	8	9	9	9	9	10	10	11	11	11	11	12	11	11	11	11	12	12	12	12	13	14	14	14	14	14	14	15	19	22	24	25	26	26	27	26	25	24	23	22	20	17	14	11	9	8	7	7	7	6	7	8	9	9	9	10	10	11	12	14	16	16	17	19	21	22	24	25	26	27	27	28	28	29	29	30	32	34	36	37	39	42	44	46	48	50	52	53	52	51	50	49	48	49	50	51	53	55	57	58	59	60	61	62	64	65	67	70	73	75	77	80	82	84	85	86	88	89	91	93	94	95	95	95	95	95	95	95	95	95	95	95	95	95	95	96	95	92	89	89	90	90	91	91	91	91	91	90	90	91	91	90	88	87	86	87	88	89	89	89	89	89	88	87	85	82	80	77	74	73	74	77	78	78	78	78	78	77	76	75	74	72	71	71	72	74	76	78	79	80	80	80	80	80	80	80	81	81	81	81	81	81	79	75	72	69	67	64	60	58	56	54	52	50	48	46	45	43	41	39	38	36	34	33	32	30	29	29	28	27	26	25	25	26	28	29	29	30	30	31	31	30	28	28	28	29	29	29	29	30	30	30	29	29	29	29	28	28	27	27	26	25	23	20	18	16	14	13	11	9	7	6	5	5	6	6	6	6	5	5	5	6	7	7	8	8	8	9	9	9	9	9	9	9	9	9	9	9	9	9	9	9	8	8	8	8	8	7	6	5	5	5	5	5	5	4	4	4	4	4	4	4	4	4	4	3	4	4	4	5	6	7	8	9	9	9	9	10	10	11	11	11	11	10	10	10	10	9	9	8	7	7	6	6	6	6	6	6	6	6	6	6	6	6	6	6	6	5	4	4	4	4	5	5	5	6	6	6	6	6	5	5	5	5	5	5	5	8	13	17	20	21	23	24	25	27	29	31	32	32	32	32	32	33	34	34	34	32	31	29	28	25	21	16	12	9	7	6	4	3	3	2	1	1	1	1	1	1	1	0	0	0	0	0	0
120	119	117	116	115	112	107	103	99	95	91	87	85	85	87	89	92	96	98	100	102	104	106	108	110	112	114	114	114	113	112	110	107	105	102	100	97	94	91	88	85	80	74	70	66	61	59	60	61	63	63	64	65	65	66	66	68	69	70	72	73	75	75	75	73	71	70	68	66	64	63	61	59	56	54	51	49	47	45	44	44	44	43	41	39	37	36	35	34	34	34	34	34	34	34	34	34	34	34	34	34	35	35	35	36	37	37	38	38	38	38	37	37	37	37	38	38	38	38	37	38	37	37	36	35	33	32	30	30	30	29	31	37	43	48	50	51	51	50	49	48	49	49	50	51	51	51	52	52	52	52	52	51	51	51	51	51	51	51	51	51	51	51	51	51	51	51	51	51	51	51	51	51	51	51	51	51	51	50	50	50	50	50	49	49	48	48	48	48	48	48	48	49	49	49	49	49	49	50	55	57	55	52	50	48	47	46	46	46	46	47	46	46	45	43	41	39	37	35	34	33	32	32	31	31	30	28	20	13	13	13	13	13	14	14	14	14	14	14	14	14	14	14	14	14	14	14	14	14	13	13	14	14	14	14	14	14	14	14	13	12	12	12	12	12	12	13	13	13	13	13	13	13	13	13	12	12	12	11	11	11	12	11	10	9	9	9	9	9	9	10	11	12	16	22	27	30	32	35	38	39	41	43	46	49	51	54	56	58	60	61	63	65	65	65	66	66	66	67	66	65	63	61	59	57	55	53	51	50	48	45	42	40	37	36	34	31	30	28	28	27	25	23	21	20	20	19	18	17	16	15	15	15	15	15	14	13	12	12	12	12	11	10	9	9	9	9	9	9	9	9	9	8	8	8	7	6	6	7	9	9	8	8	8	8	8	8	8	8	8	8	8	8	8	8	8	8	8	8	8	8	8	8	8	7	7	7	7	8	8	8	8	8	8	8	8	8	8	8	8	8	8	8	8	8	8	9	9	9	9	10	10	10	11	11	12	12	13	13	12	12	12	12	12	13	12	13	13	14	14	14	14	14	15	19	22	23	24	24	25	25	25	24	23	22	20	17	14	12	9	8	7	7	7	6	6	7	8	9	9	9	10	10	11	12	14	15	16	17	18	20	22	23	25	26	26	27	28	29	29	29	30	31	32	34	36	38	40	42	44	46	48	49	50	50	48	47	46	46	46	47	48	50	53	54	55	56	56	57	58	59	61	64	66	69	72	75	77	79	81	83	84	86	87	89	91	92	94	95	96	95	95	95	95	95	95	95	95	95	95	95	96	94	91	89	89	90	91	91	91	91	91	91	91	91	91	90	88	86	87	88	89	89	89	88	88	88	89	88	86	84	82	79	77	73	72	73	74	75	75	75	75	75	74	74	73	72	70	68	68	69	72	75	77	79	80	80	80	80	80	80	80	80	81	81	81	81	81	79	76	73	70	68	65	63	60	58	55	53	51	49	47	45	44	42	40	38	36	35	33	32	31	29	29	28	27	26	25	24	24	26	27	28	28	28	28	28	27	25	25	26	28	29	29	29	30	30	30	30	30	30	29	29	29	28	28	27	26	25	23	20	17	15	13	11	9	7	6	5	6	6	7	7	7	6	6	6	7	7	8	8	8	9	9	9	9	9	9	9	9	9	9	9	9	10	10	10	10	10	10	10	10	10	9	8	6	5	5	5	5	4	4	4	4	4	4	4	4	4	4	4	3	3	4	4	5	6	7	8	9	9	9	9	10	10	11	11	11	11	10	10	10	10	9	8	8	7	6	6	6	6	6	6	6	6	6	6	6	6	6	6	5	5	4	3	4	5	5	5	5	5	6	6	6	6	6	6	5	5	5	5	5	5	5	10	16	19	21	22	23	25	26	28	30	32	33	34	34	35	35	36	36	36	35	34	33	30	27	23	19	14	11	8	7	5	4	3	2	2	1	1	1	1	1	1	1	0	0	0	0	0
121	120	118	117	115	112	106	101	97	93	89	87	87	89	91	93	96	99	102	104	106	108	110	112	114	116	116	116	115	114	113	111	108	105	103	100	97	94	91	89	86	81	75	70	66	63	62	63	65	66	67	68	69	69	69	70	72	73	74	75	76	77	76	74	72	69	67	66	64	62	60	58	56	53	51	49	47	46	44	43	43	42	41	39	38	37	36	35	34	34	34	34	34	34	34	34	34	35	35	35	36	36	36	37	37	38	38	38	37	37	38	38	38	38	39	40	41	41	39	38	38	37	37	37	36	35	33	32	31	30	29	31	35	41	47	50	51	51	51	51	50	50	51	51	52	52	52	52	52	52	52	52	51	51	51	51	51	51	51	51	51	51	51	51	51	51	51	51	51	51	51	51	51	51	51	51	51	51	51	51	50	50	50	50	49	48	48	48	48	48	48	48	49	49	49	49	49	49	51	56	56	53	51	49	47	45	44	44	45	45	45	44	43	42	40	38	36	34	33	33	33	33	33	33	32	31	30	24	14	13	13	13	13	14	14	14	14	14	14	14	14	14	14	14	14	14	14	14	14	14	14	14	14	14	14	14	14	14	14	13	12	12	12	12	12	12	13	13	13	13	13	13	14	13	13	13	12	12	11	11	11	12	11	10	9	9	9	9	9	9	10	11	11	14	20	25	29	33	36	39	40	41	44	47	50	53	55	57	59	60	62	64	65	66	66	66	67	67	67	67	66	64	62	60	58	57	55	53	51	49	46	43	41	38	35	33	31	29	28	26	25	23	21	20	20	20	19	19	17	17	16	15	15	15	14	14	13	13	12	12	12	12	11	10	9	9	9	9	9	9	9	9	8	8	8	8	7	7	8	8	9	9	8	8	8	8	8	8	8	8	8	8	8	8	8	8	8	8	8	8	8	8	8	8	8	7	7	8	8	8	8	8	8	8	8	8	8	8	8	8	8	8	8	8	8	8	9	9	9	9	10	10	11	11	12	12	13	13	13	13	13	13	13	13	13	13	13	14	14	14	14	14	14	16	18	21	22	23	23	23	24	24	23	21	20	17	14	12	9	8	7	7	8	7	6	7	7	8	9	9	9	10	10	11	12	13	13	14	16	17	19	21	22	24	25	26	27	28	29	29	30	30	30	31	32	34	36	39	41	43	44	45	46	47	47	46	45	44	44	44	44	45	47	49	51	52	52	53	54	55	56	58	61	63	66	69	72	74	77	79	80	82	83	85	88	89	90	92	95	96	96	95	95	95	95	95	95	95	95	95	95	95	93	89	89	90	90	91	91	91	91	91	91	91	91	90	88	86	87	89	89	90	90	89	88	88	88	88	87	86	83	81	79	76	73	71	71	72	73	73	73	73	73	72	72	71	70	68	66	66	68	70	73	76	78	79	80	80	80	80	80	80	80	80	81	81	81	81	79	76	73	71	68	66	64	62	60	57	55	52	50	48	46	44	42	41	39	37	35	34	33	31	30	29	28	27	26	25	24	23	24	25	26	26	26	25	25	24	24	24	25	26	28	28	29	29	30	30	30	30	30	30	30	29	29	28	28	27	26	25	22	18	15	13	11	9	7	6	6	6	7	7	8	7	7	7	7	8	8	8	8	8	9	10	10	10	10	10	10	10	10	10	10	10	10	11	11	11	11	11	11	11	11	11	9	6	5	5	5	5	4	4	4	4	4	4	4	5	5	4	4	4	3	3	3	4	6	7	8	9	9	9	9	10	10	10	11	11	11	11	11	11	10	9	8	7	7	6	6	6	6	6	6	6	6	6	6	6	6	6	5	4	4	3	4	5	5	5	5	5	5	5	6	6	6	6	6	6	5	5	5	5	5	5	6	12	17	20	22	23	24	26	28	30	32	33	35	36	36	37	37	38	37	37	36	35	32	29	26	21	16	12	10	8	7	5	4	3	2	1	1	1	1	1	1	1	0	0	0	0	0
122	120	118	116	114	110	105	99	95	91	88	88	90	92	94	96	98	101	105	107	110	112	114	115	117	118	119	119	118	116	114	111	108	106	103	100	98	95	92	89	86	82	77	72	69	67	67	68	70	71	73	73	74	74	74	74	75	77	78	78	78	77	75	72	69	67	65	63	61	60	57	55	53	50	49	48	47	45	43	42	42	41	40	39	38	38	36	35	35	35	35	34	34	34	35	35	35	36	36	37	37	37	37	37	38	38	37	37	37	38	39	39	40	42	44	45	45	45	43	41	38	37	38	37	37	36	35	33	32	30	30	30	32	37	43	49	51	51	51	51	52	52	52	52	52	52	53	53	53	52	52	52	51	51	51	51	51	51	51	51	51	51	51	51	51	51	51	51	51	51	51	51	51	51	51	51	51	51	51	51	51	50	50	50	50	49	48	48	48	48	48	49	49	49	49	49	49	49	51	56	55	52	50	48	45	43	43	43	43	43	43	42	42	41	37	34	32	31	31	30	30	31	32	33	32	32	30	25	18	14	13	13	13	14	14	14	14	14	14	14	14	14	14	14	14	14	14	14	14	14	14	14	14	14	14	14	14	14	14	13	12	12	12	12	12	12	13	13	13	13	13	14	14	14	13	13	13	12	12	12	12	12	11	10	9	9	9	9	9	9	9	11	11	13	17	23	28	32	36	39	41	42	44	47	51	54	56	58	60	61	63	64	66	66	66	67	67	67	68	68	67	65	63	62	61	60	59	57	54	51	48	45	42	39	36	33	31	29	27	25	24	22	20	20	20	20	20	19	18	18	18	17	17	16	15	14	14	14	13	13	12	12	12	11	10	10	11	10	10	9	9	9	9	9	8	8	8	8	8	9	9	8	8	8	8	8	8	8	8	8	8	8	8	8	8	8	8	8	8	8	8	8	8	8	8	8	8	8	8	8	8	8	8	8	8	8	8	8	8	8	8	8	8	8	8	8	9	9	9	9	10	10	11	11	13	13	13	14	14	13	13	13	14	13	13	14	14	15	15	15	15	15	15	16	18	20	21	22	22	22	22	22	21	19	17	14	12	10	8	8	7	8	8	7	6	7	7	8	9	9	9	10	11	11	12	12	13	14	15	17	18	20	21	23	24	25	26	27	28	29	30	30	31	31	32	33	35	37	39	41	42	42	43	43	43	43	43	42	41	41	41	42	44	46	47	48	49	50	50	51	53	55	58	61	63	66	68	71	74	76	78	80	81	83	86	88	90	91	93	94	96	96	95	95	95	95	95	95	95	95	95	95	91	89	89	90	91	91	91	91	91	91	91	91	91	88	86	87	89	90	90	89	89	89	89	88	88	88	86	84	82	80	78	75	72	70	69	69	70	70	71	71	71	70	70	69	67	65	63	64	67	69	71	75	78	79	80	80	80	80	80	80	80	80	81	81	81	80	78	75	73	70	68	66	65	63	61	58	56	54	51	49	46	45	43	41	40	38	36	35	33	32	31	30	29	27	26	25	25	24	23	24	24	24	24	23	23	23	23	24	24	25	26	27	28	29	29	30	30	31	31	31	30	30	30	29	29	28	27	25	22	18	15	12	10	8	7	6	6	7	7	8	8	7	7	8	8	8	8	8	8	8	9	10	11	11	11	11	11	11	11	11	11	11	11	11	11	12	13	13	13	13	13	12	10	7	5	5	5	5	4	4	4	4	4	4	4	5	5	5	5	4	4	3	3	4	6	7	8	8	9	9	9	10	10	10	10	11	11	11	11	10	10	9	8	7	6	6	6	6	6	6	6	6	6	6	6	6	6	5	4	4	4	4	5	5	5	5	5	5	5	5	6	6	6	6	6	6	6	5	5	5	5	5	5	9	14	18	21	22	24	26	28	30	32	33	35	36	37	38	39	39	39	39	38	36	34	31	28	24	19	15	12	10	8	7	5	3	2	1	1	1	1	1	1	1	0	0	0	0	0
123	120	117	115	110	105	101	97	92	90	91	92	94	95	97	99	101	104	108	111	113	115	117	118	120	121	122	121	120	117	114	111	109	106	103	101	98	95	92	89	86	82	78	75	73	72	72	73	75	77	79	79	79	78	78	78	79	81	82	81	79	77	74	70	66	64	63	61	60	58	55	53	50	49	48	47	46	45	44	42	41	40	40	39	38	38	37	37	37	36	36	36	35	35	36	37	37	37	37	38	38	38	38	38	37	37	38	38	39	40	41	43	45	46	48	49	49	48	47	45	41	38	37	38	38	37	37	35	33	31	30	30	30	33	39	45	48	50	51	51	52	52	52	52	53	53	53	53	53	52	52	52	51	51	51	51	51	51	51	51	51	51	51	51	51	51	51	51	51	51	51	51	51	51	51	51	51	51	51	51	51	51	51	50	50	49	48	48	48	48	48	49	49	49	49	49	49	49	52	55	54	51	50	47	44	43	43	43	42	42	42	42	43	41	35	31	30	29	28	26	25	26	29	31	31	30	27	24	21	17	13	13	13	13	13	14	14	14	14	13	13	14	14	14	14	14	14	14	14	14	14	14	14	14	14	14	14	14	14	13	12	12	12	12	12	12	13	13	13	13	13	13	14	14	13	13	13	13	13	12	12	12	12	11	9	9	9	9	9	9	9	10	11	12	16	21	26	30	34	38	41	41	44	48	52	55	57	59	60	62	63	65	66	67	67	67	67	68	68	68	68	67	65	64	62	62	63	61	58	54	50	46	42	39	36	33	31	29	27	25	24	22	20	20	19	20	20	20	20	20	20	20	20	18	17	17	17	16	15	14	13	12	12	12	12	11	12	11	10	10	9	9	9	9	9	9	8	8	9	9	9	8	8	8	8	8	8	8	8	8	8	8	8	8	8	8	8	8	8	8	8	8	8	8	8	8	8	8	8	8	8	8	8	8	8	8	8	8	8	8	8	8	8	8	8	8	8	9	9	10	10	11	11	12	13	14	14	14	14	14	14	14	15	14	14	15	16	16	17	17	17	17	17	16	17	18	19	20	20	20	20	19	18	16	14	12	10	9	8	8	8	8	8	7	6	7	7	8	9	9	9	10	11	11	12	12	13	13	15	16	17	19	20	21	22	24	25	26	27	28	29	30	31	31	32	32	34	35	37	39	39	40	40	40	40	40	40	39	38	38	38	39	41	42	43	45	46	46	47	48	50	52	54	57	60	62	65	67	70	73	76	78	80	81	84	86	89	90	91	92	95	96	96	95	95	95	95	95	95	95	96	94	89	88	89	90	91	91	91	91	91	91	91	91	89	86	86	88	90	90	89	89	89	88	88	88	88	87	85	83	81	79	76	74	71	69	68	68	68	68	69	69	69	68	67	66	65	62	61	63	66	69	72	74	77	79	80	80	80	80	80	80	80	80	80	81	80	78	75	74	72	70	68	67	66	64	61	59	57	55	52	50	48	46	44	42	41	39	37	36	35	33	32	31	30	29	27	27	26	26	25	25	24	24	24	23	23	23	23	23	23	23	24	26	27	28	29	30	30	31	31	31	31	31	30	30	29	28	27	25	22	17	14	11	9	7	6	6	6	7	7	8	8	8	8	8	8	8	8	8	8	9	10	11	11	11	11	11	11	11	11	11	11	11	11	11	11	13	14	14	14	14	14	14	11	6	5	5	5	5	4	4	4	4	4	4	5	5	5	5	5	4	4	4	4	4	6	7	8	8	8	9	9	10	10	10	10	10	10	10	10	10	10	9	8	7	6	6	6	6	6	6	6	6	6	6	6	6	5	4	3	4	5	5	6	6	6	6	6	6	6	6	6	6	6	6	6	6	6	5	5	5	5	5	5	6	10	15	19	21	23	25	27	30	32	34	36	37	38	39	40	41	41	40	39	37	35	32	29	26	22	18	14	12	10	8	6	4	2	1	1	1	1	1	1	1	0	0	0	0	0
123	119	116	112	104	99	97	94	93	93	94	95	97	99	101	104	106	108	111	114	116	118	119	121	122	124	125	124	121	118	115	112	109	106	104	101	98	95	92	89	86	83	80	78	77	77	77	78	80	82	84	84	83	82	81	81	83	85	84	82	79	75	72	68	65	63	62	61	59	57	54	51	50	49	49	49	49	47	46	45	44	42	40	39	38	38	37	38	38	37	37	37	37	37	37	37	38	38	38	38	37	37	37	38	38	38	39	40	42	44	46	47	49	50	51	51	51	50	49	47	43	38	37	38	38	38	37	36	34	32	30	30	30	31	34	39	44	48	50	51	51	52	52	52	53	53	53	53	53	52	52	52	52	51	51	51	51	51	51	51	51	51	51	51	51	51	51	51	51	51	51	51	52	52	52	52	52	52	52	51	51	51	51	50	50	49	49	48	48	48	48	49	49	49	49	49	49	50	52	55	53	51	49	47	44	43	42	42	42	42	42	43	42	40	36	32	30	29	27	24	22	21	22	24	26	24	21	18	17	16	13	13	13	13	13	13	13	13	13	13	13	13	14	14	14	14	14	14	14	14	14	14	14	14	14	14	14	15	14	13	12	13	12	12	12	12	13	13	13	13	13	13	14	14	13	13	13	13	13	13	13	13	12	11	9	9	9	9	9	9	9	10	11	12	15	20	24	28	32	36	40	41	43	47	52	56	58	59	61	62	64	65	66	67	67	68	68	68	68	69	69	68	66	65	64	65	65	64	60	56	53	48	43	38	35	32	31	30	28	26	25	23	21	20	19	19	20	21	21	22	22	23	22	21	20	19	19	18	17	16	15	14	12	12	12	12	12	12	11	11	10	9	9	9	9	9	9	9	9	9	8	8	8	8	8	8	8	8	8	8	8	8	8	8	8	8	8	8	8	8	8	8	8	8	8	8	8	8	8	8	8	8	8	8	8	8	8	8	8	8	8	8	8	8	8	8	8	9	9	10	11	11	12	13	14	14	14	14	14	14	15	16	16	16	16	17	18	18	18	18	19	19	18	18	18	18	18	18	18	18	17	16	15	13	12	11	10	9	9	8	8	8	8	7	6	7	7	8	9	9	9	10	11	11	12	12	13	13	14	15	16	17	18	19	20	21	23	25	26	27	28	29	30	31	32	32	33	34	35	36	37	37	37	37	37	37	36	35	35	35	35	36	37	38	39	41	42	43	44	45	47	48	51	54	57	59	62	64	67	70	73	76	78	80	82	85	87	89	90	91	94	96	96	96	95	95	95	95	95	95	95	92	88	87	88	89	90	90	90	91	91	91	91	90	88	86	88	89	90	89	89	88	88	87	87	86	86	85	83	81	79	77	75	72	70	69	67	67	66	66	66	66	66	66	65	63	61	59	60	63	66	69	72	75	77	79	80	80	80	80	80	80	79	79	79	78	76	75	73	72	71	69	68	67	65	64	62	60	57	55	53	51	49	47	45	43	42	40	39	37	36	34	33	32	31	30	29	28	28	27	27	27	26	25	25	24	23	22	22	22	22	22	23	24	25	27	28	29	30	30	31	31	32	32	31	30	29	29	27	25	22	17	13	10	8	7	6	6	7	7	7	7	8	8	8	8	8	8	8	9	9	9	10	11	11	11	11	11	11	11	11	11	11	11	11	11	12	14	16	16	16	16	16	15	10	5	5	5	5	5	5	5	4	4	4	5	5	5	5	5	5	5	4	4	4	5	6	7	7	8	8	9	9	9	10	10	10	10	10	10	10	10	9	8	7	7	6	6	6	6	6	6	6	6	6	6	6	5	4	4	5	5	6	6	6	6	6	6	6	6	6	6	6	6	6	6	6	6	6	5	5	5	5	5	5	5	6	10	16	20	22	25	27	30	32	34	36	37	39	40	41	43	43	42	40	38	36	33	31	28	24	20	16	13	11	9	6	4	2	1	1	1	1	1	1	1	0	0	0	0	0
123	118	114	109	102	99	98	97	96	96	96	98	100	103	106	109	110	112	114	117	119	120	122	123	125	126	127	125	123	119	116	112	109	107	104	101	97	94	91	88	85	84	82	81	81	81	81	82	84	86	87	86	85	84	84	84	85	86	84	81	77	74	70	67	64	63	62	61	59	56	53	52	52	52	52	52	52	51	50	49	48	46	44	42	39	38	38	37	38	38	38	38	38	38	38	38	37	38	37	37	38	38	38	39	40	41	43	44	46	48	50	51	52	53	53	53	53	51	50	48	44	39	37	37	38	38	38	37	35	33	31	30	30	30	31	35	39	43	46	48	49	50	51	52	52	52	52	53	53	52	52	52	52	52	51	51	51	51	51	51	51	51	51	51	51	51	51	51	51	51	52	52	52	52	52	52	52	52	52	52	51	51	51	50	50	49	49	48	48	48	49	49	49	49	49	49	49	50	53	54	53	50	49	47	45	43	42	42	41	42	42	42	41	39	36	33	30	29	26	23	22	21	20	20	20	19	18	15	13	13	13	13	13	13	13	13	13	13	13	13	13	13	14	14	14	14	14	14	14	14	14	14	14	15	14	14	14	14	14	13	12	13	13	12	12	12	13	13	13	13	13	13	13	14	13	13	13	13	13	13	13	12	12	11	10	9	9	9	9	9	9	10	11	12	14	19	23	26	29	34	38	40	42	47	51	56	58	60	61	63	64	66	67	68	68	68	68	69	69	69	69	69	68	67	67	67	67	65	61	58	54	49	43	38	34	31	31	31	29	28	26	25	24	22	21	21	22	23	24	25	25	25	24	24	23	22	21	20	19	18	17	15	14	13	12	12	12	12	12	12	12	11	10	9	9	9	9	9	9	8	8	8	8	8	8	8	8	8	8	8	8	8	8	8	8	8	8	8	8	8	8	8	8	8	8	8	8	8	8	8	8	8	8	8	8	8	8	8	8	8	8	8	8	8	9	9	9	9	10	10	11	13	14	14	14	14	14	14	15	16	17	17	18	19	19	19	20	20	20	20	21	21	20	20	19	19	18	17	17	16	15	14	13	12	11	10	10	9	9	8	8	8	8	7	6	7	7	8	9	9	9	10	10	11	11	12	13	13	14	14	15	16	16	17	17	19	20	22	24	26	27	28	29	31	32	33	33	34	34	35	35	34	35	35	34	34	33	33	33	33	33	33	34	35	35	37	39	40	41	43	44	46	49	52	54	56	59	62	65	68	71	75	77	80	82	84	87	89	90	91	93	95	96	95	95	95	95	95	95	95	94	90	87	87	88	88	88	89	89	89	90	90	91	89	86	87	89	90	89	89	89	88	87	86	85	85	84	83	82	80	78	76	74	71	69	68	66	65	64	63	63	63	63	63	62	60	58	58	60	63	65	69	72	75	77	78	79	80	80	79	79	79	78	77	75	74	73	72	71	70	70	69	67	66	65	63	62	60	57	56	54	53	51	49	46	45	43	42	40	38	36	35	34	33	32	31	31	30	30	29	28	28	27	27	26	25	23	21	20	20	21	21	22	22	24	26	27	28	29	30	30	31	32	32	31	30	29	28	27	24	20	16	11	8	7	6	7	7	7	7	7	7	7	8	8	8	8	9	9	9	9	9	10	11	11	11	11	11	11	11	11	11	12	13	14	15	16	18	19	19	19	19	18	15	9	5	5	5	5	5	5	5	5	5	5	5	5	5	5	5	5	5	5	5	5	6	6	7	8	8	8	8	8	9	9	10	10	10	10	10	9	9	9	8	7	7	6	6	6	6	6	6	6	6	6	5	5	4	4	5	6	6	6	6	6	6	6	6	6	6	6	6	6	6	6	6	6	6	6	6	5	5	5	5	5	5	5	6	12	17	21	24	26	29	32	35	36	38	39	41	42	43	44	43	41	39	37	35	32	29	26	22	18	15	13	10	7	4	2	1	1	1	1	1	1	1	0	0	0	0	0
122	117	112	107	103	102	101	101	100	99	99	101	104	108	111	114	115	116	117	120	122	123	125	126	127	128	128	127	124	120	116	113	110	106	103	100	97	94	90	88	87	86	85	85	84	84	85	86	88	89	90	89	88	87	87	87	87	86	84	81	77	73	70	66	64	63	63	61	58	56	54	54	55	55	55	56	55	54	54	53	52	50	48	46	43	40	38	38	38	37	37	37	37	38	38	38	38	38	38	39	39	40	41	43	44	46	47	49	51	52	53	54	55	56	55	55	54	53	51	49	46	41	38	37	38	37	38	38	37	34	32	30	30	30	30	32	36	38	41	44	45	46	48	50	52	52	52	53	53	52	52	52	52	52	52	52	52	52	52	51	51	52	52	52	52	52	52	52	52	52	52	52	52	52	52	52	52	52	52	52	51	51	51	50	50	49	49	49	48	48	49	49	49	49	49	49	49	51	53	54	52	50	49	47	45	43	42	41	41	41	42	41	40	38	36	33	30	28	26	24	21	20	19	19	19	18	17	15	13	13	13	13	13	13	13	13	13	13	13	13	13	13	13	14	14	14	14	14	14	14	14	15	15	15	15	15	15	14	13	12	12	12	13	13	12	13	13	13	13	13	13	13	13	14	13	13	13	13	13	13	13	12	12	11	10	10	10	9	9	9	10	11	11	12	14	17	21	24	27	31	35	38	41	46	50	55	58	60	61	63	64	66	67	68	69	69	69	70	70	70	70	69	69	68	68	67	67	65	62	58	54	49	43	38	34	32	31	31	30	29	28	27	26	26	25	26	26	27	27	27	27	27	26	25	24	23	22	22	21	20	18	17	15	14	13	13	12	12	12	12	12	12	11	10	9	9	9	9	8	8	8	8	8	8	8	8	8	8	8	9	9	9	9	9	9	9	9	9	9	8	8	8	8	8	8	8	8	8	8	8	8	8	8	8	8	8	8	8	8	8	8	8	9	9	9	9	10	10	10	11	11	12	13	14	14	14	15	16	17	18	19	20	21	21	22	22	22	22	22	23	23	23	23	22	22	20	19	17	16	14	13	12	12	11	11	10	10	9	9	9	8	8	7	7	6	7	8	9	10	10	10	10	10	11	11	12	12	13	13	14	14	15	15	15	16	16	18	19	21	23	25	27	28	29	31	32	33	34	34	35	34	33	33	32	32	32	32	31	30	30	31	32	33	34	35	36	37	38	40	41	43	45	47	50	52	54	57	60	63	66	70	74	77	79	82	85	87	89	91	92	94	95	96	95	95	95	95	95	95	95	93	88	87	87	87	87	87	88	88	88	88	89	89	88	86	88	89	89	89	89	88	87	86	85	84	83	83	82	80	78	77	75	73	70	68	67	65	64	62	61	60	60	60	59	58	57	56	58	61	64	66	68	72	74	76	78	79	79	79	78	78	77	75	73	71	70	70	69	69	68	68	67	66	65	64	63	61	59	58	56	55	54	51	49	47	45	44	43	41	39	37	36	35	34	33	33	32	31	31	30	30	29	28	28	27	25	23	20	19	19	19	19	20	21	22	24	25	27	28	29	30	30	31	31	31	29	28	27	25	22	17	13	9	7	7	7	7	7	7	7	7	7	7	7	8	8	9	9	9	9	9	10	11	12	12	11	11	11	12	13	13	14	17	18	19	21	21	22	23	23	22	20	18	14	7	5	5	5	5	5	5	5	5	5	5	5	5	5	5	4	4	4	4	4	5	6	7	7	8	8	8	8	8	8	9	9	9	9	9	9	9	9	8	8	7	7	7	6	6	6	6	6	6	6	5	5	4	5	5	6	6	6	6	6	6	6	6	6	6	6	6	6	6	6	6	6	6	6	6	6	5	5	5	5	5	5	5	5	8	13	18	22	25	28	31	34	36	37	39	40	42	43	45	44	42	40	38	36	33	30	27	24	20	17	14	10	6	3	2	1	1	1	1	1	1	1	0	0	0	0	0
122	116	111	108	107	106	105	104	102	101	102	105	108	112	116	118	119	120	121	123	125	127	128	129	130	131	129	127	124	121	117	113	110	106	103	99	96	93	90	89	90	90	89	89	88	89	90	90	91	92	93	93	92	91	90	90	88	86	84	81	77	74	70	67	64	63	63	61	58	57	57	57	58	58	59	59	58	58	57	57	56	55	53	50	47	44	42	40	39	39	38	38	38	38	39	39	39	40	41	42	43	45	46	48	49	50	52	53	54	56	56	57	58	58	57	57	56	54	52	50	47	43	38	37	38	38	37	38	37	35	32	31	30	31	31	32	34	35	38	40	42	42	44	48	51	52	52	53	53	53	52	52	52	52	52	52	52	52	52	52	52	52	52	52	52	52	52	52	52	52	52	52	52	52	52	52	53	53	52	52	52	51	51	51	50	50	49	49	48	48	49	49	49	49	49	49	49	51	54	54	52	50	49	47	45	43	42	41	41	41	41	40	38	37	35	32	30	28	26	24	22	19	18	18	17	17	16	14	13	13	13	13	13	13	13	13	13	13	13	13	13	13	13	14	14	15	14	14	15	15	15	14	14	14	14	15	14	14	13	13	13	13	13	13	13	13	13	13	13	13	13	13	13	13	13	13	13	13	13	13	12	12	12	12	11	11	10	10	9	9	10	11	11	12	13	16	20	23	26	30	33	37	41	45	50	54	58	60	61	63	65	66	68	69	69	70	70	70	71	71	70	70	69	69	68	67	66	64	60	56	52	47	42	39	35	33	31	31	31	30	30	30	29	29	30	30	30	30	30	30	30	29	28	27	26	25	24	24	23	21	20	18	17	16	15	14	14	13	13	13	13	12	12	11	10	9	9	9	8	8	8	8	8	8	8	8	8	8	9	9	9	9	10	10	11	12	13	13	12	11	10	9	8	8	8	8	8	8	8	9	9	10	9	9	9	9	9	9	9	9	9	9	9	9	9	10	10	11	11	11	12	12	13	14	15	16	17	19	20	21	22	23	23	24	24	24	24	25	25	25	25	25	25	24	24	22	20	17	15	13	13	12	12	11	11	10	10	10	9	9	8	8	7	7	7	9	10	10	11	10	10	10	10	11	11	12	12	13	13	13	14	15	15	15	15	15	16	17	18	21	23	25	27	28	29	31	33	34	35	35	35	34	32	31	31	30	30	29	29	29	30	32	33	35	36	37	39	40	41	42	43	45	48	51	53	55	57	60	62	65	69	73	76	80	83	86	88	90	92	93	94	95	95	95	95	95	95	95	96	95	91	87	87	87	88	88	87	87	87	87	87	88	88	87	86	88	90	89	89	89	88	86	85	84	83	82	81	80	78	77	75	73	71	69	67	65	64	62	61	60	59	58	57	57	56	55	55	59	62	65	66	68	71	74	75	77	78	78	77	77	76	74	73	71	69	68	67	67	67	66	66	65	65	64	63	62	61	60	58	57	56	54	51	49	47	46	45	44	42	40	38	37	36	35	34	34	33	33	32	31	31	30	29	29	28	26	23	20	19	18	17	17	18	18	20	21	23	25	26	28	29	30	30	29	29	28	26	25	23	19	15	10	7	6	7	7	7	7	7	7	7	7	7	8	9	9	9	9	9	10	11	13	14	14	13	13	12	13	14	16	17	19	22	23	24	24	25	25	25	25	23	20	17	13	6	4	5	5	5	5	5	5	5	5	5	5	5	4	4	4	4	4	4	4	5	6	7	7	7	8	8	8	8	8	8	8	9	9	9	9	9	9	8	8	7	7	7	6	6	6	6	6	6	5	4	4	5	5	6	6	6	6	6	6	6	6	6	6	6	6	6	6	6	6	6	6	6	6	6	6	6	5	5	5	5	5	5	4	5	10	15	19	23	26	30	34	36	37	38	40	41	43	44	44	43	41	39	37	35	31	28	25	22	19	15	9	5	3	2	1	1	1	1	1	1	1	1	0	0	0	0
122	116	112	111	110	110	108	106	105	104	106	109	112	116	119	121	122	124	125	126	128	130	132	132	133	133	130	128	125	121	117	113	110	106	102	99	96	93	92	93	93	93	93	93	93	94	94	94	95	95	96	96	95	95	94	92	89	87	84	82	78	75	71	67	65	64	63	61	59	59	59	61	61	62	62	62	62	61	61	61	61	59	57	54	52	49	46	44	43	42	41	41	41	41	41	42	43	44	45	47	48	49	51	52	53	55	56	57	58	59	60	60	60	60	59	58	57	55	54	51	48	44	39	38	37	38	37	38	37	36	34	32	31	31	32	33	34	36	38	41	42	42	44	49	52	52	52	53	53	53	53	52	52	52	52	52	52	52	52	52	52	52	52	52	52	52	52	52	52	52	52	52	52	52	53	53	53	53	52	52	52	51	51	51	51	50	50	49	49	49	49	49	49	49	49	49	50	52	54	54	52	50	49	47	45	43	42	41	41	40	40	38	37	36	34	32	30	28	27	25	23	20	17	16	16	15	14	13	13	13	14	13	13	13	13	13	13	13	13	13	13	13	13	14	14	15	14	15	14	14	14	14	14	14	14	15	14	14	13	13	13	13	13	13	13	13	13	13	13	13	13	13	13	13	13	13	13	13	13	13	12	12	12	12	12	11	11	10	10	11	11	12	12	12	13	16	19	22	25	29	32	36	40	44	49	54	57	60	61	63	65	67	68	69	70	70	71	71	71	71	71	70	69	68	67	66	65	62	58	54	50	46	42	39	36	34	33	33	33	32	32	33	33	33	33	33	33	33	33	32	32	31	30	29	28	27	26	25	24	22	21	20	19	18	17	16	16	15	14	14	13	13	13	12	12	11	10	9	9	8	8	8	8	8	8	8	8	8	9	9	9	10	11	13	14	14	15	15	15	14	13	12	11	10	9	9	9	10	10	11	11	12	11	10	9	9	9	9	9	9	9	9	9	10	10	10	11	11	11	12	13	14	15	17	18	19	21	22	23	24	25	25	26	26	26	26	26	26	27	27	27	26	26	26	25	23	20	17	15	13	13	12	12	11	11	10	10	10	9	9	9	8	8	8	9	10	11	11	11	11	11	11	11	11	12	12	12	13	13	13	14	15	15	15	15	15	15	15	16	18	20	23	25	27	28	30	32	34	35	36	36	35	33	31	30	29	28	28	30	32	33	35	36	37	39	41	42	43	43	44	46	48	51	54	56	58	59	60	62	65	68	72	76	79	83	87	89	91	92	93	94	94	95	95	95	95	95	95	96	94	90	86	87	87	87	88	87	87	87	87	87	87	87	86	86	88	90	89	89	89	87	85	84	83	82	81	80	78	77	75	74	72	70	68	66	64	63	61	60	59	58	57	56	55	54	54	56	60	63	65	67	68	71	73	75	75	76	76	75	75	74	73	71	69	67	66	66	65	65	64	64	63	63	62	61	60	60	59	58	56	55	53	51	49	47	46	45	44	42	41	40	38	37	37	36	35	35	34	33	32	32	31	30	29	28	26	23	20	18	16	16	15	15	16	16	17	19	21	23	25	27	28	28	27	27	26	24	22	20	15	12	8	7	7	7	7	7	7	7	7	7	7	8	9	9	9	9	10	11	13	14	16	16	17	16	16	15	16	17	19	22	24	25	26	26	26	25	25	25	25	23	20	16	12	6	4	5	5	5	5	5	5	5	5	5	5	4	4	3	3	3	3	3	3	4	5	6	6	7	7	7	7	7	8	8	8	8	8	8	8	8	8	8	8	7	7	7	7	6	6	6	5	4	3	3	4	5	6	6	6	6	6	6	6	6	6	6	6	6	6	6	6	6	6	6	6	6	6	6	6	6	6	5	5	5	5	5	5	5	7	12	17	21	24	28	32	35	36	37	39	40	42	43	44	44	42	40	38	36	33	29	26	23	20	16	10	5	3	2	2	1	1	1	1	1	1	1	0	0	0	0
121	117	114	114	114	113	111	109	107	107	109	111	115	119	123	125	126	127	128	130	132	134	135	135	135	134	131	128	125	121	117	113	109	106	101	98	96	96	96	97	97	97	97	97	97	98	98	98	99	99	100	100	99	98	96	93	90	88	85	82	78	75	71	68	66	65	63	62	61	61	62	63	64	65	65	65	65	64	64	63	63	63	61	58	56	53	51	49	47	46	45	44	44	44	44	45	46	48	49	51	52	53	54	56	57	58	59	60	61	62	62	63	63	62	61	60	58	57	55	53	50	46	41	38	37	37	38	38	38	37	35	32	31	32	33	34	36	38	40	42	43	43	45	49	52	52	52	53	53	53	53	53	52	52	52	52	52	52	52	52	52	52	52	52	52	52	52	52	52	52	52	52	53	53	53	53	53	53	53	52	52	51	51	51	51	50	50	49	49	49	49	49	49	49	49	49	51	53	55	54	53	50	48	47	45	43	42	41	40	40	39	38	36	35	34	33	30	29	27	26	23	20	18	16	15	14	14	13	13	14	14	13	13	13	13	14	14	14	14	14	14	13	14	14	14	14	14	14	14	14	14	14	14	14	15	15	14	13	13	14	13	13	13	13	13	13	13	13	13	13	13	13	13	13	13	13	13	13	13	12	12	12	12	12	12	12	11	11	11	12	12	12	12	12	13	15	18	21	25	28	31	35	39	44	48	53	57	59	61	63	65	67	69	69	70	71	72	72	72	72	71	70	70	68	67	65	63	60	56	52	48	45	42	39	37	36	35	35	35	35	35	36	36	36	36	36	36	35	35	35	34	33	32	31	30	29	28	26	25	24	22	22	21	20	19	19	18	17	16	16	15	14	13	13	12	12	11	11	9	9	8	8	8	8	8	8	8	8	8	8	9	11	13	14	15	15	16	16	16	16	15	15	15	14	13	13	13	13	14	14	14	14	13	11	10	9	9	9	9	9	9	9	10	10	10	11	11	11	12	13	15	17	19	20	22	23	23	24	25	26	27	27	27	27	27	27	27	28	28	28	27	27	27	26	25	24	20	17	14	13	13	12	12	11	11	10	10	9	9	9	8	8	9	10	11	11	11	11	11	11	11	11	11	12	12	12	12	13	13	13	14	15	15	15	15	15	15	15	16	17	18	20	23	25	27	29	31	33	35	36	36	36	34	32	31	29	28	30	33	35	37	38	40	41	42	44	46	46	46	47	49	52	55	58	60	61	61	62	63	65	68	72	75	79	83	86	89	91	92	92	93	94	95	95	95	95	95	95	96	93	88	86	86	87	87	87	87	87	87	87	87	88	87	86	86	88	89	89	89	88	86	85	83	82	81	80	78	77	75	74	72	70	68	66	65	63	61	60	59	58	57	56	55	54	54	54	57	60	63	65	67	68	70	72	73	74	74	74	74	73	73	71	69	67	66	65	64	63	62	62	61	61	60	60	59	58	58	57	57	55	53	51	49	48	47	46	45	44	42	41	40	39	38	37	37	36	36	35	34	34	33	32	31	30	28	26	23	20	18	16	15	15	15	15	14	14	15	16	17	19	22	24	25	25	24	23	21	19	15	10	8	7	7	7	7	7	7	7	7	7	7	7	8	9	9	9	9	11	13	15	16	17	18	20	20	20	20	20	21	23	25	26	27	27	27	26	26	25	25	25	22	19	16	10	6	5	5	5	5	5	5	5	5	5	5	4	4	4	3	3	3	3	3	3	3	4	4	5	6	6	7	7	7	7	7	8	8	8	8	8	8	8	7	7	7	7	7	6	5	5	4	4	3	2	2	3	5	6	6	6	6	6	6	6	6	6	6	6	6	6	6	6	6	6	6	6	6	6	6	6	6	6	5	5	5	5	5	5	5	5	10	16	20	23	26	29	33	35	36	38	39	40	41	42	43	43	41	39	37	34	31	27	24	22	17	11	6	4	3	2	1	1	1	1	1	1	1	0	0	0	0
121	117	116	116	116	115	113	110	109	110	112	114	118	123	126	128	129	130	131	133	134	136	138	138	137	135	132	128	125	121	117	113	109	105	101	98	98	99	100	101	101	101	101	101	101	102	102	102	102	102	103	103	102	101	98	95	92	89	86	83	79	75	71	69	67	66	65	63	62	62	64	66	67	68	68	68	67	66	65	64	64	64	63	61	59	56	54	53	51	50	49	48	47	47	47	48	49	51	53	54	55	56	58	59	60	61	63	64	64	65	65	64	64	64	63	61	59	58	56	54	52	48	43	39	37	37	37	37	37	37	35	33	32	33	35	36	37	39	42	43	44	45	47	50	52	52	52	53	53	53	53	53	53	52	52	52	52	52	52	52	52	52	52	52	52	52	52	53	53	53	53	53	53	53	53	53	53	53	53	52	52	52	51	51	51	51	50	49	49	49	49	49	49	49	49	50	52	54	55	55	53	50	48	46	45	43	42	41	40	39	38	37	36	35	34	33	31	30	28	27	24	21	18	15	14	14	14	14	14	14	14	13	13	13	13	14	14	14	14	14	14	14	14	14	14	14	15	14	14	14	14	14	14	15	15	14	14	13	14	14	14	14	13	13	13	13	13	13	13	13	13	13	13	13	13	13	13	13	13	12	13	12	12	12	12	12	12	12	12	12	12	12	12	12	13	15	18	21	24	27	31	35	39	43	48	52	56	59	61	63	65	67	69	70	71	71	72	73	72	72	71	70	70	68	66	64	62	59	55	52	47	44	42	41	40	39	38	38	38	38	38	38	39	39	39	38	38	38	37	37	36	35	34	33	31	30	29	27	26	25	24	23	22	22	21	20	20	19	19	18	17	16	15	14	13	13	12	11	10	9	8	8	8	8	8	8	8	8	8	8	9	12	14	14	14	15	16	16	17	17	17	18	18	18	18	18	17	17	17	16	16	16	15	12	10	9	9	9	9	9	10	10	10	10	11	11	11	11	12	14	17	19	21	23	24	25	26	26	27	28	28	29	29	29	29	29	29	29	29	29	28	28	27	27	26	24	20	17	14	13	13	12	12	11	11	10	10	10	9	9	8	8	10	11	11	11	11	12	12	12	12	12	12	12	12	12	13	13	13	14	14	15	15	15	15	15	15	15	16	17	17	19	21	24	26	28	30	33	35	36	37	36	35	34	32	30	30	32	36	38	40	42	43	44	45	47	49	49	49	50	52	55	58	61	63	64	64	64	65	66	68	71	74	78	82	85	88	91	91	92	93	94	95	95	95	95	95	95	95	92	87	86	86	87	88	88	87	87	87	87	87	88	87	86	85	87	88	87	87	87	85	84	83	81	80	79	77	75	74	72	70	69	67	65	63	62	60	59	59	58	57	56	55	54	53	54	57	59	62	64	66	67	68	70	71	72	73	73	73	72	72	70	68	66	65	63	62	61	60	59	59	58	58	58	57	56	56	55	54	53	51	49	47	46	46	46	45	43	41	40	39	38	38	37	37	36	36	35	35	34	33	32	31	30	29	26	23	21	18	15	15	15	15	15	14	14	13	13	13	14	15	16	17	18	18	17	15	14	12	8	7	7	7	7	7	7	7	7	7	7	7	8	9	9	10	9	9	11	14	16	17	19	21	23	24	24	24	24	24	25	26	27	27	28	28	27	26	26	25	24	21	18	15	9	5	5	5	5	4	4	4	5	5	5	5	4	4	3	3	3	3	3	3	3	3	3	4	4	4	5	5	6	6	6	7	7	7	7	7	6	6	6	6	6	6	6	6	5	4	3	3	2	2	1	1	2	3	5	6	6	6	6	6	6	6	6	6	6	6	6	6	6	6	6	6	6	6	6	6	6	6	6	5	5	5	5	5	5	5	5	7	14	20	23	25	28	31	33	35	36	37	38	39	40	41	42	42	40	38	36	32	29	26	23	19	13	7	5	3	2	1	1	1	1	1	1	1	0	0	0	0
121	118	118	118	117	116	114	111	111	112	115	118	122	126	129	131	132	133	134	136	137	138	140	140	139	136	132	129	125	121	117	114	109	105	101	99	100	103	104	105	105	105	105	105	105	106	106	106	106	106	106	106	105	102	99	96	93	90	87	84	80	75	73	71	70	69	67	65	63	64	66	69	71	71	71	70	70	68	67	66	65	64	64	63	60	58	56	55	54	53	52	51	50	50	50	50	52	54	56	57	58	60	61	62	63	64	65	66	67	67	67	66	65	65	64	62	61	59	58	56	54	50	46	41	38	37	37	37	37	37	36	34	33	35	37	39	41	42	44	46	46	47	48	51	53	53	53	53	53	53	53	53	53	53	53	53	53	53	53	53	53	53	53	53	53	53	53	53	53	53	53	53	53	53	53	53	53	53	53	52	52	52	51	51	51	51	50	50	49	49	49	49	49	49	50	51	53	54	55	55	53	50	49	47	45	43	42	41	40	39	38	37	36	35	34	33	32	30	29	27	24	21	18	15	14	14	14	14	14	14	14	13	13	13	13	14	14	14	14	14	14	14	14	14	14	14	15	14	14	14	14	14	14	15	15	14	13	13	14	14	14	14	14	14	14	13	13	13	13	13	13	13	13	13	13	13	13	13	13	13	13	12	12	12	12	12	12	12	12	12	12	12	12	13	13	14	17	20	24	27	30	34	38	43	47	52	56	58	61	63	65	67	69	70	71	71	72	72	72	72	71	70	69	67	65	64	62	59	55	52	48	45	44	43	42	41	40	41	41	41	41	41	41	41	41	41	40	40	39	39	38	37	36	34	33	31	30	28	27	26	25	24	23	23	22	22	22	21	21	20	19	19	18	17	15	13	12	11	10	9	8	8	8	8	8	8	8	8	8	8	9	12	13	13	14	16	17	18	19	19	20	21	21	21	21	20	20	20	19	18	18	18	16	14	12	10	9	10	10	10	10	10	10	11	11	11	11	12	13	15	18	20	22	24	25	26	27	28	29	30	30	30	31	31	31	31	30	30	30	30	29	29	28	27	26	24	20	17	15	14	13	13	12	12	11	11	10	10	9	9	8	9	10	11	11	11	12	12	12	12	12	12	13	13	13	13	13	13	14	14	15	15	15	16	16	15	15	16	16	17	17	18	19	22	25	27	29	32	34	36	37	37	36	35	33	32	31	34	37	40	43	45	46	48	49	51	52	53	52	53	54	58	61	64	66	67	68	68	69	70	71	72	75	77	81	84	87	90	91	92	93	94	94	95	95	95	95	95	95	91	86	86	86	87	88	87	87	87	87	87	87	88	87	85	84	86	86	86	86	86	85	83	82	80	79	78	76	74	72	70	69	67	66	64	62	61	60	59	58	57	56	55	54	53	53	54	56	58	61	63	65	66	67	68	69	70	71	71	71	71	70	69	67	65	63	62	60	59	58	57	56	56	56	55	55	54	54	53	52	51	48	47	45	45	44	44	43	41	40	38	38	37	37	36	36	35	35	35	34	34	33	33	31	30	28	26	24	21	18	16	15	15	15	15	14	14	13	12	12	12	11	12	11	11	11	10	10	10	10	8	7	7	7	7	7	7	7	7	7	6	7	9	11	11	12	12	12	13	15	17	18	20	23	24	25	25	25	25	25	26	27	28	28	29	28	28	27	26	25	23	20	17	14	9	5	4	4	4	4	4	4	4	5	5	5	4	4	3	3	3	3	3	3	3	3	3	3	3	3	4	4	4	4	4	5	5	5	5	4	4	4	4	4	4	4	4	3	3	2	2	1	1	1	1	1	1	2	3	5	6	6	6	6	6	6	6	6	6	6	6	6	6	6	6	6	6	6	6	6	6	6	6	6	5	5	5	5	5	5	5	5	11	18	22	25	27	30	32	33	34	35	36	36	37	38	40	41	41	39	37	34	31	27	24	20	15	10	6	4	3	2	1	1	1	1	1	1	0	0	0	0
121	120	120	120	119	117	114	112	113	115	118	122	126	129	131	134	135	136	137	139	140	141	142	142	140	137	133	129	125	121	117	114	109	105	101	102	103	106	108	109	110	110	109	109	109	109	110	110	110	109	109	108	106	103	100	97	94	91	87	84	80	77	76	75	74	72	70	67	65	66	69	72	74	74	73	73	72	71	69	68	67	66	65	64	62	60	58	57	56	55	54	53	52	52	52	52	53	55	58	60	61	62	64	65	65	66	67	68	69	69	69	68	67	66	65	64	62	61	59	57	55	52	48	44	39	37	37	37	37	37	37	35	34	36	40	43	44	46	47	48	48	49	50	52	54	54	55	54	54	53	53	53	53	53	53	53	53	53	53	53	53	53	53	53	53	53	53	53	53	53	53	53	53	53	53	53	53	53	53	52	52	52	51	51	51	51	50	50	50	50	49	49	50	50	51	52	54	55	55	54	52	50	49	47	45	43	42	41	40	39	38	37	36	35	34	33	32	31	29	28	25	22	18	15	14	14	14	15	15	14	14	14	13	13	14	14	14	14	14	14	14	14	14	14	14	14	14	14	14	14	14	15	15	15	14	14	13	14	14	14	14	14	14	14	14	13	13	13	13	13	13	13	13	13	13	13	13	13	13	13	13	13	12	12	12	12	12	12	12	12	12	12	13	12	13	14	16	20	23	26	30	34	38	42	47	51	55	58	60	62	65	67	69	70	71	71	72	72	71	71	70	70	67	65	63	63	62	59	55	52	49	46	45	44	44	43	43	43	44	44	44	44	44	44	44	43	43	42	41	41	40	38	37	36	34	32	31	29	28	27	26	25	25	24	24	24	24	23	23	22	22	21	20	20	18	16	13	12	11	10	9	8	8	8	8	8	8	8	8	9	10	11	12	13	14	17	19	20	22	23	24	25	24	23	23	23	22	22	21	20	19	19	18	16	14	11	10	10	10	10	10	10	11	11	11	12	12	12	13	16	19	21	23	24	25	26	27	29	30	31	32	33	33	33	33	32	32	31	31	30	30	29	28	27	26	23	20	17	15	14	14	13	12	12	11	11	10	10	9	8	8	9	11	11	12	12	12	12	12	12	13	13	12	13	13	13	13	14	14	14	15	15	16	16	16	16	16	16	16	17	17	18	19	21	24	26	29	31	33	35	37	38	37	36	35	33	32	35	38	42	45	47	50	51	53	55	56	56	56	56	58	61	64	67	69	71	72	73	74	75	75	75	76	78	80	83	86	89	91	92	93	94	94	95	95	95	95	95	94	89	86	86	87	88	88	88	88	87	87	87	87	88	87	85	84	85	86	86	86	86	84	83	81	80	78	76	74	72	70	69	67	66	65	63	62	60	59	58	57	56	55	54	53	52	52	53	55	57	59	61	63	64	65	66	68	69	69	70	70	69	69	67	66	64	62	61	59	57	56	55	54	54	53	53	53	52	52	51	50	48	46	44	43	42	42	42	41	40	38	37	36	36	36	35	35	34	34	34	34	33	33	32	31	30	28	26	24	21	18	16	15	15	14	14	14	13	13	12	12	11	11	11	10	10	9	9	9	9	9	8	7	7	7	7	7	7	7	7	7	7	8	11	14	14	15	15	15	15	16	17	19	21	23	25	25	25	25	25	25	26	27	28	29	29	29	28	27	26	25	22	19	16	13	8	5	4	4	4	4	4	4	4	5	5	4	4	4	3	3	3	3	3	3	3	3	3	3	3	3	3	3	3	3	3	3	3	3	3	3	3	3	3	3	3	2	2	2	2	1	1	1	1	1	1	1	1	1	2	4	5	6	6	6	6	6	6	6	6	6	6	6	6	6	6	6	6	6	6	5	5	6	6	6	5	5	5	5	5	5	5	5	7	15	21	24	27	29	30	32	32	32	33	34	34	35	37	40	41	39	37	35	32	29	25	21	17	13	8	5	4	3	2	2	1	1	1	1	0	0	0	0
123	122	122	122	121	119	115	114	115	118	122	125	128	131	134	137	138	140	141	142	144	145	145	143	140	138	134	129	125	121	117	113	109	105	103	105	107	109	111	113	114	114	113	112	112	112	113	113	113	113	112	110	107	104	100	97	94	91	87	84	81	79	79	79	77	75	73	70	68	69	72	75	77	77	76	75	74	73	71	70	69	68	66	65	63	61	60	58	58	57	56	55	53	53	53	53	55	57	60	62	64	65	66	67	68	68	69	70	71	71	71	70	69	68	67	66	64	63	61	59	57	54	51	46	42	38	37	37	37	38	37	36	34	37	41	44	47	48	49	50	50	51	52	53	55	56	56	55	55	54	54	53	53	53	53	53	53	53	53	53	53	53	53	53	53	53	53	53	53	53	53	53	53	53	53	53	53	53	53	52	52	52	52	52	52	52	52	52	52	52	51	51	52	52	53	54	55	55	56	54	52	50	49	47	45	43	42	41	40	39	38	37	36	35	34	33	32	31	30	28	26	22	19	15	14	14	15	15	15	14	14	14	14	14	14	14	14	14	14	14	14	14	15	14	14	14	14	14	15	15	15	15	15	15	14	13	14	14	14	14	14	14	14	14	14	13	13	13	13	13	13	13	13	13	13	13	13	13	13	13	12	13	13	12	12	12	12	12	12	12	13	12	13	12	12	13	16	19	22	26	29	33	37	42	46	51	55	57	60	62	64	67	69	70	70	71	71	71	70	70	70	68	65	62	62	63	62	59	56	53	50	48	46	45	45	45	45	46	46	47	47	47	46	46	46	46	45	44	43	42	41	40	39	37	35	33	32	30	29	28	27	26	26	26	25	26	26	25	25	24	24	23	23	22	21	19	15	12	12	11	10	9	9	8	8	8	9	9	9	10	11	12	12	13	15	18	21	23	24	26	27	27	26	26	25	25	24	24	23	22	21	20	19	18	16	13	11	10	10	10	11	11	11	11	11	12	12	12	14	17	19	21	23	25	26	27	29	30	31	32	34	34	35	35	34	34	33	32	31	31	30	29	28	27	26	23	20	17	15	14	13	13	13	12	12	11	11	10	9	8	9	10	11	12	12	12	12	12	12	13	13	13	13	13	13	13	14	14	14	15	15	15	16	16	16	16	17	17	17	17	17	18	18	20	23	26	28	31	33	35	37	38	38	37	36	34	33	36	39	43	46	50	52	54	56	58	59	60	60	60	61	64	67	70	72	74	75	76	77	78	78	78	79	80	81	83	86	89	91	92	93	94	94	95	95	95	95	95	93	88	85	86	87	87	88	88	88	88	88	87	87	88	87	85	84	85	86	86	86	86	84	83	81	79	78	76	74	72	70	68	66	65	64	62	61	60	59	58	57	56	55	54	53	52	51	52	54	56	57	59	61	62	63	64	65	67	68	68	68	68	67	66	65	63	61	60	58	56	55	53	52	52	51	51	51	51	50	50	49	47	45	43	41	40	40	39	39	38	36	35	35	35	35	34	34	34	33	33	33	32	32	31	30	29	28	27	24	20	17	15	14	14	14	14	14	13	13	12	12	11	11	11	10	10	10	9	9	9	9	8	8	7	7	7	7	7	7	7	7	7	10	13	15	15	15	15	15	15	15	17	19	21	23	25	25	25	25	25	25	26	27	28	29	29	29	28	27	26	24	22	19	16	11	7	5	4	4	3	3	4	4	4	4	4	4	4	4	3	3	3	3	3	3	3	3	3	3	3	3	3	3	3	3	3	3	3	3	2	2	2	2	2	2	2	2	1	1	1	1	1	1	1	1	1	1	1	1	1	3	4	5	6	6	6	6	6	6	6	6	6	6	6	6	6	6	6	6	6	5	5	5	6	6	5	5	5	5	5	5	5	4	5	10	18	23	26	28	29	29	30	30	30	31	32	33	35	38	40	40	38	36	33	30	26	22	19	15	11	7	5	4	3	2	2	1	1	1	1	0	0	0
126	127	127	126	123	120	117	116	118	121	124	128	130	133	136	140	142	144	145	146	147	148	146	144	141	139	135	130	125	121	117	113	109	106	106	109	110	112	114	117	117	117	116	115	114	114	114	115	116	115	114	111	108	104	101	97	94	91	87	85	83	82	83	82	81	79	76	73	71	72	75	78	80	79	78	77	75	74	73	71	70	69	67	65	64	62	61	60	59	59	58	56	54	54	54	55	56	58	61	63	65	66	67	69	70	71	71	72	73	73	74	73	72	71	70	68	66	64	63	61	59	56	53	50	45	41	37	37	37	37	37	36	35	37	41	44	47	50	51	51	52	53	54	55	56	57	58	58	57	56	56	55	54	54	53	53	53	53	53	53	53	53	53	53	53	53	53	53	53	53	53	53	53	53	53	53	53	53	53	53	53	53	54	54	55	56	56	56	56	56	55	55	55	56	56	56	56	56	56	54	52	50	48	46	44	43	42	41	40	39	37	36	35	34	33	33	32	31	30	29	26	22	19	15	14	14	15	14	14	15	14	14	14	14	14	14	14	14	14	14	14	14	15	15	15	14	14	15	15	15	15	15	15	14	13	13	14	14	14	14	14	14	14	14	14	13	13	13	13	13	13	13	13	13	13	13	13	13	13	13	13	13	13	13	13	13	13	13	13	13	13	13	13	13	13	13	15	18	21	25	29	33	37	41	46	50	54	57	59	61	64	66	68	69	70	70	70	70	70	69	69	67	63	62	62	63	62	60	57	54	52	50	48	48	48	48	48	49	49	49	49	49	48	48	48	48	47	46	45	44	43	42	40	38	36	34	32	31	30	29	28	28	27	27	27	27	27	27	27	27	26	25	25	24	23	21	18	14	12	12	11	11	10	10	10	10	10	11	11	11	12	12	12	13	16	19	21	23	25	27	27	27	27	27	28	27	27	26	25	24	23	22	20	19	17	15	13	11	11	11	11	11	11	11	11	12	12	12	14	17	19	21	24	25	27	28	30	31	32	34	35	36	37	36	36	35	34	33	32	31	31	30	28	27	26	23	20	17	15	14	13	13	13	13	12	11	11	10	9	9	10	11	12	12	12	12	12	13	13	13	13	13	13	13	14	14	14	14	15	15	15	15	16	17	17	18	18	18	17	17	18	18	19	21	23	26	28	31	33	36	38	39	39	38	37	35	34	36	40	43	47	51	54	56	58	60	62	63	64	64	65	67	69	72	74	76	77	79	80	80	80	81	81	82	82	84	86	89	91	92	93	93	94	95	95	95	95	95	91	87	85	85	86	86	87	87	87	87	88	88	88	88	87	84	83	85	86	86	86	86	85	83	81	80	78	76	74	72	69	67	65	64	63	62	60	59	59	58	57	56	55	53	52	51	51	51	53	54	56	57	59	60	61	62	63	65	66	66	67	67	66	65	64	62	61	59	57	55	54	52	51	50	49	49	49	48	48	48	47	45	43	41	39	38	37	37	36	35	35	34	34	33	33	33	33	32	32	32	31	31	31	30	29	28	27	26	22	18	15	15	14	14	14	14	14	13	12	12	11	11	11	11	10	10	10	9	9	9	9	8	8	7	7	7	7	7	7	7	8	9	12	14	15	15	15	15	15	15	15	17	19	21	23	24	25	25	25	25	25	26	27	28	28	28	28	27	27	26	24	21	18	15	10	6	5	4	4	3	3	3	4	4	4	4	4	4	3	3	3	3	3	3	3	3	3	3	3	3	3	3	3	3	3	3	2	2	2	2	2	2	2	1	1	1	1	1	1	1	1	1	1	1	1	1	1	1	1	1	2	3	4	5	6	6	6	6	6	6	6	6	6	6	6	6	6	6	6	6	6	5	5	6	6	5	5	5	5	5	5	5	5	5	6	13	20	24	26	27	27	27	27	27	28	30	31	33	36	39	39	38	36	34	31	27	24	21	17	13	9	7	5	4	3	2	2	1	1	1	0	0	0
133	133	133	131	127	122	119	118	121	124	127	130	133	136	139	143	146	148	150	151	151	150	148	145	142	140	137	131	125	121	117	114	110	110	110	112	114	116	118	120	120	120	119	117	116	116	117	118	118	117	115	113	109	105	101	97	94	90	88	86	85	85	86	85	84	82	79	76	74	76	78	81	82	81	80	78	77	75	74	72	71	69	68	66	65	64	63	62	61	61	59	57	56	55	56	57	58	60	62	64	66	67	69	71	72	73	73	74	75	75	76	75	75	73	72	70	68	66	65	63	61	59	55	52	49	44	39	37	37	37	37	37	36	37	40	44	47	50	52	52	53	54	56	57	58	59	60	60	60	59	58	58	57	56	55	54	54	53	53	53	53	53	53	53	53	53	53	53	53	53	53	53	53	53	54	54	54	54	54	55	55	56	57	58	59	60	60	61	61	61	61	60	60	59	59	58	58	57	56	54	52	49	48	46	44	43	42	41	40	38	37	36	35	34	33	32	32	31	30	28	26	22	18	15	14	14	15	14	14	15	14	14	14	14	14	14	14	14	14	14	14	14	15	15	15	15	15	15	15	15	15	15	15	14	13	14	14	14	14	14	14	14	14	14	13	13	13	13	13	13	13	13	13	13	13	13	13	13	13	13	13	12	13	13	13	13	13	13	13	13	13	13	13	13	13	13	14	16	20	24	28	32	37	41	45	49	53	56	58	60	63	65	67	69	69	70	70	69	69	69	68	66	63	62	62	63	63	61	59	56	54	52	51	51	51	51	51	51	51	51	51	51	50	50	50	49	49	48	47	46	45	43	41	39	37	35	33	32	31	30	30	29	28	28	29	29	29	29	29	29	28	28	27	26	24	22	19	15	13	12	12	12	12	12	12	12	12	12	12	12	13	13	13	14	16	18	21	23	25	26	27	27	28	28	29	29	28	27	26	26	24	23	21	20	18	16	14	12	11	11	11	11	11	11	12	12	12	13	14	17	19	22	24	26	27	29	30	32	33	35	36	38	38	38	37	36	35	34	33	32	31	30	29	27	26	23	20	17	14	13	13	12	13	12	12	12	11	10	9	9	11	12	12	12	12	13	13	13	13	13	13	14	14	14	14	14	14	15	15	15	15	16	17	19	19	20	20	20	19	18	18	18	19	21	23	26	28	31	34	36	38	39	40	39	38	36	35	37	40	43	47	52	56	58	60	62	64	66	67	67	68	70	72	74	76	77	79	80	82	83	83	83	83	83	84	85	87	89	91	91	92	92	93	95	95	95	95	94	90	85	85	85	86	86	86	85	86	86	86	87	88	88	87	84	83	84	86	86	86	86	85	84	82	81	79	78	75	73	69	67	65	63	62	61	59	59	58	57	56	55	54	53	52	50	50	50	51	52	54	55	57	58	59	60	61	62	63	64	65	65	65	64	62	61	59	58	56	55	53	51	49	48	47	47	46	46	46	46	45	44	42	39	37	36	35	34	34	33	32	32	32	32	32	31	31	31	30	30	30	30	30	29	28	27	26	23	18	15	14	14	14	14	14	14	13	13	12	12	11	11	11	10	10	10	10	9	9	9	9	9	8	8	7	7	7	8	8	8	9	10	13	15	15	15	15	15	15	15	15	17	18	20	22	23	24	25	25	25	25	26	27	27	27	27	27	27	26	25	23	20	17	13	9	5	4	4	4	3	3	3	3	3	3	3	3	3	3	3	3	3	3	3	3	3	3	3	3	3	3	3	3	3	3	2	2	1	1	1	1	1	1	1	1	1	1	1	1	1	1	1	1	1	1	1	1	1	1	1	2	2	3	4	5	6	6	6	6	6	6	6	6	6	6	6	6	6	6	6	6	5	5	5	5	5	5	5	5	5	5	5	5	5	5	8	15	20	23	25	25	25	25	25	26	28	30	33	35	37	39	38	37	35	32	29	25	22	19	15	11	8	6	5	4	3	2	2	1	1	0	0	0
137	137	137	135	131	126	122	122	124	127	130	133	136	139	143	147	150	152	153	154	153	152	149	146	144	141	138	132	126	121	118	115	114	114	114	116	118	121	123	123	123	122	121	120	119	119	121	122	120	118	116	113	110	106	102	98	94	90	88	88	88	88	89	88	87	85	83	80	78	79	81	84	85	83	82	80	79	77	76	74	73	71	70	68	66	65	64	64	63	62	60	58	57	57	58	59	60	61	64	66	68	69	70	72	74	75	76	76	77	77	78	78	77	76	74	72	70	68	67	65	63	61	57	54	51	47	42	38	37	37	37	37	36	38	40	43	46	50	52	53	54	56	57	59	60	61	62	62	62	62	61	61	60	59	58	56	55	54	54	54	54	54	54	53	53	54	54	54	54	54	54	54	54	54	55	55	56	56	57	58	58	59	60	61	62	63	64	64	64	64	64	64	63	62	61	60	59	57	55	53	51	49	47	45	43	42	41	40	39	38	36	35	34	33	32	32	31	30	29	28	25	22	18	15	14	15	15	15	14	14	15	14	14	14	14	14	14	14	14	14	14	14	15	15	15	15	15	15	15	15	15	15	14	13	14	14	14	14	14	14	14	14	14	14	13	13	13	13	13	13	13	13	13	13	13	13	13	13	13	12	12	12	13	13	13	13	13	13	13	13	13	13	13	13	13	13	13	14	18	23	28	32	36	40	45	49	52	55	57	60	62	64	66	68	68	68	69	69	69	68	68	65	63	62	62	62	63	63	61	58	57	55	55	54	54	54	54	54	54	54	54	53	53	52	52	51	50	50	49	48	46	44	42	40	38	36	34	32	32	31	31	30	30	30	30	31	31	31	31	31	31	30	29	27	26	23	20	17	14	12	12	12	12	12	13	13	13	13	13	13	14	14	14	15	16	18	20	22	24	25	27	28	28	29	30	29	29	28	27	26	25	23	22	20	18	17	15	13	11	11	11	11	11	11	12	12	12	13	15	17	19	22	24	26	28	29	31	32	34	35	37	39	39	39	38	37	36	35	34	33	31	30	29	27	26	23	20	16	14	13	13	12	12	12	12	11	11	10	9	10	11	12	12	12	13	13	13	13	14	14	14	14	14	15	15	15	15	15	16	17	17	19	20	22	22	23	23	23	22	21	20	20	20	22	24	26	29	32	35	37	39	40	40	40	39	37	36	38	41	44	48	52	56	59	61	64	66	67	69	70	71	73	74	76	77	79	80	82	84	85	86	85	85	85	86	87	88	90	91	90	89	88	89	94	95	95	95	93	88	84	85	85	86	86	86	85	85	85	85	85	85	85	85	83	83	84	85	86	86	86	86	85	83	82	80	79	76	73	70	67	65	63	61	60	58	57	57	56	55	55	54	53	51	50	49	49	49	51	52	53	55	56	57	58	59	60	61	62	63	63	63	62	60	59	58	57	55	54	52	50	48	46	45	45	44	44	44	43	43	41	40	38	36	34	33	32	32	31	30	30	30	30	30	30	30	30	30	30	29	29	28	28	27	26	24	20	16	15	14	14	14	14	13	13	13	12	12	11	11	11	10	10	10	10	10	9	9	9	9	9	8	8	8	8	8	8	8	8	9	11	13	14	15	15	15	15	15	15	15	16	18	20	21	22	23	24	24	25	25	26	26	26	26	26	26	26	25	24	22	19	16	11	7	5	4	4	3	3	3	3	3	3	3	3	3	3	3	3	3	3	3	3	3	3	3	3	3	3	3	3	3	3	3	2	1	1	1	1	1	1	1	1	1	1	1	1	1	1	1	1	1	1	1	1	1	1	1	1	1	2	2	3	4	5	6	6	6	6	6	6	6	6	6	6	6	6	6	6	6	6	5	5	5	5	5	5	5	5	5	5	5	5	5	5	10	16	21	23	23	24	24	24	25	26	29	32	34	36	38	38	37	35	33	30	27	24	21	17	13	9	8	6	5	4	3	2	2	1	0	0	0
138	139	139	138	134	129	125	125	127	130	133	136	139	142	146	150	153	155	156	156	155	153	150	148	145	142	139	133	127	122	119	118	117	118	119	120	123	125	126	126	125	124	123	123	123	124	124	123	121	118	116	113	110	106	102	98	94	91	91	92	92	92	92	91	90	88	86	84	82	83	84	87	88	87	85	84	82	80	79	77	76	74	73	70	68	66	64	64	64	63	62	59	58	58	60	61	61	63	66	69	71	71	72	73	75	77	78	79	79	80	80	80	79	78	76	74	72	70	68	66	65	62	59	56	53	50	45	40	37	37	37	37	38	39	41	43	46	49	52	54	56	58	59	61	62	63	64	64	64	64	64	63	63	62	61	59	58	57	56	55	55	54	54	54	54	54	54	54	54	54	55	55	56	56	57	58	58	59	60	61	61	62	63	64	64	64	65	65	65	64	64	65	64	63	62	61	60	58	55	53	51	48	46	44	42	41	40	39	38	37	35	34	33	32	31	31	30	30	29	27	24	21	17	15	14	15	15	15	15	14	14	15	14	14	14	14	15	14	14	14	15	15	15	15	15	15	15	15	15	15	15	14	14	14	14	14	14	14	14	14	14	14	14	13	13	13	13	13	13	13	13	13	13	13	13	13	13	13	13	13	13	13	13	14	14	14	14	14	14	14	14	14	14	14	14	14	13	14	17	22	27	32	36	40	44	48	52	55	57	59	61	63	64	65	65	66	66	67	67	67	67	66	64	62	62	62	63	63	62	61	60	59	58	58	58	58	58	58	58	57	57	56	56	55	54	53	53	52	50	49	47	46	44	42	40	37	35	33	32	32	32	31	31	31	32	32	33	33	33	33	32	32	31	29	27	24	21	18	15	13	12	12	13	13	13	14	14	14	14	14	15	15	15	16	16	17	19	21	23	25	27	28	29	29	30	29	29	28	27	26	25	23	22	20	18	17	15	13	11	11	11	11	11	12	12	12	12	13	15	17	19	22	25	27	28	30	31	33	35	36	38	39	40	39	38	37	36	35	34	33	32	30	29	27	25	23	19	16	14	14	13	12	12	12	12	11	10	9	10	11	12	12	13	13	13	13	14	14	14	14	14	15	15	15	16	16	16	17	18	20	21	22	24	25	25	25	25	25	24	23	22	22	22	23	24	27	29	32	35	38	39	40	40	40	39	38	38	40	43	46	49	53	56	59	61	64	66	68	70	72	74	75	76	77	78	80	81	83	85	86	87	87	87	88	88	89	89	90	90	89	88	86	85	87	91	94	95	92	86	84	84	86	86	86	86	86	86	86	85	85	84	84	84	83	83	83	85	86	86	86	86	85	84	83	81	79	77	74	70	67	65	63	61	59	58	56	56	55	55	55	55	53	52	50	49	48	48	49	50	52	53	54	55	56	57	58	59	60	61	61	61	60	58	57	56	55	54	52	50	49	47	45	43	43	42	42	41	41	40	39	38	36	34	33	32	31	30	30	29	28	28	29	29	29	30	30	29	29	28	28	27	26	25	23	21	17	15	14	15	14	14	13	13	12	12	12	11	11	11	11	10	10	10	10	10	9	9	9	9	9	9	8	8	8	8	8	9	9	9	11	12	13	14	15	15	15	15	15	15	16	18	19	20	21	22	22	23	24	24	25	25	25	25	25	25	24	23	22	20	17	14	10	6	4	4	3	3	3	3	3	3	3	3	3	3	3	3	3	3	3	3	3	3	3	3	3	3	3	3	3	3	3	3	2	2	1	1	1	1	1	1	1	1	1	1	1	1	1	1	1	1	1	1	1	1	1	1	1	1	1	1	2	3	4	6	6	6	6	6	6	6	6	6	6	6	6	6	6	6	6	5	5	5	5	5	5	5	5	5	5	5	5	5	5	7	12	17	21	22	23	23	24	24	26	28	31	34	36	37	37	37	35	33	30	27	25	22	18	14	11	10	8	6	4	3	2	2	1	0	0	0
140	141	141	139	136	132	127	127	130	133	136	138	141	145	148	152	155	157	158	158	156	154	151	149	145	142	139	135	128	124	121	120	121	121	123	125	127	128	129	128	127	126	125	125	126	127	126	124	122	118	116	113	109	106	102	98	96	94	95	95	95	95	95	94	93	91	89	88	86	87	88	91	92	90	88	87	85	84	82	81	79	77	75	73	70	67	65	65	64	64	62	60	59	60	61	62	63	65	68	72	74	75	75	76	77	78	80	81	82	82	82	83	82	80	78	76	74	72	70	68	66	63	60	57	55	51	48	43	40	39	39	39	39	41	42	44	45	48	52	54	56	58	60	62	64	64	65	65	65	65	65	65	65	64	63	62	61	59	58	57	56	56	55	54	54	54	55	55	55	56	56	57	58	59	60	60	61	62	62	63	64	64	64	64	64	65	64	64	64	64	64	65	64	63	61	60	59	57	55	53	50	48	46	44	42	41	39	38	37	35	34	33	32	31	30	30	30	29	28	26	23	20	17	15	14	15	15	15	15	14	14	14	15	14	14	14	15	14	14	14	14	15	15	15	15	15	16	16	15	15	14	14	14	14	14	15	15	14	14	14	14	14	14	13	14	14	14	14	13	13	13	13	13	13	13	13	13	13	14	14	14	14	14	14	14	14	14	14	14	14	14	14	14	14	14	14	14	14	17	22	27	32	36	40	44	47	51	54	56	58	60	62	62	61	61	62	62	63	63	64	65	65	65	63	62	62	62	63	63	63	62	62	61	61	61	61	61	61	61	61	60	59	59	58	57	56	55	54	52	50	49	47	45	43	41	38	36	34	33	32	32	32	33	33	34	34	35	35	35	35	34	33	32	30	28	25	22	19	16	14	13	12	13	13	14	15	15	15	15	15	15	16	16	17	17	18	18	20	22	24	26	28	29	29	30	29	28	28	27	26	25	23	22	20	18	17	15	13	11	11	11	11	12	12	12	12	12	13	15	17	19	22	25	27	28	30	32	33	35	36	38	39	40	40	38	37	36	35	34	33	32	30	29	27	25	22	19	16	14	14	13	12	12	12	11	11	10	10	11	12	12	13	13	13	13	14	14	14	14	15	15	15	16	16	17	17	18	19	21	23	24	25	26	27	27	27	27	27	26	25	24	24	24	24	26	27	30	33	36	38	39	40	40	40	40	39	39	41	44	47	49	52	55	58	61	64	67	69	71	73	75	76	77	78	79	81	82	84	85	87	88	88	89	89	89	89	89	90	90	89	88	86	85	85	85	86	89	89	84	84	85	86	86	86	86	86	86	86	86	86	86	86	85	85	85	84	85	86	86	86	86	86	85	83	82	80	77	74	70	67	65	63	61	60	58	56	55	55	55	55	55	54	52	51	49	48	47	47	48	50	51	52	53	54	55	56	57	58	59	59	59	58	56	55	54	52	51	50	48	47	45	43	42	41	40	39	39	38	37	36	35	34	33	32	31	31	30	30	29	28	28	28	29	29	29	29	28	28	27	26	25	23	22	20	18	15	15	15	14	14	14	13	12	12	11	11	11	10	10	10	10	10	10	10	9	9	9	9	9	9	9	8	8	8	8	9	9	9	10	11	12	13	14	14	15	15	15	15	15	16	17	18	19	20	20	21	22	22	23	23	23	24	24	23	23	22	21	20	18	16	13	8	5	4	4	3	3	3	3	3	3	3	3	3	3	3	3	3	3	3	3	3	3	3	3	3	3	3	3	3	3	3	3	2	2	1	1	1	1	1	1	1	1	1	1	1	1	1	1	1	1	1	1	1	1	1	1	1	1	1	1	1	2	4	5	6	6	6	6	6	6	6	6	6	6	6	6	6	6	6	6	5	5	5	5	5	5	5	5	5	5	5	5	5	5	8	12	18	21	21	22	23	24	26	28	31	33	35	37	37	36	35	32	30	27	25	22	19	16	13	11	10	7	4	3	2	2	1	0	0	0
143	144	143	141	138	134	131	131	134	136	138	141	144	147	150	154	156	158	159	159	157	155	152	149	146	143	140	136	131	126	124	123	124	125	127	129	130	131	131	131	130	129	128	128	128	129	128	125	122	119	116	112	109	105	102	99	98	98	98	98	98	98	98	98	96	95	92	91	91	91	92	94	95	93	92	90	89	87	86	84	82	80	78	76	73	70	67	65	64	64	63	61	60	61	63	64	66	68	71	75	78	79	79	79	80	80	82	83	84	85	85	85	84	81	79	77	75	73	71	69	67	64	61	59	56	53	50	46	43	42	42	41	41	42	43	44	46	48	51	54	57	59	62	64	65	65	66	66	66	66	65	65	65	65	65	64	63	62	60	59	58	57	56	56	56	56	56	57	58	58	59	60	60	61	62	63	63	64	64	64	64	65	65	64	64	64	64	64	64	65	64	64	63	61	60	59	57	56	54	52	50	47	45	43	41	40	38	37	35	34	32	31	30	30	29	28	28	28	26	24	22	19	16	15	15	15	15	15	15	14	14	14	14	15	15	15	14	14	15	14	14	15	15	15	15	16	16	16	15	14	13	14	14	15	15	14	14	15	14	14	14	14	14	14	14	15	15	14	14	13	13	13	13	14	14	14	14	14	15	15	15	15	14	14	14	14	14	14	14	14	14	14	14	14	14	14	14	14	17	22	27	32	36	40	43	47	50	53	55	58	60	60	60	58	58	58	58	58	58	59	61	63	63	63	62	62	62	62	63	63	63	64	64	63	63	63	63	63	63	63	63	62	61	61	60	59	57	56	54	52	50	48	46	44	42	39	37	35	34	33	33	34	34	35	36	36	37	37	37	36	36	35	34	32	30	27	23	19	16	14	13	13	13	14	15	15	16	16	17	17	16	17	17	18	18	18	18	20	22	25	27	28	29	29	30	29	28	28	27	26	24	23	21	20	18	17	15	12	11	11	11	11	12	12	12	12	13	13	15	17	19	21	24	26	28	30	31	33	34	36	37	39	40	40	39	37	36	35	34	33	32	31	29	27	25	23	20	17	15	14	13	12	11	11	10	10	10	11	12	12	13	13	13	13	14	14	14	15	15	15	15	16	17	17	18	19	20	21	23	25	26	27	28	28	29	29	29	29	28	27	26	26	26	26	27	29	31	34	37	38	39	40	41	41	40	40	41	43	46	48	50	52	55	58	61	64	67	69	72	74	76	77	78	79	80	82	83	85	86	88	89	89	89	89	89	89	89	90	90	90	89	87	85	85	85	85	84	85	83	83	85	86	86	86	86	86	86	86	86	86	86	86	86	86	86	85	85	86	86	86	86	86	86	84	82	80	78	75	71	67	65	64	62	60	59	57	56	55	55	55	55	54	52	51	50	48	47	46	47	48	49	50	51	51	52	53	55	56	57	57	57	56	54	53	51	49	47	47	46	45	43	41	40	39	38	37	36	36	35	34	33	33	32	31	31	31	31	30	29	29	29	29	29	29	29	28	27	26	25	24	22	19	17	16	15	15	14	15	14	14	14	13	12	11	11	11	10	10	10	10	10	10	10	9	9	9	9	9	9	9	9	9	8	8	9	9	9	9	9	10	11	12	13	14	14	14	15	15	15	16	16	17	18	19	19	20	20	21	21	21	22	22	22	22	21	20	20	18	17	14	11	7	5	4	4	3	3	3	3	3	3	3	3	3	3	3	3	3	3	3	3	3	3	3	3	3	3	3	3	3	3	3	3	2	2	1	1	1	1	1	1	1	1	1	1	1	1	1	1	1	1	1	1	1	1	1	1	1	1	1	1	1	2	4	6	6	6	6	6	6	6	6	6	6	6	6	6	6	6	6	6	5	5	5	5	5	5	5	5	5	5	5	5	5	5	5	7	13	19	21	22	23	24	26	28	31	33	35	37	37	36	34	32	29	27	25	22	19	16	14	12	10	7	4	3	2	2	1	0	0	0
145	146	144	142	139	137	135	135	137	139	141	143	146	149	152	155	158	160	161	160	158	155	153	150	146	143	140	136	132	129	127	127	129	130	132	133	134	134	134	134	134	133	132	131	131	131	129	126	122	119	116	112	109	107	105	103	102	102	102	102	102	102	102	101	100	98	96	95	95	95	96	98	98	97	95	94	92	91	89	87	85	82	80	78	75	72	69	66	65	64	63	61	61	63	64	66	69	71	74	77	81	82	83	83	84	84	85	85	86	87	88	87	85	83	80	78	75	73	71	69	67	65	62	60	57	54	51	48	45	44	44	43	44	45	46	47	48	50	52	54	57	61	63	65	66	66	66	66	66	66	66	66	66	66	66	65	65	64	62	61	60	59	58	58	58	58	59	59	60	61	62	62	63	63	64	64	64	64	65	65	64	64	64	64	64	64	64	64	64	64	64	63	61	59	58	56	54	53	52	50	48	47	45	42	40	38	37	36	34	33	31	30	29	28	27	27	27	26	24	22	20	18	15	15	15	15	15	15	15	14	14	14	14	14	14	14	14	14	14	14	15	15	15	15	16	16	16	16	14	13	14	14	15	14	14	14	14	15	15	14	14	14	14	14	14	15	15	15	14	14	13	14	14	15	15	15	14	15	15	15	15	15	15	14	14	15	15	15	15	15	15	14	14	14	14	14	14	14	17	22	27	32	36	40	43	46	49	52	55	57	58	58	57	56	55	54	54	54	54	55	57	59	60	61	62	62	62	62	63	63	64	64	64	64	64	64	64	64	64	64	64	64	64	63	62	61	60	58	56	54	52	49	47	45	42	40	38	37	35	35	35	36	36	37	38	38	39	39	39	38	37	36	35	34	32	28	23	19	17	16	15	15	15	15	15	16	17	18	18	18	17	17	18	18	18	18	18	20	23	25	27	28	29	30	30	29	28	27	26	25	24	22	21	20	18	17	15	12	11	11	11	12	12	12	12	13	13	14	15	17	18	21	24	26	28	29	31	32	33	35	37	38	40	40	39	38	37	36	34	33	33	31	29	27	26	25	22	19	15	14	13	12	11	10	10	10	11	12	12	13	12	12	13	13	14	14	15	15	15	15	16	17	17	18	19	20	21	23	24	26	27	28	29	30	30	30	30	30	30	29	28	28	28	28	29	30	32	35	37	39	40	41	41	41	40	40	43	46	48	49	51	53	55	58	61	64	67	70	72	75	77	78	79	80	81	83	84	86	87	88	89	90	90	89	89	89	89	89	90	90	91	90	89	87	86	85	84	83	83	83	82	81	83	84	85	86	86	86	86	86	86	86	86	86	86	86	86	86	86	86	86	86	85	83	82	80	78	75	72	69	66	65	63	61	60	58	57	56	55	55	55	54	53	51	50	49	47	46	46	46	46	47	48	49	50	51	52	53	54	55	55	54	52	50	48	46	45	44	43	42	41	39	38	36	36	35	34	34	33	32	32	32	32	31	31	32	32	32	31	31	31	30	29	29	28	27	26	25	24	22	19	16	15	15	15	14	15	15	15	14	14	13	12	12	11	11	11	10	10	10	9	9	9	9	9	9	9	9	9	9	9	9	9	9	9	9	9	9	10	10	11	12	12	13	13	14	14	14	14	15	15	16	17	17	18	19	19	20	20	20	20	20	20	20	19	19	18	17	15	13	9	6	4	4	4	3	3	3	3	3	3	3	3	3	3	3	3	3	3	3	3	3	3	3	3	3	3	3	3	3	3	3	3	2	2	1	1	1	1	1	1	1	1	1	1	1	1	1	1	1	1	1	1	1	1	1	1	1	1	1	1	1	2	4	5	6	6	6	6	6	6	6	6	6	6	6	6	6	6	6	6	5	5	5	5	5	5	5	5	5	5	5	5	5	5	5	5	9	16	20	22	23	24	26	28	31	33	35	37	37	35	33	31	29	26	24	21	19	16	14	12	9	6	4	3	2	2	1	1	0	0
148	148	145	143	140	138	137	138	139	141	143	146	148	151	154	157	159	161	162	160	158	155	153	150	147	143	140	137	134	132	131	132	134	135	136	137	137	137	137	137	137	136	135	134	134	132	129	126	122	119	116	114	112	111	110	108	107	106	106	105	105	105	105	104	103	101	99	99	99	100	100	101	101	100	98	97	96	94	92	89	87	85	84	81	78	74	71	68	66	65	63	62	63	64	66	69	72	75	77	80	84	86	87	87	87	88	89	89	89	90	90	89	87	84	81	79	76	74	72	69	67	65	63	60	57	55	52	49	45	45	45	46	47	49	50	51	52	53	54	56	59	62	64	66	66	67	67	67	67	67	67	67	66	66	66	66	65	65	64	63	62	61	60	60	60	61	61	62	63	63	64	64	64	64	64	65	65	64	64	64	64	64	64	64	64	64	64	64	64	63	62	60	59	57	56	54	52	50	50	48	46	45	43	40	38	37	36	34	33	32	31	29	28	27	26	25	24	23	22	20	18	16	15	15	15	15	15	15	15	14	14	14	15	14	14	14	14	14	14	14	15	15	15	15	16	16	16	16	14	13	14	15	15	14	14	14	14	14	14	14	15	15	14	14	15	15	15	15	15	15	14	14	14	15	15	15	14	15	15	15	15	15	14	14	15	15	14	14	14	14	15	15	14	14	14	14	14	14	16	21	27	31	36	39	43	46	49	51	54	56	56	56	55	54	52	51	50	50	51	52	54	56	57	59	61	62	63	63	63	64	64	64	64	64	65	65	65	65	64	65	65	66	65	65	64	63	62	60	58	56	53	51	48	45	43	41	39	38	37	37	37	37	38	39	39	40	41	41	41	40	39	38	36	35	32	29	24	19	17	17	16	16	16	16	16	17	18	19	20	20	19	19	18	18	18	18	19	21	23	25	27	29	30	30	30	29	28	27	26	24	23	22	20	19	18	17	14	12	11	11	12	12	12	12	13	13	13	14	15	17	18	20	23	25	27	28	30	31	33	34	36	38	39	40	39	38	37	36	35	34	33	32	30	29	27	26	25	21	16	14	12	11	11	10	11	11	12	13	13	13	13	13	13	13	14	14	15	15	16	16	17	17	18	18	20	21	22	24	25	27	28	30	31	32	32	32	32	32	32	31	30	30	30	30	31	32	34	36	38	39	40	41	41	41	41	42	45	48	50	51	52	54	56	58	61	64	67	70	73	75	77	79	80	81	82	84	85	87	88	88	89	89	89	89	89	89	89	89	89	90	91	91	91	91	90	87	84	82	82	82	79	76	77	77	78	80	81	83	85	86	86	86	86	86	86	86	86	86	86	86	86	85	83	81	80	79	77	75	73	70	68	66	64	62	60	59	57	56	56	55	55	54	53	52	50	49	47	46	45	44	45	45	46	47	47	48	50	51	52	52	52	52	50	49	47	45	43	41	40	39	38	37	35	34	34	33	33	33	32	32	32	32	32	31	32	33	33	33	33	33	33	32	30	28	27	26	25	24	22	20	18	16	15	15	14	14	15	15	15	15	14	14	13	12	12	12	11	11	11	10	10	10	9	9	9	9	9	9	10	10	10	10	10	10	9	9	9	9	10	10	11	11	12	12	13	13	13	14	14	14	15	15	15	16	17	17	18	18	18	18	19	19	18	18	18	17	16	15	13	11	8	6	4	4	3	3	3	3	3	3	3	3	3	3	3	3	3	3	3	3	3	3	3	3	3	3	3	3	3	3	3	3	2	2	1	1	1	1	1	1	1	1	1	1	1	1	1	1	1	1	1	1	1	1	1	1	1	1	1	1	1	1	2	4	5	5	6	6	6	6	6	6	6	6	6	6	6	6	6	6	6	5	5	5	5	5	5	5	5	5	5	5	5	5	5	5	5	6	12	19	22	23	24	27	29	31	33	35	36	36	35	33	30	28	26	23	21	18	16	14	11	8	5	3	2	2	1	1	1	0	0
151	149	146	143	141	139	140	141	142	144	146	148	150	153	156	158	161	163	162	160	157	155	153	150	147	144	141	139	137	136	136	136	138	139	139	140	140	140	140	140	139	139	138	137	136	133	130	126	123	120	119	118	117	116	115	113	112	111	109	108	108	108	108	107	105	103	102	103	104	104	105	105	105	104	102	100	99	96	94	92	90	89	86	83	80	76	73	70	68	65	64	63	65	67	69	72	75	78	81	84	87	89	91	91	91	92	92	93	93	93	93	91	88	86	83	81	78	75	73	70	68	65	63	60	58	55	52	49	46	46	47	49	51	53	54	56	56	56	57	59	61	64	66	66	67	67	68	68	68	67	67	67	67	67	66	66	66	66	65	64	63	63	62	62	62	63	63	64	64	64	64	64	64	65	64	64	64	64	64	64	64	64	64	64	64	64	64	64	64	62	61	59	58	56	55	53	51	49	48	46	44	43	40	38	36	35	35	33	32	32	30	29	27	26	24	23	22	21	20	18	16	15	15	15	15	15	15	15	15	14	15	15	14	14	15	14	14	14	14	15	15	15	15	16	16	16	16	16	15	14	14	15	15	15	14	14	14	14	14	14	14	14	14	14	14	15	15	15	15	15	15	14	15	15	15	14	14	14	14	15	15	15	14	15	15	15	15	15	15	14	14	14	15	14	14	14	14	14	16	21	26	31	35	38	42	45	48	51	53	54	55	54	53	51	49	47	47	47	48	50	52	54	56	58	60	62	63	63	63	64	64	65	65	65	65	65	65	65	65	66	67	67	67	66	66	65	63	62	60	58	55	52	49	46	44	42	41	40	39	39	39	39	40	40	41	42	43	43	42	42	41	39	37	35	33	29	24	20	18	17	17	17	17	17	17	18	20	22	23	22	21	20	19	18	18	19	20	21	23	26	28	29	30	30	30	29	28	27	25	24	22	21	20	18	17	16	13	11	11	12	12	12	12	13	13	13	14	14	16	17	18	20	22	24	26	28	29	31	32	34	35	37	39	39	39	38	37	36	35	34	34	33	31	30	29	28	26	23	17	14	13	12	12	12	12	13	13	13	13	13	13	13	13	13	14	14	15	16	16	17	17	17	18	19	20	22	23	25	26	28	29	31	32	33	34	34	34	34	33	33	33	32	32	32	33	34	35	37	38	39	40	41	41	42	44	46	50	52	53	54	55	56	57	59	62	64	67	70	72	75	77	79	80	81	83	85	87	88	88	88	88	88	88	88	89	89	89	89	90	90	91	91	91	92	91	87	84	82	82	81	78	77	77	77	77	76	76	77	78	80	81	83	84	85	86	86	86	86	86	86	85	83	81	80	78	77	76	75	73	70	68	66	64	62	61	59	57	56	56	56	55	54	53	52	50	48	47	46	45	44	44	44	44	45	45	46	47	48	49	49	50	49	49	47	45	43	41	39	37	36	36	34	33	33	33	33	33	33	32	32	32	32	32	32	32	33	34	34	34	34	34	33	31	29	27	26	25	24	23	21	19	18	17	16	15	15	15	15	15	15	15	14	14	13	13	12	12	12	11	11	11	10	10	10	10	10	10	10	10	10	11	11	11	10	10	10	9	9	10	10	10	11	11	12	12	12	13	13	13	13	14	14	14	15	15	16	16	16	16	17	17	17	17	16	16	15	14	13	11	9	7	5	4	4	3	3	3	3	3	3	3	3	3	3	3	3	3	3	3	3	3	3	3	3	3	3	3	3	3	3	3	3	2	1	1	1	1	1	1	1	1	1	1	1	1	1	1	1	1	1	1	1	1	1	1	1	1	1	1	1	1	1	1	3	4	5	6	6	6	6	6	6	6	6	6	6	6	6	6	6	6	6	5	5	5	5	5	5	5	5	5	5	5	5	5	5	5	6	10	17	21	23	25	27	29	31	33	35	36	36	34	32	30	27	25	23	20	18	16	13	10	6	3	2	2	1	1	1	1	0	0
152	150	147	144	141	140	142	144	145	147	148	150	153	156	158	160	162	164	162	160	158	155	153	151	148	145	143	141	140	140	139	140	141	142	142	142	142	142	142	142	142	141	140	139	137	134	131	127	124	122	122	122	121	120	119	118	116	114	112	111	111	111	111	109	107	105	105	106	108	109	109	109	109	107	105	103	101	99	97	95	94	92	89	85	82	79	75	72	69	67	65	65	67	70	73	76	78	81	84	87	90	93	94	95	95	96	96	96	96	96	95	93	90	88	85	82	80	77	74	71	68	66	63	60	57	55	52	50	49	50	51	53	54	56	58	59	60	60	61	62	64	66	67	68	68	68	68	68	68	68	68	68	67	67	67	67	66	66	66	65	65	64	64	64	64	64	64	64	64	65	64	64	64	64	64	64	64	64	64	64	64	64	64	64	64	64	64	64	64	62	61	60	59	58	56	54	52	50	47	45	42	41	38	36	35	35	34	33	32	32	30	29	27	26	25	24	22	20	18	17	15	15	15	15	15	15	15	15	14	14	15	14	14	14	14	15	14	14	15	15	15	15	15	16	16	16	16	16	15	14	14	14	15	15	15	15	15	15	15	15	15	15	14	14	14	15	15	15	15	15	15	14	15	15	15	15	14	15	15	15	15	14	15	15	15	15	15	15	15	15	14	14	14	15	15	15	14	14	15	20	25	30	34	37	41	44	46	49	51	53	53	51	49	47	45	44	44	45	46	48	51	53	55	57	59	62	63	63	64	64	64	65	65	66	66	66	66	66	67	68	69	69	68	68	67	66	65	64	62	60	57	54	50	47	45	44	42	41	41	41	41	41	41	42	43	44	45	45	44	43	42	40	38	36	33	30	26	22	19	18	17	17	17	17	18	21	23	25	25	25	24	23	21	20	20	20	21	22	24	26	28	29	30	30	30	29	27	26	25	23	21	20	19	18	16	14	12	11	12	12	12	12	13	13	13	13	14	15	16	17	18	19	21	24	25	27	28	30	32	33	35	36	38	39	39	38	37	36	36	35	34	33	32	31	30	28	27	24	18	14	13	12	13	13	13	13	13	14	14	14	14	14	14	14	14	15	15	16	16	17	18	18	19	20	21	23	24	26	27	29	30	32	34	35	36	36	36	36	35	35	35	34	34	34	35	35	36	37	38	39	41	41	41	42	46	50	53	55	56	56	57	58	59	61	63	65	67	70	73	75	76	78	80	82	84	86	88	88	88	87	87	87	87	88	88	89	89	90	90	91	91	91	91	91	89	85	82	82	81	80	77	77	77	77	77	77	77	77	76	76	76	77	77	77	79	81	83	85	86	86	85	82	80	78	77	76	75	73	72	70	68	66	64	62	60	59	57	56	56	56	55	54	53	51	50	48	47	45	44	44	43	43	43	44	44	44	45	45	46	47	47	47	47	45	43	41	39	37	35	34	34	33	33	33	33	33	33	33	33	33	33	32	32	32	33	34	35	35	36	35	35	34	32	30	28	27	25	25	24	23	22	21	20	19	18	17	15	15	15	15	15	14	14	14	13	13	13	12	12	11	11	11	10	10	10	11	11	11	11	11	11	11	11	11	11	11	10	10	10	10	10	10	11	11	12	12	12	12	12	13	13	12	12	13	14	14	15	15	15	15	15	15	15	14	14	13	12	11	9	8	6	5	4	4	3	3	3	3	3	3	3	3	3	3	3	3	3	3	3	3	3	3	3	3	3	3	3	3	3	3	3	2	1	1	1	1	1	1	1	1	1	1	1	1	1	1	1	1	1	1	1	1	1	1	1	1	1	1	1	1	1	1	1	2	4	5	5	6	6	6	6	6	6	6	6	6	6	6	6	6	6	6	5	5	5	5	5	5	5	5	5	5	5	5	5	5	5	6	10	16	21	23	24	26	28	30	32	34	35	35	34	31	29	27	24	22	19	17	15	12	8	4	2	1	1	1	1	1	1	0	0
