123	124	125	124	123	123	123	119	115	114	114	114	114	115	116	118	120	123	126	128	129	131	133	134	134	134	134	134	133	132	131	129	127	126	123	120	117	113	109	106	102	99	96	93	91	89	87	85	83	81	80	78	75	74	75	77	79	81	83	85	89	93	97	100	102	104	105	107	106	105	103	101	99	97	94	93	91	89	88	86	85	85	84	84	85	86	87	88	90	92	94	97	99	97	94	92	89	88	86	84	81	78	77	75	73	72	69	66	64	61	59	56	53	50	47	44	40	38	36	34	32	30	30	30	30	30	30	31	31	31	31	31	31	31	30	30	29	28	27	23	19	16	14	12	10	9	9	10	10	11	12	14	15	14	13	12	12	12	11	11	11	11	10	11	11	11	10	10	10	10	10	9	9	9	9	9	9	10	11	12	12	12	12	12	12	12	15	20	24	26	27	28	28	29	31	31	30	29	27	26	25	23	22	21	20	20	20	19	19	20	21	23	25	27	29	31	33	35	36	36	36	36	35	33	32	32	34	37	39	41	42	42	42	43	44	46	48	49	50	51	52	52	51	50	48	47	46	45	44	44	44	43	41	39	38	36	33	31	29	27	27	28	30	34	38	41	43	46	48	51	54	56	58	61	63	66	69	71	73	75	78	81	85	88	91	89	86	84	83	83	83	83	83	84	85	86	88	90	91	90	89	87	85	83	81	78	75	73	71	70	70	71	72	74	76	79	82	84	86	88	90	92	93	95	94	93	93	92	91	90	88	88	87	85	81	77	74	70	67	63	61	58	56	54	52	51	49	47	46	44	43	40	37	35	33	32	31	29	28	26	24	22	19	15	9	4	2	2	2	1	1	1	1	1	1	1	1	1	1	1	1	1	1	1	1	1	1	1	1	1	1	1	1	1	1	1	1	1	1	1	1	1	1	1	1	1	2	2	2	3	3	2	2	2	2	1	1	1	1	1	1	1	1	1	1	0	0	0	0	0	0	0	0	0	0	0	0	0	0	0	0	0	0	0	0	0	0	0	0	0	0	0	0	0	0	0	0	0	0	0	0	0	0	0	0	0	0	0	0	0	0	0	0	0	0	0	0	0	0	0	0	0	0	0	0	0	0	0	0	0	0	0	0	0	0	0	0	0	0	0	0	0	0	0	0	0	0	0	0	0	0	0	0	0	0	0	0	0	0	0	0	0	0	0	0	0	0	0	0	0	0	0	0	0	0	0	0	0	0	0	0	0	0	0	0	0	0	0	0	0	0	0	0	0	0	0	0	0	0	0	0	0	0	0	0	0	0	0	0	0	0	0	0	0	0	0	0	0	0	0	0	0	0	0	0	0	0	0	0	0	0	0	0	0	0	0	0	0	0	0	0	0	0	0	0	0	0	0	0	0	0	0	0	0	0	0	0	0	0	0	0	0	0	0	0	0	0	0	0	0	0	0	0	0	0	0	0	0	0	0	0	0	0	0	0	0	0	0	0	0	0	0	0	0	0	0	0	0	0	0	0	0	0	0	0	0	0	0	0	0	0	0	0	0	0	0	0	0	0	0	0	0	0	0	0	0	0	0	0	0	0	0	0	0	0	0	0	0	0	0	0	0	0	0	0	0	0	0	0	0	0	0	0	0	0	0	0	0	0	0	0	0	0	0	0	0	0	0	0	0	0	0	0	0	0	0	0	0	0	0	0	0	0	0	0	0	0	0	0	0	0	0	0	0	0	0	0	0	0	0	0	0	0	0	0	0	0	0	0	0	0	0	0	0	0	0	0	0	0	0	0	0	0	0	0	0	0	0	0	0	0	0	0	0	0	0	0	0	0	0	0	0	0	0	0	0	0	0	0	0	0	0	0	0	0	0	0	0	0	0	0	0	0	0	0	0	0	0	0	0	0	0	0	0	0	0	0	0	0	0	0	0	0	0	0	0	0	0	0	0	0	0	0	0	0	0	0	0	0	0	0	0	0	0	0	0	0	0	0	0	0	0	0	0	0	0	0	0	0	0	0	0	0	0	0	0	0	0	0	0	0	0	0	0	0	0	0	0	0	0	0	0	0	0	0	0	0	0	0	0	0	0	0	0	0	0	0	0	0	0	0	0	0	0	0	0	0	0	0	0	0	0	0	0	0	0	0	0	0	0	0	0	0	0	0	0	0	0	0	0	0	0	0	0	0	0	0	0	0	1	1	1	1	1	1	1	1	1	1	1	1	1	1	1	1	1	1	1	1	1	1	1	1	1	1	1	1	2	2	3	4	5	8	12	15	17	18	19	20	22
122	123	123	122	121	120	119	114	111	111	111	111	112	113	114	116	118	121	125	127	129	131	132	133	133	133	133	132	131	130	129	127	126	124	121	117	114	110	106	103	99	96	94	91	88	86	84	83	81	80	78	76	73	72	74	76	78	80	82	84	87	91	95	98	100	102	104	105	104	103	101	99	97	95	92	90	88	87	85	84	83	83	82	83	83	83	84	85	87	89	91	94	97	98	96	92	91	90	89	87	85	82	80	77	75	72	70	66	62	60	57	54	51	48	45	42	39	36	34	32	31	31	31	32	32	31	31	32	32	32	32	32	32	31	31	30	29	29	27	24	21	18	15	13	11	10	10	11	12	13	15	18	19	18	16	15	14	14	13	13	12	12	12	12	12	11	11	10	10	10	10	10	9	9	9	10	10	11	12	13	13	13	12	12	13	17	22	24	26	28	30	30	31	32	32	32	31	29	28	26	25	24	22	21	21	21	20	20	19	20	22	24	26	28	30	32	34	37	38	38	39	39	38	36	35	35	36	39	41	43	44	45	45	46	47	49	50	52	53	54	55	55	54	53	52	50	49	48	48	48	47	46	44	42	40	38	35	33	30	29	29	30	32	35	39	42	45	48	50	53	56	59	61	63	66	69	71	73	74	76	79	82	85	88	91	91	88	86	85	85	85	85	85	86	86	88	89	90	90	90	89	88	86	83	81	78	76	73	72	71	72	73	74	76	78	81	84	86	88	90	91	93	95	94	93	92	91	90	90	89	88	87	86	84	81	78	75	72	68	65	62	59	57	55	54	52	50	49	47	46	45	42	39	36	34	33	32	31	30	28	26	24	21	18	13	6	3	2	2	2	1	1	1	1	1	1	1	1	1	1	1	1	1	1	1	1	1	1	1	1	1	1	1	1	1	1	1	1	1	1	1	1	1	1	1	2	2	3	3	3	3	3	3	2	2	2	1	1	1	1	1	1	1	1	1	0	0	0	0	0	0	0	0	0	0	0	0	0	0	0	0	0	0	0	0	0	0	0	0	0	0	0	0	0	0	0	0	0	0	0	0	0	0	0	0	0	0	0	0	0	0	0	0	0	0	0	0	0	0	0	0	0	0	0	0	0	0	0	0	0	0	0	0	0	0	0	0	0	0	0	0	0	0	0	0	0	0	0	0	0	0	0	0	0	0	0	0	0	0	0	0	0	0	0	0	0	0	0	0	0	0	0	0	0	0	0	0	0	0	0	0	0	0	0	0	0	0	0	0	0	0	0	0	0	0	0	0	0	0	0	0	0	0	0	0	0	0	0	0	0	0	0	0	0	0	0	0	0	0	0	0	0	0	0	0	0	0	0	0	0	0	0	0	0	0	0	0	0	0	0	0	0	0	0	0	0	0	0	0	0	0	0	0	0	0	0	0	0	0	0	0	0	0	0	0	0	0	0	0	0	0	0	0	0	0	0	0	0	0	0	0	0	0	0	0	0	0	0	0	0	0	0	0	0	0	0	0	0	0	0	0	0	0	0	0	0	0	0	0	0	0	0	0	0	0	0	0	0	0	0	0	0	0	0	0	0	0	0	0	0	0	0	0	0	0	0	0	0	0	0	0	0	0	0	0	0	0	0	0	0	0	0	0	0	0	0	0	0	0	0	0	0	0	0	0	0	0	0	0	0	0	0	0	0	0	0	0	0	0	0	0	0	0	0	0	0	0	0	0	0	0	0	0	0	0	0	0	0	0	0	0	0	0	0	0	0	0	0	0	0	0	0	0	0	0	0	0	0	0	0	0	0	0	0	0	0	0	0	0	0	0	0	0	0	0	0	0	0	0	0	0	0	0	0	0	0	0	0	0	0	0	0	0	0	0	0	0	0	0	0	0	0	0	0	0	0	0	0	0	0	0	0	0	0	0	0	0	0	0	0	0	0	0	0	0	0	0	0	0	0	0	0	0	0	0	0	0	0	0	0	0	0	0	0	0	0	0	0	0	0	0	0	0	0	0	0	0	0	0	0	0	0	0	0	0	0	0	0	0	0	0	0	0	0	0	0	0	0	0	0	0	0	0	0	0	0	0	0	0	0	0	0	0	0	0	0	0	0	0	0	0	0	0	0	0	0	0	0	0	0	0	0	0	0	0	0	0	0	0	0	0	0	0	0	0	0	0	0	0	0	0	0	0	0	0	0	0	0	0	1	1	1	1	1	1	1	1	1	1	1	1	1	1	1	1	1	1	1	1	1	1	1	1	1	1	1	1	1	2	3	3	4	6	9	12	14	16	17	18	21
120	121	121	120	119	118	115	111	108	108	108	109	110	111	113	115	117	120	124	127	129	130	131	132	132	132	131	130	129	128	127	125	124	121	118	114	111	107	103	100	97	94	91	88	86	84	82	81	79	78	76	74	71	71	73	75	77	80	82	84	86	90	93	96	99	100	102	103	102	101	99	97	95	93	90	88	86	85	83	82	81	81	80	81	81	82	83	84	85	86	89	91	95	97	96	93	91	91	90	89	87	83	80	77	73	71	68	63	59	57	55	52	49	45	42	40	37	35	33	33	33	34	34	33	33	33	33	33	33	33	33	33	33	32	31	30	29	29	28	25	21	18	15	13	11	11	12	13	14	16	19	21	22	21	19	18	18	17	17	16	16	15	15	15	14	13	12	11	11	11	11	10	10	10	10	11	12	13	13	14	14	14	13	14	19	23	26	27	29	30	32	33	34	34	34	34	32	30	29	27	25	24	23	22	21	21	20	20	19	19	21	24	26	28	31	33	35	37	39	41	41	42	41	40	39	38	39	41	44	45	46	47	48	49	50	51	53	55	56	56	57	57	57	56	55	54	53	52	51	51	50	48	46	44	42	39	36	34	32	30	30	31	34	37	40	43	46	49	52	55	58	61	64	66	68	71	73	75	76	78	80	83	86	88	91	91	90	88	87	87	87	87	87	87	88	89	90	90	89	89	88	88	86	84	82	79	77	74	73	73	74	75	77	78	80	83	85	88	90	91	93	94	94	93	91	90	89	89	88	87	86	85	84	83	81	78	75	72	69	66	62	60	58	56	54	53	51	49	47	46	45	44	41	38	35	34	33	33	32	31	28	26	23	20	16	10	4	2	2	2	1	1	1	1	1	1	1	1	1	1	1	1	1	1	1	1	1	1	1	1	1	1	1	1	1	1	1	1	1	1	1	1	1	1	2	2	3	4	8	8	7	4	3	3	2	2	1	1	1	1	1	1	1	1	1	1	0	0	0	0	0	0	0	0	0	0	0	0	0	0	0	0	0	0	0	0	0	0	0	0	0	0	0	0	0	0	0	0	0	0	0	0	0	0	0	0	0	0	0	0	0	0	0	0	0	0	0	0	0	0	0	0	0	0	0	0	0	0	0	0	0	0	0	0	0	0	0	0	0	0	0	0	0	0	0	0	0	0	0	0	0	0	0	0	0	0	0	0	0	0	0	0	0	0	0	0	0	0	0	0	0	0	0	0	0	0	0	0	0	0	0	0	0	0	0	0	0	0	0	0	0	0	0	0	0	0	0	0	0	0	0	0	0	0	0	0	0	0	0	0	0	0	0	0	0	0	0	0	0	0	0	0	0	0	0	0	0	0	0	0	0	0	0	0	0	0	0	0	0	0	0	0	0	0	0	0	0	0	0	0	0	0	0	0	0	0	0	0	0	0	0	0	0	0	0	0	0	0	0	0	0	0	0	0	0	0	0	0	0	0	0	0	0	0	0	0	0	0	0	0	0	0	0	0	0	0	0	0	0	0	0	0	0	0	0	0	0	0	0	0	0	0	0	0	0	0	0	0	0	0	0	0	0	0	0	0	0	0	0	0	0	0	0	0	0	0	0	0	0	0	0	0	0	0	0	0	0	0	0	0	0	0	0	0	0	0	0	0	0	0	0	0	0	0	0	0	0	0	0	0	0	0	0	0	0	0	0	0	0	0	0	0	0	0	0	0	0	0	0	0	0	0	0	0	0	0	0	0	0	0	0	0	0	0	0	0	0	0	0	0	0	0	0	0	0	0	0	0	0	0	0	0	0	0	0	0	0	0	0	0	0	0	0	0	0	0	0	0	0	0	0	0	0	0	0	0	0	0	0	0	0	0	0	0	0	0	0	0	0	0	0	0	0	0	0	0	0	0	0	0	0	0	0	0	0	0	0	0	0	0	0	0	0	0	0	0	0	0	0	0	0	0	0	0	0	0	0	0	0	0	0	0	0	0	0	0	0	0	0	0	0	0	0	0	0	0	0	0	0	0	0	0	0	0	0	0	0	0	0	0	0	0	0	0	0	0	0	0	0	0	0	0	0	0	0	0	0	0	0	0	0	0	0	0	0	0	0	0	0	0	0	0	0	0	0	0	0	0	0	0	0	0	0	0	0	0	0	0	0	0	0	0	0	0	0	0	0	0	0	0	0	0	0	0	0	0	0	0	0	1	1	1	1	1	1	1	1	1	1	1	1	1	1	1	1	1	1	1	1	1	1	1	1	1	1	1	1	1	1	2	3	3	4	6	9	11	14	16	18	20
118	119	119	119	117	115	111	107	105	105	106	107	108	110	112	114	116	120	123	127	129	130	130	131	131	130	130	129	127	126	125	123	121	119	115	112	108	104	101	97	94	91	88	86	84	82	81	79	77	75	73	71	68	69	72	75	77	79	82	84	86	89	92	95	97	99	99	100	100	99	97	95	93	91	88	86	84	83	81	80	79	78	78	78	79	80	81	82	83	85	87	89	92	95	96	94	92	91	90	89	87	83	78	74	71	68	64	60	57	55	53	50	47	44	42	40	38	36	34	34	35	36	36	35	35	35	34	34	34	34	34	34	33	32	31	30	29	29	27	24	21	17	14	12	12	13	14	15	17	19	21	22	23	23	22	21	21	21	21	20	20	19	18	18	17	15	13	12	12	12	12	11	11	11	11	12	13	13	14	14	15	15	15	18	23	26	28	29	31	33	35	36	36	36	36	35	34	32	30	27	25	24	23	22	21	21	20	20	19	19	21	23	26	28	31	33	35	38	41	43	44	44	43	43	42	41	41	43	46	47	48	49	50	51	53	54	56	57	58	59	59	60	59	59	59	58	57	56	55	54	52	50	48	46	43	40	38	35	33	32	32	34	36	38	41	44	47	50	53	56	60	63	66	69	71	73	75	76	78	79	82	85	87	89	90	91	90	89	88	87	86	86	87	87	88	89	89	89	89	88	88	88	87	85	83	80	78	76	76	76	77	78	80	81	83	85	87	89	91	93	94	94	93	91	90	89	88	87	86	85	84	83	82	81	80	77	75	72	69	66	63	60	59	57	55	53	51	49	48	47	46	44	42	39	37	35	34	34	33	32	30	27	25	22	19	13	7	3	2	2	1	1	1	1	1	1	1	1	1	1	1	1	1	1	1	1	1	1	1	1	1	1	1	1	1	1	1	1	1	1	1	1	1	2	2	3	5	10	14	14	12	8	3	2	2	2	1	1	1	1	1	1	1	1	1	1	0	0	0	0	0	0	0	0	0	0	0	0	0	0	0	0	0	0	0	0	0	0	0	0	0	0	0	0	0	0	0	0	0	0	0	0	0	0	0	0	0	0	0	0	0	0	0	0	0	0	0	0	0	0	0	0	0	0	0	0	0	0	0	0	0	0	0	0	0	0	0	0	0	0	0	0	0	0	0	0	0	0	0	0	0	0	0	0	0	0	0	0	0	0	0	0	0	0	0	0	0	0	0	0	0	0	0	0	0	0	0	0	0	0	0	0	0	0	0	0	0	0	0	0	0	0	0	0	0	0	0	0	0	0	0	0	0	0	0	0	0	0	0	0	0	0	0	0	0	0	0	0	0	0	0	0	0	0	0	0	0	0	0	0	0	0	0	0	0	0	0	0	0	0	0	0	0	0	0	0	0	0	0	0	0	0	0	0	0	0	0	0	0	0	0	0	0	0	0	0	0	0	0	0	0	0	0	0	0	0	0	0	0	0	0	0	0	0	0	0	0	0	0	0	0	0	0	0	0	0	0	0	0	0	0	0	0	0	0	0	0	0	0	0	0	0	0	0	0	0	0	0	0	0	0	0	0	0	0	0	0	0	0	0	0	0	0	0	0	0	0	0	0	0	0	0	0	0	0	0	0	0	0	0	0	0	0	0	0	0	0	0	0	0	0	0	0	0	0	0	0	0	0	0	0	0	0	0	0	0	0	0	0	0	0	0	0	0	0	0	0	0	0	0	0	0	0	0	0	0	0	0	0	0	0	0	0	0	0	0	0	0	0	0	0	0	0	0	0	0	0	0	0	0	0	0	0	0	0	0	0	0	0	0	0	0	0	0	0	0	0	0	0	0	0	0	0	0	0	0	0	0	0	0	0	0	0	0	0	0	0	0	0	0	0	0	0	0	0	0	0	0	0	0	0	0	0	0	0	0	0	0	0	0	0	0	0	0	0	0	0	0	0	0	0	0	0	0	0	0	0	0	0	0	0	0	0	0	0	0	0	0	0	0	0	0	0	0	0	0	0	0	0	0	0	0	0	0	0	0	0	0	0	0	0	0	0	0	0	0	0	0	0	0	0	0	0	0	0	0	0	0	0	0	0	0	0	0	0	0	0	0	0	0	0	0	0	0	0	0	0	0	0	0	0	0	0	0	0	0	0	0	0	0	0	0	0	0	0	0	0	0	0	0	0	0	0	0	0	0	0	0	0	1	1	1	1	1	1	1	1	1	1	1	1	1	1	1	1	1	1	1	1	1	1	1	1	1	1	1	1	1	1	2	2	3	3	4	6	9	13	16	18	20
117	117	117	116	115	111	107	104	103	103	103	105	107	109	111	114	116	119	123	127	128	129	129	130	130	129	128	127	126	124	123	121	119	116	112	109	105	102	98	95	92	89	86	84	82	81	79	77	75	72	70	68	66	68	71	74	76	79	81	84	86	89	91	93	95	97	97	97	97	96	95	93	91	89	86	84	82	81	80	78	77	76	76	76	77	78	79	81	82	83	85	87	90	93	95	95	93	91	90	88	85	81	76	72	68	65	62	58	56	53	51	49	47	45	43	41	40	39	37	37	37	38	38	37	37	36	36	35	36	35	35	34	32	31	30	30	29	29	27	23	20	16	13	12	14	15	16	18	20	21	22	23	24	25	24	24	25	25	24	24	24	23	22	21	19	17	15	13	13	13	13	12	12	12	12	13	14	14	14	15	15	15	16	21	25	27	30	32	34	36	37	38	38	38	37	37	36	34	31	28	25	24	23	22	22	21	21	20	20	19	20	22	25	28	30	33	35	38	41	44	45	45	45	45	44	43	43	45	48	50	51	51	52	54	55	57	59	60	61	62	62	63	63	63	63	63	61	60	59	57	54	52	49	47	44	42	39	37	35	34	33	35	38	40	42	44	47	50	54	57	62	66	69	71	73	75	76	78	79	81	83	85	87	88	90	90	89	88	86	84	84	84	84	85	86	87	88	89	89	89	89	89	88	86	84	81	79	79	79	80	80	81	83	84	86	87	89	90	92	94	95	94	92	90	88	87	86	85	84	83	82	81	80	79	78	77	74	72	69	66	63	60	59	57	55	53	51	50	48	47	46	44	42	39	37	36	35	34	33	33	31	29	26	23	20	16	12	7	4	3	2	1	1	1	1	1	1	1	1	1	1	1	1	1	1	1	1	1	1	1	1	1	1	1	1	1	1	1	1	1	1	1	2	2	3	4	9	14	15	16	15	10	5	2	2	2	2	1	1	1	1	1	1	1	1	1	0	0	0	0	0	0	0	0	0	0	0	0	0	0	0	0	0	0	0	0	0	0	0	0	0	0	0	0	0	0	0	0	0	0	0	0	0	0	0	0	0	0	0	0	0	0	0	0	0	0	0	0	0	0	0	0	0	0	0	0	0	0	0	0	0	0	0	0	0	0	0	0	0	0	0	0	0	0	0	0	0	0	0	0	0	0	0	0	0	0	0	0	0	0	0	0	0	0	0	0	0	0	0	0	0	0	0	0	0	0	0	0	0	0	0	0	0	0	0	0	0	0	0	0	0	0	0	0	0	0	0	0	0	0	0	0	0	0	0	0	0	0	0	0	0	0	0	0	0	0	0	0	0	0	0	0	0	0	0	0	0	0	0	0	0	0	0	0	0	0	0	0	0	0	0	0	0	0	0	0	0	0	0	0	0	0	0	0	0	0	0	0	0	0	0	0	0	0	0	0	0	0	0	0	0	0	0	0	0	0	0	0	0	0	0	0	0	0	0	0	0	0	0	0	0	0	0	0	0	0	0	0	0	0	0	0	0	0	0	0	0	0	0	0	0	0	0	0	0	0	0	0	0	0	0	0	0	0	0	0	0	0	0	0	0	0	0	0	0	0	0	0	0	0	0	0	0	0	0	0	0	0	0	0	0	0	0	0	0	0	0	0	0	0	0	0	0	0	0	0	0	0	0	0	0	0	0	0	0	0	0	0	0	0	0	0	0	0	0	0	0	0	0	0	0	0	0	0	0	0	0	0	0	0	0	0	0	0	0	0	0	0	0	0	0	0	0	0	0	0	0	0	0	0	0	0	0	0	0	0	0	0	0	0	0	0	0	0	0	0	0	0	0	0	0	0	0	0	0	0	0	0	0	0	0	0	0	0	0	0	0	0	0	0	0	0	0	0	0	0	0	0	0	0	0	0	0	0	0	0	0	0	0	0	0	0	0	0	0	0	0	0	0	0	0	0	0	0	0	0	0	0	0	0	0	0	0	0	0	0	0	0	0	0	0	0	0	0	0	0	0	0	0	0	0	0	0	0	0	0	0	0	0	0	0	0	0	0	0	0	0	0	0	0	0	0	0	0	0	0	0	0	0	0	0	0	0	0	0	0	0	0	0	0	0	0	0	0	0	0	0	0	0	0	0	0	0	0	0	0	0	0	0	0	0	0	0	0	0	0	0	0	0	0	0	0	0	0	0	0	0	0	0	1	1	1	1	1	1	1	1	1	1	1	1	1	1	1	1	1	1	1	1	1	1	1	1	1	1	1	1	1	1	1	2	2	3	3	4	7	12	16	18	21
115	115	115	114	112	108	105	103	101	101	101	103	105	108	111	113	116	119	123	126	128	128	129	129	129	128	127	125	124	123	122	119	116	113	110	106	103	99	96	93	90	87	84	82	81	79	77	75	72	69	66	64	64	66	69	72	75	78	81	84	86	88	90	92	93	95	95	95	94	93	92	91	89	86	84	82	81	79	78	76	75	74	74	74	75	76	78	79	81	82	84	86	88	91	94	96	95	92	90	88	84	80	75	71	68	65	62	59	56	53	51	49	48	47	45	43	43	41	40	39	40	40	40	39	38	38	37	37	37	36	34	33	32	31	30	29	29	28	25	21	18	14	12	13	15	16	18	20	21	22	23	24	25	26	27	27	27	27	27	27	27	26	25	23	21	19	17	15	13	13	13	13	13	13	13	14	14	14	15	15	15	15	19	25	27	29	32	34	36	38	39	39	39	39	39	38	37	35	33	29	26	24	24	23	22	21	21	20	20	19	20	22	24	27	29	32	35	38	41	43	46	47	47	46	46	46	46	47	50	52	53	54	54	56	58	60	62	64	65	66	66	67	68	68	68	67	66	65	63	60	56	53	51	48	45	43	41	39	37	35	35	37	39	41	43	45	48	51	55	59	63	68	71	74	75	76	78	79	80	80	81	82	84	86	87	88	87	86	84	82	81	81	82	83	84	86	87	88	89	90	90	89	88	87	85	82	81	81	82	83	83	84	85	87	88	89	91	92	94	95	94	92	91	89	87	85	84	83	82	81	80	79	78	77	76	75	73	71	68	65	62	60	58	57	55	53	51	49	48	47	45	44	42	39	38	37	36	35	34	33	32	30	27	24	22	19	16	12	9	6	4	2	1	1	1	1	1	1	1	1	1	1	1	1	1	1	1	1	1	1	1	1	1	1	1	1	1	1	1	1	1	2	2	3	3	8	13	16	17	19	17	12	7	3	2	2	2	1	1	1	1	1	1	1	1	1	0	0	0	0	0	0	0	0	0	0	0	0	0	0	0	0	0	0	0	0	0	0	0	0	0	0	0	0	0	0	0	0	0	0	0	0	0	0	0	0	0	0	0	0	0	0	0	0	0	0	0	0	0	0	0	0	0	0	0	0	0	0	0	0	0	0	0	0	0	0	0	0	0	0	0	0	0	0	0	0	0	0	0	0	0	0	0	0	0	0	0	0	0	0	0	0	0	0	0	0	0	0	0	0	0	0	0	0	0	0	0	0	0	0	0	0	0	0	0	0	0	0	0	0	0	0	0	0	0	0	0	0	0	0	0	0	0	0	0	0	0	0	0	0	0	0	0	0	0	0	0	0	0	0	0	0	0	0	0	0	0	0	0	0	0	0	0	0	0	0	0	0	0	0	0	0	0	0	0	0	0	0	0	0	0	0	0	0	0	0	0	0	0	0	0	0	0	0	0	0	0	0	0	0	0	0	0	0	0	0	0	0	0	0	0	0	0	0	0	0	0	0	0	0	0	0	0	0	0	0	0	0	0	0	0	0	0	0	0	0	0	0	0	0	0	0	0	0	0	0	0	0	0	0	0	0	0	0	0	0	0	0	0	0	0	0	0	0	0	0	0	0	0	0	0	0	0	0	0	0	0	0	0	0	0	0	0	0	0	0	0	0	0	0	0	0	0	0	0	0	0	0	0	0	0	0	0	0	0	0	0	0	0	0	0	0	0	0	0	0	0	0	0	0	0	0	0	0	0	0	0	0	0	0	0	0	0	0	0	0	0	0	0	0	0	0	0	0	0	0	0	0	0	0	0	0	0	0	0	0	0	0	0	0	0	0	0	0	0	0	0	0	0	0	0	0	0	0	0	0	0	0	0	0	0	0	0	0	0	0	0	0	0	0	0	0	0	0	0	0	0	0	0	0	0	0	0	0	0	0	0	0	0	0	0	0	0	0	0	0	0	0	0	0	0	0	0	0	0	0	0	0	0	0	0	0	0	0	0	0	0	0	0	0	0	0	0	0	0	0	0	0	0	0	0	0	0	0	0	0	0	0	0	0	0	0	0	0	0	0	0	0	0	0	0	0	0	0	0	0	0	0	0	0	0	0	0	0	0	0	0	0	0	0	0	0	0	0	0	0	0	0	0	0	0	0	0	0	0	0	0	0	0	0	0	0	0	0	0	0	0	0	0	0	0	0	0	0	0	0	0	0	0	1	1	1	1	1	1	1	1	1	1	1	1	1	1	1	1	1	1	1	1	1	1	1	1	1	1	1	1	1	1	1	1	2	3	3	4	6	11	16	19	21
113	113	113	112	110	106	103	101	100	99	99	101	104	107	110	113	116	119	122	125	127	128	128	128	127	126	124	123	122	121	120	117	114	111	107	104	100	97	94	91	88	85	83	81	79	77	75	72	69	66	63	62	62	65	68	70	74	77	80	83	86	88	90	91	93	94	94	93	92	91	90	89	87	85	82	81	79	77	76	74	73	72	72	73	73	75	76	78	79	81	83	84	86	89	92	94	95	93	91	88	83	79	76	72	70	68	64	60	56	54	51	49	48	48	47	46	45	44	43	42	42	42	43	42	41	40	39	38	37	35	33	32	31	30	29	29	28	26	23	19	15	13	14	15	17	18	19	21	22	23	24	25	26	27	28	29	30	30	30	30	28	27	26	25	23	20	17	15	13	13	14	14	13	13	14	14	14	15	15	15	14	18	24	27	29	31	34	36	38	39	40	40	40	41	40	39	38	36	34	30	26	25	24	24	23	22	21	21	20	19	20	22	24	26	29	31	34	37	40	43	46	48	49	49	49	49	49	50	52	54	55	56	57	59	62	64	66	68	69	70	71	72	73	73	73	72	71	69	67	63	58	55	52	49	47	45	43	41	39	37	36	38	40	42	44	46	49	52	56	60	65	70	73	75	76	78	79	79	79	78	78	80	82	83	85	86	86	84	82	80	79	79	80	81	83	84	86	88	89	90	90	90	89	87	85	84	83	84	85	86	86	87	88	89	90	91	92	94	95	95	94	91	89	87	85	83	82	81	80	78	77	77	76	75	74	73	72	69	67	64	61	59	58	56	54	52	49	48	46	45	44	43	41	40	38	37	36	35	34	33	32	31	28	25	23	21	19	16	12	10	7	4	2	2	2	1	1	1	1	1	1	1	1	1	1	1	1	1	1	1	1	1	1	1	1	1	1	1	1	1	2	2	3	3	6	12	17	18	20	21	18	14	9	4	3	2	2	1	1	1	1	1	1	1	1	1	1	0	0	0	0	0	0	0	0	0	0	0	0	0	0	0	0	0	0	0	0	0	0	0	0	0	0	0	0	0	0	0	0	0	0	0	0	0	0	0	0	0	0	0	0	0	0	0	0	0	0	0	0	0	0	0	0	0	0	0	0	0	0	0	0	0	0	0	0	0	0	0	0	0	0	0	0	0	0	0	0	0	0	0	0	0	0	0	0	0	0	0	0	0	0	0	0	0	0	0	0	0	0	0	0	0	0	0	0	0	0	0	0	0	0	0	0	0	0	0	0	0	0	0	0	0	0	0	0	0	0	0	0	0	0	0	0	0	0	0	0	0	0	0	0	0	0	0	0	0	0	0	0	0	0	0	0	0	0	0	0	0	0	0	0	0	0	0	0	0	0	0	0	0	0	0	0	0	0	0	0	0	0	0	0	0	0	0	0	0	0	0	0	0	0	0	0	0	0	0	0	0	0	0	0	0	0	0	0	0	0	0	0	0	0	0	0	0	0	0	0	0	0	0	0	0	0	0	0	0	0	0	0	0	0	0	0	0	0	0	0	0	0	0	0	0	0	0	0	0	0	0	0	0	0	0	0	0	0	0	0	0	0	0	0	0	0	0	0	0	0	0	0	0	0	0	0	0	0	0	0	0	0	0	0	0	0	0	0	0	0	0	0	0	0	0	0	0	0	0	0	0	0	0	0	0	0	0	0	0	0	0	0	0	0	0	0	0	0	0	0	0	0	0	0	0	0	0	0	0	0	0	0	0	0	0	0	0	0	0	0	0	0	0	0	0	0	0	0	0	0	0	0	0	0	0	0	0	0	0	0	0	0	0	0	0	0	0	0	0	0	0	0	0	0	0	0	0	0	0	0	0	0	0	0	0	0	0	0	0	0	0	0	0	0	0	0	0	0	0	0	0	0	0	0	0	0	0	0	0	0	0	0	0	0	0	0	0	0	0	0	0	0	0	0	0	0	0	0	0	0	0	0	0	0	0	0	0	0	0	0	0	0	0	0	0	0	0	0	0	0	0	0	0	0	0	0	0	0	0	0	0	0	0	0	0	0	0	0	0	0	0	0	0	0	0	0	0	0	0	0	0	0	0	0	0	0	0	0	0	0	0	0	0	0	0	0	0	0	0	0	0	0	0	0	0	0	0	0	0	0	0	0	0	0	0	0	0	0	0	0	0	0	0	0	0	0	0	0	0	0	0	0	1	1	1	1	1	1	1	1	1	1	1	1	1	1	1	1	1	1	1	1	1	1	1	1	1	1	1	1	1	1	1	1	2	2	3	4	6	10	15	18	20
111	111	111	110	108	105	102	99	98	98	98	99	102	106	110	113	116	118	121	124	126	127	127	126	125	123	122	120	120	119	117	114	111	108	105	102	98	95	92	89	86	84	81	79	77	75	73	70	66	63	61	61	61	63	66	69	73	76	80	84	87	88	90	92	93	94	93	92	91	90	88	87	85	83	81	79	77	75	73	72	71	70	70	71	72	73	75	77	78	80	81	83	85	87	90	93	94	93	91	88	84	80	77	75	72	70	67	62	57	55	53	51	50	49	48	48	47	47	46	45	44	45	45	44	43	41	40	37	35	34	32	31	30	29	28	27	25	23	20	17	14	14	15	16	18	19	21	22	23	24	25	26	27	29	30	31	32	32	32	31	29	28	27	25	23	20	17	15	14	14	14	14	14	14	14	15	15	15	15	15	16	23	27	29	31	33	36	38	40	41	42	42	42	42	42	40	39	37	34	31	29	26	25	24	23	22	21	21	20	19	20	22	25	27	29	31	33	35	38	41	45	48	51	52	52	52	52	52	54	56	58	59	60	62	65	67	69	71	73	74	75	76	77	78	77	77	75	73	70	65	60	56	53	50	48	46	44	42	40	38	37	39	40	42	44	46	49	53	57	61	66	70	74	75	77	78	78	78	77	76	76	78	80	81	83	83	84	82	80	79	78	78	78	80	82	83	85	87	89	91	91	90	89	88	87	85	85	86	87	88	89	90	91	92	92	93	94	95	96	95	93	91	88	86	84	82	80	79	78	76	75	75	74	73	72	71	69	67	65	63	60	58	57	54	52	49	47	46	44	43	42	41	41	39	38	37	36	35	34	33	32	31	29	27	24	22	20	18	16	13	10	6	3	2	2	2	2	2	2	2	2	2	2	2	2	1	1	1	1	1	1	1	1	1	1	1	1	1	2	2	2	3	4	6	11	16	18	21	23	24	21	16	11	6	3	2	2	1	1	1	1	1	1	1	1	1	1	0	0	0	0	0	0	0	0	0	0	0	0	0	0	0	0	0	0	0	0	0	0	0	0	0	0	0	0	0	0	0	0	0	0	0	0	0	0	0	0	0	0	0	0	0	0	0	0	0	0	0	0	0	0	0	0	0	0	0	0	0	0	0	0	0	0	0	0	0	0	0	0	0	0	0	1	1	1	1	0	0	0	0	0	0	0	0	0	0	0	0	0	0	0	0	0	0	0	0	0	0	0	0	0	0	0	0	0	0	0	0	0	0	0	0	0	0	0	0	0	0	0	0	0	0	0	0	0	0	0	0	0	0	0	0	0	0	0	0	0	0	0	0	0	0	0	0	0	0	0	0	0	0	0	0	0	0	0	0	0	0	0	0	0	0	0	0	0	0	0	0	0	0	0	0	0	0	0	0	0	0	0	0	0	0	0	0	0	0	0	0	0	0	0	0	0	0	0	0	0	0	0	0	0	0	0	0	0	0	0	0	0	0	0	0	0	0	0	0	0	0	0	0	0	0	0	0	0	0	0	0	0	0	0	0	0	0	0	0	0	0	0	0	0	0	0	0	0	0	0	0	0	0	0	0	0	0	0	0	0	0	0	0	0	0	0	0	0	0	0	0	0	0	0	0	0	0	0	0	0	0	0	0	0	0	0	0	0	0	0	0	0	0	0	0	0	0	0	0	0	0	0	0	0	0	0	0	0	0	0	0	0	0	0	0	0	0	0	0	0	0	0	0	0	0	0	0	0	0	0	0	0	0	0	0	0	0	0	0	0	0	0	0	0	0	0	0	0	0	0	0	0	0	0	0	0	0	0	0	0	0	0	0	0	0	0	0	0	0	0	0	0	0	0	0	0	0	0	0	0	0	0	0	0	0	0	0	0	0	0	0	0	0	0	0	0	0	0	0	0	0	0	0	0	0	0	0	0	0	0	0	0	0	0	0	0	0	0	0	0	0	0	0	0	0	0	0	0	0	0	0	0	0	0	0	0	0	0	0	0	0	0	0	0	0	0	0	0	0	0	0	0	0	0	0	0	0	0	0	0	0	0	0	0	0	0	0	0	0	0	0	0	0	0	0	0	0	0	0	0	0	0	0	0	0	0	0	0	0	0	0	0	0	0	0	0	0	0	0	0	0	0	0	0	0	0	0	0	0	0	0	0	0	0	0	0	0	0	0	0	0	0	0	0	0	0	0	0	0	0	0	0	1	1	1	1	1	1	1	1	1	1	1	1	1	1	1	1	1	1	1	1	1	1	1	1	1	1	1	1	1	1	1	1	1	2	3	3	5	8	13	16	19
108	108	109	108	106	103	100	97	97	97	98	98	101	106	109	113	116	118	120	122	124	124	124	124	123	122	120	118	118	117	115	112	109	106	102	99	96	93	90	87	85	82	80	78	76	73	70	67	64	62	61	60	60	62	65	68	72	75	79	83	87	88	90	92	94	94	93	91	90	89	88	86	84	81	79	77	75	73	71	70	69	68	68	69	71	72	74	75	77	79	80	82	83	85	88	91	93	93	91	89	85	82	79	77	74	72	68	63	59	56	54	52	51	51	50	50	50	49	48	47	47	47	47	46	44	42	39	36	34	32	31	29	29	28	26	25	23	20	17	15	14	15	17	18	19	21	22	23	24	25	26	27	28	30	31	33	33	33	32	31	29	28	27	25	23	20	17	15	14	14	14	14	14	14	15	15	15	15	15	15	21	26	29	31	33	36	38	40	41	43	44	44	44	44	43	42	40	38	35	33	32	30	27	25	24	23	22	21	20	19	21	23	26	28	30	32	34	35	37	41	44	48	52	54	54	54	54	55	56	58	60	62	63	66	68	70	73	74	76	78	80	81	82	82	82	81	80	77	72	67	61	56	54	52	49	47	45	43	41	39	39	39	40	42	44	47	50	53	57	62	66	70	73	75	76	77	76	76	75	75	75	76	79	80	80	81	82	81	79	78	77	77	77	79	81	83	85	87	89	91	92	91	90	89	88	87	87	88	89	90	91	92	93	94	94	95	96	96	96	95	93	90	87	85	82	80	78	77	75	74	73	72	71	70	69	68	67	65	63	61	59	57	55	53	50	47	45	44	43	41	40	40	39	38	38	37	35	35	34	33	32	31	30	28	26	24	22	20	18	17	14	9	5	4	3	3	3	2	2	2	3	3	3	3	2	2	2	2	1	1	1	1	1	1	1	1	1	2	2	2	3	5	8	12	16	18	21	23	26	26	21	17	12	7	3	2	2	2	1	1	1	1	1	1	1	1	1	1	0	0	0	0	0	0	0	0	0	0	0	0	0	0	0	0	0	0	0	0	0	0	0	0	0	0	0	0	0	0	0	0	0	0	0	0	0	0	0	0	0	0	0	0	0	0	0	0	0	0	0	0	0	0	0	0	0	0	0	0	0	0	0	0	0	0	0	0	0	0	0	0	1	1	1	1	1	1	1	1	1	1	1	1	1	0	0	0	0	0	0	0	0	0	0	0	0	0	0	0	0	0	0	0	0	0	0	0	0	0	0	0	0	0	0	0	0	0	0	0	0	0	0	0	0	0	0	0	0	0	0	0	0	0	0	0	0	0	0	0	0	0	0	0	0	0	0	0	0	0	0	0	0	0	0	0	0	0	0	0	0	0	0	0	0	0	0	0	0	0	0	0	0	0	0	0	0	0	0	0	0	0	0	0	0	0	0	0	0	0	0	0	0	0	0	0	0	0	0	0	0	0	0	0	0	0	0	0	0	0	0	0	0	0	0	0	0	0	0	0	0	0	0	0	0	0	0	0	0	0	0	0	0	0	0	0	0	0	0	0	0	0	0	0	0	0	0	0	0	0	0	0	0	0	0	0	0	0	0	0	0	0	0	0	0	0	0	0	0	0	0	0	0	0	0	0	0	0	0	0	0	0	0	0	0	0	0	0	0	0	0	0	0	0	0	0	0	0	0	0	0	0	0	0	0	0	0	0	0	0	0	0	0	0	0	0	0	0	0	0	0	0	0	0	0	0	0	0	0	0	0	0	0	0	0	0	0	0	0	0	0	0	0	0	0	0	0	0	0	0	0	0	0	0	0	0	0	0	0	0	0	0	0	0	0	0	0	0	0	0	0	0	0	0	0	0	0	0	0	0	0	0	0	0	0	0	0	0	0	0	0	0	0	0	0	0	0	0	0	0	0	0	0	0	0	0	0	0	0	0	0	0	0	0	0	0	0	0	0	0	0	0	0	0	0	0	0	0	0	0	0	0	0	0	0	0	0	0	0	0	0	0	0	0	0	0	0	0	0	0	0	0	0	0	0	0	0	0	0	0	0	0	0	0	0	0	0	0	0	0	0	0	0	0	0	0	0	0	0	0	0	0	0	0	0	0	0	0	0	0	0	0	0	0	0	0	0	0	0	0	0	0	0	0	0	0	0	0	0	0	0	0	0	0	0	0	0	0	0	0	0	0	0	0	0	0	0	0	0	0	0	1	1	1	1	1	1	1	1	1	1	1	1	1	1	1	1	1	1	1	1	1	1	1	1	1	1	1	1	1	1	1	1	1	2	2	3	4	7	11	15	18
106	106	107	106	105	102	98	96	94	94	95	97	101	105	109	113	116	118	120	121	122	122	122	122	121	120	118	117	116	115	112	109	106	103	100	97	95	92	89	86	83	81	79	77	74	71	68	65	62	60	59	59	59	61	63	67	70	74	78	83	86	88	89	91	93	94	92	90	89	88	87	85	82	79	77	75	73	71	69	67	67	67	67	68	69	71	73	74	76	77	79	80	82	84	87	89	92	93	92	89	87	84	81	78	75	72	68	64	61	58	55	54	53	53	52	52	51	51	50	49	48	48	47	46	44	41	38	35	33	31	29	28	28	26	24	22	21	18	15	15	16	17	19	20	21	22	23	24	25	26	27	28	30	31	33	34	34	33	32	31	29	28	27	25	23	20	17	15	14	14	14	15	15	15	15	15	15	15	16	20	26	28	30	33	36	38	40	41	43	44	45	46	46	46	46	44	42	40	38	36	35	33	30	27	25	23	22	21	20	20	22	24	27	30	32	35	36	38	40	42	45	49	52	54	55	56	57	58	59	61	63	65	67	69	71	73	76	78	81	83	84	85	86	87	87	85	83	80	74	68	62	58	55	53	51	48	46	44	42	40	40	40	40	42	45	48	51	54	57	61	65	69	71	72	73	73	73	73	73	72	73	75	77	78	79	79	80	79	78	77	76	76	77	79	81	83	85	88	90	91	93	93	92	91	90	89	89	90	90	91	92	93	94	95	96	97	97	97	95	94	92	88	85	83	80	78	76	75	73	72	71	70	68	68	67	65	64	63	61	59	57	55	54	51	48	45	43	42	41	40	39	38	37	37	36	36	34	34	34	33	33	32	31	29	27	25	23	22	20	20	18	14	10	7	6	5	5	5	4	4	4	4	3	3	3	3	2	2	2	2	2	2	2	2	2	2	2	2	3	4	6	10	13	16	18	21	23	26	28	26	22	18	14	9	4	2	2	2	1	1	1	1	1	1	1	1	1	1	0	0	0	0	0	0	0	0	0	0	0	0	0	0	0	0	0	0	0	0	0	0	0	0	0	0	0	0	0	0	0	0	0	0	0	0	0	0	0	0	0	0	0	0	0	0	0	0	0	0	0	0	0	0	0	0	0	0	0	0	0	0	0	0	0	0	0	0	0	0	0	1	1	1	1	1	1	1	1	1	1	1	1	1	1	1	1	1	1	1	0	0	0	0	0	0	0	0	0	0	0	0	0	0	0	0	0	0	0	0	0	0	0	0	0	0	0	0	0	0	0	0	0	0	0	0	0	0	0	0	0	0	0	0	0	0	0	0	0	0	0	0	0	0	0	0	0	0	0	0	0	0	0	0	0	0	0	0	0	0	0	0	0	0	0	0	0	0	0	0	0	0	0	0	0	0	0	0	0	0	0	0	0	0	0	0	0	0	0	0	0	0	0	0	0	0	0	0	0	0	0	0	0	0	0	0	0	0	0	0	0	0	0	0	0	0	0	0	0	0	0	0	0	0	0	0	0	0	0	0	0	0	0	0	0	0	0	0	0	0	0	0	0	0	0	0	0	0	0	0	0	0	0	0	0	0	0	0	0	0	0	0	0	0	0	0	0	0	0	0	0	0	0	0	0	0	0	0	0	0	0	0	0	0	0	0	0	0	0	0	0	0	0	0	0	0	0	0	0	0	0	0	0	0	0	0	0	0	0	0	0	0	0	0	0	0	0	0	0	0	0	0	0	0	0	0	0	0	0	0	0	0	0	0	0	0	0	0	0	0	0	0	0	0	0	0	0	0	0	0	0	0	0	0	0	0	0	0	0	0	0	0	0	0	0	0	0	0	0	0	0	0	0	0	0	0	0	0	0	0	0	0	0	0	0	0	0	0	0	0	0	0	0	0	0	0	0	0	0	0	0	0	0	0	0	0	0	0	0	0	0	0	0	0	0	0	0	0	0	0	0	0	0	0	0	0	0	0	0	0	0	0	0	0	0	0	0	0	0	0	0	0	0	0	0	0	0	0	0	0	0	0	0	0	0	0	0	0	0	0	0	0	0	0	0	0	0	0	0	0	0	0	0	0	0	0	0	0	0	0	0	0	0	0	0	0	0	0	0	0	0	0	0	0	0	0	0	0	0	0	0	0	0	0	0	0	0	0	0	0	0	0	0	0	0	0	0	0	0	0	0	0	0	0	0	0	0	0	0	0	0	1	1	1	1	1	1	1	1	1	1	1	1	1	1	1	1	1	1	1	1	1	1	1	1	1	1	1	1	1	1	1	1	1	1	2	3	4	6	9	13	16
104	104	105	104	103	100	97	93	91	91	92	95	100	104	109	112	115	117	119	120	120	120	120	119	119	118	117	115	114	112	109	107	104	101	98	95	93	90	87	84	82	80	78	75	72	70	67	64	61	59	57	57	57	58	61	64	68	72	76	81	85	87	89	90	91	92	91	89	88	87	85	83	80	78	75	73	71	68	66	64	64	65	66	67	68	70	71	73	74	76	77	79	81	84	86	89	92	93	92	90	88	85	82	79	75	72	68	65	62	59	57	56	55	55	54	54	53	52	51	50	50	48	47	45	43	40	37	34	31	30	29	28	27	25	22	20	18	16	16	16	18	19	20	22	22	22	23	25	26	27	28	30	31	33	34	35	35	34	33	31	29	28	27	25	23	20	17	15	14	14	14	15	14	15	15	15	15	16	20	25	28	30	33	36	38	40	41	43	45	46	47	48	48	49	48	47	44	42	40	39	38	36	33	30	27	24	22	21	20	21	23	25	28	31	34	37	39	41	43	45	47	50	53	56	57	59	60	61	63	64	66	68	70	72	74	77	79	82	85	86	88	88	89	90	89	88	86	82	76	70	65	60	57	54	51	49	47	45	44	42	42	41	41	42	45	48	51	54	57	60	64	66	68	69	70	70	70	70	70	70	71	73	76	78	78	79	78	77	76	75	75	75	77	79	81	83	86	88	90	92	94	95	95	93	92	91	91	91	92	93	94	95	96	97	98	98	97	96	95	93	90	86	83	81	78	76	74	73	71	70	68	67	66	65	64	63	61	60	59	57	56	54	52	49	46	44	42	40	39	38	37	36	35	35	34	34	33	33	33	34	33	32	31	30	28	26	25	24	23	22	21	18	15	12	10	9	9	9	8	8	8	8	6	4	4	4	3	3	3	3	2	2	2	2	2	3	3	3	4	7	11	15	17	19	21	23	26	29	29	26	23	19	16	11	5	2	2	2	1	1	1	1	1	1	1	1	1	1	0	0	0	0	0	0	0	0	0	0	0	0	0	0	0	0	0	0	0	0	0	0	0	0	0	0	0	0	0	0	0	0	0	0	0	0	0	0	0	0	0	0	0	0	0	0	0	0	0	0	0	0	0	0	0	0	0	0	0	0	0	0	0	0	0	0	0	0	0	0	1	1	1	1	1	1	1	1	1	1	1	1	1	1	1	1	1	1	1	1	1	1	1	1	1	1	1	1	1	1	1	1	1	1	1	1	1	1	1	1	1	0	0	0	0	0	0	0	0	0	0	0	0	1	1	1	1	1	1	0	0	0	0	0	0	0	0	0	0	0	0	0	0	0	0	0	0	0	0	0	0	0	0	0	0	0	0	0	0	0	0	0	0	0	0	0	0	0	0	0	0	0	0	0	0	0	0	0	0	0	0	0	0	0	0	0	0	0	0	0	0	0	0	0	0	0	0	0	0	0	0	0	0	0	0	0	0	0	0	0	0	0	0	0	0	0	0	0	0	0	0	0	0	0	0	0	0	0	0	0	0	0	0	0	0	0	0	0	0	0	0	0	0	0	0	0	0	0	0	0	0	0	0	0	0	0	0	0	0	0	0	0	0	0	0	0	0	0	0	0	0	0	0	0	0	0	0	0	0	0	0	0	0	0	0	0	0	0	0	0	0	0	0	0	0	0	0	0	0	0	0	0	0	0	0	0	0	0	0	0	0	0	0	0	0	0	0	0	0	0	0	0	0	0	0	0	0	0	0	0	0	0	0	0	0	0	0	0	0	0	0	0	0	0	0	0	0	0	0	0	0	0	0	0	0	0	0	0	0	0	0	0	0	0	0	0	0	0	0	0	0	0	0	0	0	0	0	0	0	0	0	0	0	0	0	0	0	0	0	0	0	0	0	0	0	0	0	0	0	0	0	0	0	0	0	0	0	0	0	0	0	0	0	0	0	0	0	0	0	0	0	0	0	0	0	0	0	0	0	0	0	0	0	0	0	0	0	0	0	0	0	0	0	0	0	0	0	0	0	0	0	0	0	0	0	0	0	0	0	0	0	0	0	0	0	0	0	0	0	0	0	0	0	0	0	0	0	0	0	0	0	0	0	0	0	0	0	0	0	0	0	0	0	0	0	0	0	0	0	0	0	0	0	0	0	0	0	0	0	0	0	0	0	0	0	0	0	0	0	0	0	0	0	0	0	0	0	0	0	0	0	1	1	1	1	1	1	1	1	1	1	1	1	1	1	1	1	1	1	1	1	1	1	1	1	1	1	1	1	1	1	1	1	1	1	2	3	3	4	7	11	14
101	101	102	102	101	98	94	91	89	88	89	94	99	104	108	111	114	116	117	118	119	119	118	118	117	116	115	113	111	109	107	104	101	99	96	94	91	88	85	83	81	79	77	74	71	68	65	62	59	57	55	54	53	55	57	61	64	68	72	77	81	84	86	87	88	89	88	87	86	85	84	81	79	76	73	71	69	66	63	62	62	63	64	65	67	69	70	71	73	74	76	78	81	83	86	88	91	93	93	91	89	86	83	79	76	72	68	66	63	61	60	58	58	57	56	56	55	53	52	52	50	47	45	43	41	39	36	33	30	29	29	29	27	24	21	19	18	17	17	19	20	21	22	23	24	24	25	26	27	29	30	32	33	35	36	36	36	35	34	32	30	28	26	25	22	20	17	15	14	14	15	15	14	14	14	15	16	20	25	29	31	33	35	38	40	41	43	45	46	48	49	50	50	51	50	48	46	44	43	42	41	39	36	32	28	25	22	21	21	22	24	26	28	31	35	38	41	44	46	47	49	52	55	57	60	62	63	64	66	68	69	71	73	75	78	80	83	85	87	89	90	91	91	92	90	88	87	83	77	72	67	62	58	55	52	50	49	48	47	46	45	44	44	44	46	49	51	54	56	58	61	64	65	66	67	67	67	67	67	68	70	72	74	76	77	77	76	75	74	74	74	75	77	80	82	84	86	88	91	93	95	97	97	95	94	93	93	93	94	95	95	96	98	99	99	98	97	96	94	92	88	85	82	79	76	74	72	71	69	67	66	64	63	62	61	60	59	58	56	55	54	52	50	48	46	43	41	39	37	36	34	33	33	32	32	31	31	31	32	33	34	33	32	31	29	28	27	26	25	24	24	22	19	16	15	14	14	13	13	13	13	12	10	9	8	7	6	5	4	4	4	4	4	4	4	4	5	6	8	12	15	17	19	22	24	26	29	31	29	26	23	20	17	12	6	2	2	2	1	1	1	1	1	1	1	1	1	1	0	0	0	0	0	0	0	0	0	0	0	0	0	0	0	0	0	0	0	0	0	0	0	0	0	0	0	0	0	0	0	0	0	0	0	0	0	0	0	0	0	0	0	0	0	0	0	0	0	0	0	0	0	0	0	0	0	0	0	0	0	0	0	0	0	0	0	0	0	1	1	1	1	1	1	1	1	1	1	1	1	1	1	1	1	1	1	1	1	1	1	1	1	1	1	1	1	1	1	1	1	1	1	1	1	1	1	1	1	1	1	1	1	1	1	1	1	1	1	1	1	1	1	1	1	1	1	1	1	1	1	0	0	0	0	0	0	0	0	0	0	0	0	0	0	0	0	0	0	0	0	0	0	0	0	0	0	0	0	0	0	0	0	0	0	0	0	0	0	0	0	0	0	0	0	0	0	0	0	0	0	0	0	0	0	0	0	0	0	0	0	0	0	0	0	0	0	0	0	0	0	0	0	0	0	0	0	0	0	0	0	0	0	0	0	0	0	0	0	0	0	0	0	0	0	0	0	0	0	0	0	0	0	0	0	0	0	0	0	0	0	0	0	0	0	0	0	0	0	0	0	0	0	0	0	0	0	0	0	0	0	0	0	0	0	0	0	0	0	0	0	0	0	0	0	0	0	0	0	0	0	0	0	0	0	0	0	0	0	0	0	0	0	0	0	0	0	0	0	0	0	0	0	0	0	0	0	0	0	0	0	0	0	0	0	0	0	0	0	0	0	0	0	0	0	0	0	0	0	0	0	0	0	0	0	0	0	0	0	0	0	0	0	0	0	0	0	0	0	0	0	0	0	0	0	0	0	0	0	0	0	0	0	0	0	0	0	0	0	0	0	0	0	0	0	0	0	0	0	0	0	0	0	0	0	0	0	0	0	0	0	0	0	0	0	0	0	0	0	0	0	0	0	0	0	0	0	0	0	0	0	0	0	0	0	0	0	0	0	0	0	0	0	0	0	0	0	0	0	0	0	0	0	0	0	0	0	0	0	0	0	0	0	0	0	0	0	0	0	0	0	0	0	0	0	0	0	0	0	0	0	0	0	0	0	0	0	0	0	0	0	0	0	0	0	0	0	0	0	0	0	0	0	0	0	0	0	0	0	0	0	0	0	0	0	0	0	0	0	0	0	0	0	0	0	0	0	0	0	0	0	0	0	0	0	0	0	0	0	0	0	0	0	0	0	0	0	0	0	0	0	1	1	1	1	1	1	1	1	1	1	1	1	1	1	1	1	1	1	1	1	1	1	1	1	1	1	1	1	1	1	1	1	1	1	1	2	3	4	6	9	12
98	98	98	99	98	95	92	88	86	85	87	93	98	103	106	109	112	114	115	116	117	117	116	116	115	114	112	110	108	106	104	102	99	97	94	92	89	87	84	82	80	78	75	72	69	66	63	60	58	55	53	51	50	51	53	56	60	64	68	72	76	79	82	84	85	85	86	85	84	83	81	79	77	74	72	69	67	65	62	60	60	61	62	64	65	67	68	70	71	73	75	77	80	82	85	88	90	93	94	92	90	87	84	81	77	73	70	67	65	64	63	61	60	59	58	57	56	55	53	51	47	45	43	41	40	38	35	32	30	29	29	29	28	25	21	19	19	19	19	20	21	22	23	24	25	26	27	28	29	31	32	34	35	36	37	37	37	37	35	33	30	28	26	24	21	19	16	14	14	14	14	15	14	15	15	16	19	24	28	31	33	36	38	40	41	43	45	46	48	49	51	51	51	52	51	50	48	47	46	45	43	41	37	34	29	25	23	22	22	24	25	27	29	31	35	39	43	46	48	50	52	54	56	59	62	64	66	67	69	71	72	74	75	78	80	83	85	87	89	90	92	92	92	91	89	88	86	83	78	73	68	63	59	56	54	52	52	51	50	49	49	48	47	47	47	49	51	53	55	56	58	60	61	62	63	64	64	64	65	66	68	70	72	73	74	74	74	73	72	72	73	75	77	80	82	84	86	89	91	94	96	98	98	97	96	95	95	95	95	96	97	98	99	99	99	97	96	94	92	90	86	83	80	77	74	72	70	69	67	65	64	62	61	60	59	58	57	56	54	53	52	51	49	47	45	42	40	38	36	34	32	31	30	29	29	29	29	30	31	33	34	34	33	32	30	29	28	28	27	27	27	25	23	21	19	19	18	18	18	18	17	17	15	14	13	12	10	9	8	7	7	7	7	7	7	8	9	11	13	15	17	19	21	24	26	29	31	31	28	25	22	19	16	12	6	2	2	2	1	1	1	1	1	1	1	1	1	1	1	0	0	0	0	0	0	0	0	0	0	0	0	0	0	0	0	0	0	0	0	0	0	0	0	0	0	0	0	0	0	0	0	0	0	0	0	0	0	0	0	0	0	0	0	0	0	0	0	0	0	0	0	0	0	0	0	0	0	0	0	0	0	0	0	0	0	0	1	1	1	1	1	1	1	1	1	1	1	1	1	1	1	1	1	1	1	1	1	1	1	1	1	1	1	1	1	1	1	1	1	1	1	1	1	1	1	1	1	1	1	1	1	1	1	1	1	1	1	1	1	1	1	1	1	1	1	1	1	1	1	1	1	0	0	0	0	0	0	0	0	0	0	0	0	0	0	0	0	0	0	0	0	0	0	0	0	0	0	0	0	0	0	0	0	0	0	0	0	0	0	0	0	0	0	0	0	0	0	0	0	0	0	0	0	0	0	0	0	0	0	0	0	0	0	0	0	0	0	0	0	0	0	0	0	0	0	0	0	0	0	0	0	0	0	0	0	0	0	0	0	0	0	0	0	0	0	0	0	0	0	0	0	0	0	0	0	0	0	0	0	0	0	0	0	0	0	0	0	0	0	0	0	0	0	0	0	0	0	0	0	0	0	0	0	0	0	0	0	0	0	0	0	0	0	0	0	0	0	0	0	0	0	0	0	0	0	0	0	0	0	0	0	0	0	0	0	0	0	0	0	0	0	0	0	0	0	0	0	0	0	0	0	0	0	0	0	0	0	0	0	0	0	0	0	0	0	0	0	0	0	0	0	0	0	0	0	0	0	0	0	0	0	0	0	0	0	0	0	0	0	0	0	0	0	0	0	0	0	0	0	0	0	0	0	0	0	0	0	0	0	0	0	0	0	0	0	0	0	0	0	0	0	0	0	0	0	0	0	0	0	0	0	0	0	0	0	0	0	0	0	0	0	0	0	0	0	0	0	0	0	0	0	0	0	0	0	0	0	0	0	0	0	0	0	0	0	0	0	0	0	0	0	0	0	0	0	0	0	0	0	0	0	0	0	0	0	0	0	0	0	0	0	0	0	0	0	0	0	0	0	0	0	0	0	0	0	0	0	0	0	0	0	0	0	0	0	0	0	0	0	0	0	0	0	0	0	0	0	0	0	0	0	0	0	0	0	0	0	0	0	0	0	0	0	0	0	0	0	0	0	0	0	0	0	0	0	0	0	0	0	0	0	0	0	0	0	0	0	0	0	1	1	1	1	1	1	1	1	1	1	1	1	1	1	1	1	1	1	1	1	1	1	1	1	1	1	1	1	1	1	1	1	1	1	1	2	3	3	4	7	9
95	94	94	94	94	92	89	86	85	84	87	92	98	102	105	107	110	111	112	113	114	114	114	113	112	111	109	108	106	104	102	100	97	95	93	90	88	85	83	81	79	77	74	71	68	65	62	59	56	53	51	49	48	48	49	52	55	59	63	67	71	74	77	79	81	82	83	83	82	81	79	77	75	72	70	67	65	63	61	59	59	59	60	62	64	65	67	68	70	72	74	77	79	82	84	87	89	92	94	93	91	88	86	82	79	75	72	70	68	67	66	65	63	62	60	59	57	54	52	48	45	43	42	40	38	36	34	32	29	29	29	29	28	25	22	21	21	21	21	22	23	24	25	25	26	27	29	30	31	33	35	36	37	38	39	39	39	38	35	32	30	27	25	22	20	18	16	15	14	14	14	15	15	15	16	19	22	26	30	33	36	38	40	41	43	44	46	48	49	51	52	53	53	53	53	51	50	49	49	48	46	43	39	35	30	26	24	23	24	26	27	28	30	32	36	41	44	47	49	52	54	57	59	61	64	66	68	70	72	74	75	77	79	80	82	85	87	89	90	92	93	93	92	90	88	87	85	82	77	73	68	63	59	57	55	55	54	54	54	53	52	50	50	49	49	51	53	55	56	57	57	58	59	60	61	61	61	61	62	64	66	67	69	71	71	72	71	71	71	72	73	75	77	79	81	84	86	88	91	94	96	98	99	99	98	97	97	96	97	98	99	99	99	99	98	96	95	93	90	87	85	81	78	75	72	70	69	67	65	63	62	60	59	58	57	56	55	54	52	51	50	49	48	46	44	42	39	37	35	33	31	29	28	28	28	28	28	29	30	32	34	34	33	32	31	30	29	28	28	28	27	27	26	25	24	24	23	22	22	21	20	20	18	17	16	15	15	14	13	12	11	11	11	11	11	12	13	15	16	18	19	21	23	26	28	31	33	31	27	24	22	19	16	11	5	2	2	2	1	1	1	1	1	1	1	1	1	1	1	0	0	0	0	0	0	0	0	0	0	0	0	0	0	0	0	0	0	0	0	0	0	0	0	0	0	0	0	0	0	0	0	0	0	0	0	0	0	0	0	0	0	0	0	0	0	0	0	0	0	0	0	0	0	0	0	0	0	0	0	0	0	0	0	0	0	1	1	1	1	1	1	1	1	1	1	1	1	1	1	1	1	1	1	1	1	1	1	1	1	1	1	1	1	1	1	1	1	1	1	1	1	1	1	1	1	1	1	1	1	1	1	1	1	1	1	1	1	1	1	1	1	1	1	1	1	1	1	1	1	1	1	1	1	0	0	0	0	0	0	0	0	0	0	0	0	0	0	0	0	0	0	0	0	0	0	0	0	0	0	0	0	0	0	0	0	0	0	0	0	0	0	0	0	0	0	0	0	0	0	0	0	0	0	0	0	0	0	0	0	0	0	0	0	0	0	0	0	0	0	0	0	0	0	0	0	0	0	0	0	0	0	0	0	0	0	0	0	0	0	0	0	0	0	0	0	0	0	0	0	0	0	0	0	0	0	0	0	0	0	0	0	0	0	0	0	0	0	0	0	0	0	0	0	0	0	0	0	0	0	0	0	0	0	0	0	0	0	0	0	0	0	0	0	0	0	0	0	0	0	0	0	0	0	0	0	0	0	0	0	0	0	0	0	0	0	0	0	0	0	0	0	0	0	0	0	0	0	0	0	0	0	0	0	0	0	0	0	0	0	0	0	0	0	0	0	0	0	0	0	0	0	0	0	0	0	0	0	0	0	0	0	0	0	0	0	0	0	0	0	0	0	0	0	0	0	0	0	0	0	0	0	0	0	0	0	0	0	0	0	0	0	0	0	0	0	0	0	0	0	0	0	0	0	0	0	0	0	0	0	0	0	0	0	0	0	0	0	0	0	0	0	0	0	0	0	0	0	0	0	0	0	0	0	0	0	0	0	0	0	0	0	0	0	0	0	0	0	0	0	0	0	0	0	0	0	0	0	0	0	0	0	0	0	0	0	0	0	0	0	0	0	0	0	0	0	0	0	0	0	0	0	0	0	0	0	0	0	0	0	0	0	0	0	0	0	0	0	0	0	0	0	0	0	0	0	0	0	0	0	0	0	0	0	0	0	0	0	0	0	0	0	0	0	0	0	0	0	0	0	0	0	0	0	0	0	0	0	0	0	0	0	0	0	0	0	0	0	0	0	1	1	1	1	1	1	1	1	1	1	1	1	1	1	1	1	1	1	1	1	1	1	1	1	1	1	1	1	1	1	1	1	1	1	1	2	2	3	4	5	7
91	89	89	89	90	88	87	85	84	84	87	92	97	101	104	106	107	109	110	111	111	112	111	111	110	109	107	106	104	102	100	98	96	94	91	89	86	84	82	80	78	76	73	70	67	63	60	57	54	52	49	47	47	47	48	49	50	54	58	62	66	70	73	75	76	77	79	80	80	78	76	74	72	70	68	65	63	62	60	58	57	58	59	60	62	64	65	67	68	71	73	76	78	81	83	86	88	91	93	94	92	90	87	84	81	78	75	73	71	70	70	68	66	64	62	60	57	53	49	45	43	42	41	39	37	35	33	31	29	29	29	29	28	26	24	22	22	22	23	23	24	25	25	26	27	28	30	32	33	35	37	38	39	40	41	41	41	39	36	32	29	27	24	21	19	18	18	18	17	16	15	15	16	15	16	20	24	28	31	34	37	40	41	43	44	46	47	49	51	52	54	55	55	55	55	54	53	52	52	51	48	44	40	35	31	28	26	26	27	28	29	31	32	35	38	42	45	47	50	53	56	59	61	64	66	69	71	73	75	77	79	80	82	83	85	87	89	91	93	94	94	92	90	89	88	86	84	80	76	73	69	64	60	58	56	55	55	55	56	56	55	53	53	52	52	53	55	57	58	59	59	59	59	60	61	61	61	61	62	63	64	65	67	68	69	70	71	71	71	72	73	74	76	79	81	83	85	88	90	93	96	98	99	100	100	99	99	98	98	99	99	99	98	97	96	95	94	92	88	85	83	80	76	73	71	69	68	66	64	62	60	59	58	56	55	54	53	52	51	50	48	47	46	45	43	41	38	36	34	32	30	28	27	27	27	27	28	29	30	32	33	34	33	32	30	29	29	28	28	28	28	28	28	28	28	28	27	26	26	24	23	21	20	19	18	17	17	16	16	15	15	15	15	15	15	16	16	18	19	20	22	24	25	28	30	32	33	30	27	24	21	18	15	10	4	2	2	1	1	1	1	1	1	1	1	1	1	1	1	0	0	0	0	0	0	0	0	0	0	0	0	0	0	0	0	0	0	0	0	0	0	0	0	0	0	0	0	0	0	0	0	0	0	0	0	0	0	0	0	0	0	0	0	0	0	0	0	0	0	0	0	0	0	0	0	0	0	0	0	0	0	0	0	1	1	1	1	1	1	1	1	1	1	1	1	1	1	1	1	1	1	1	1	1	1	1	1	1	1	1	1	1	1	1	1	1	1	1	1	1	1	1	1	1	1	1	1	1	1	1	1	1	1	1	1	1	1	1	1	1	1	1	1	1	1	1	1	1	1	1	1	1	1	1	1	0	0	0	0	0	0	0	0	0	0	0	0	0	0	0	0	0	0	0	0	0	0	0	0	0	0	0	0	0	0	0	0	0	0	0	0	0	0	0	0	0	0	0	0	0	0	0	0	0	0	0	0	0	0	0	0	0	0	0	0	0	0	0	0	0	0	0	0	0	0	0	0	0	0	0	0	0	0	0	0	0	0	0	0	0	0	0	0	0	0	0	0	0	0	0	0	0	0	0	0	0	0	0	0	0	0	0	0	0	0	0	0	0	0	0	0	0	0	0	0	0	0	0	0	0	0	0	0	0	0	0	0	0	0	0	0	0	0	0	0	0	0	0	0	0	0	0	0	0	0	0	0	0	0	0	0	0	0	0	0	0	0	0	0	0	0	0	0	0	0	0	0	0	0	0	0	0	0	0	0	0	0	0	0	0	0	0	0	0	0	0	0	0	0	0	0	0	0	0	0	0	0	0	0	0	0	0	0	0	0	0	0	0	0	0	0	0	0	0	0	0	0	0	0	0	0	0	0	0	0	0	0	0	0	0	0	0	0	0	0	0	0	0	0	0	0	0	0	0	0	0	0	0	0	0	0	0	0	0	0	0	0	0	0	0	0	0	0	0	0	0	0	0	0	0	0	0	0	0	0	0	0	0	0	0	0	0	0	0	0	0	0	0	0	0	0	0	0	0	0	0	0	0	0	0	0	0	0	0	0	0	0	0	0	0	0	0	0	0	0	0	0	0	0	0	0	0	0	0	0	0	0	0	0	0	0	0	0	0	0	0	0	0	0	0	0	0	0	0	0	0	0	0	0	0	0	0	0	0	0	0	0	0	0	0	0	0	0	0	0	0	0	0	0	0	0	0	0	0	0	0	0	0	0	0	0	0	0	0	0	0	0	0	0	1	1	1	1	1	1	1	1	1	1	1	1	1	1	1	1	1	1	1	1	1	1	1	1	1	1	1	1	1	1	1	1	1	1	1	2	2	3	3	4	6
89	86	85	86	86	86	85	84	83	84	86	91	97	100	103	104	106	107	107	108	109	109	109	108	108	106	105	104	102	100	98	96	94	92	90	87	85	83	81	79	77	75	72	69	65	62	59	56	53	51	48	47	46	46	46	47	48	50	53	57	62	65	69	71	72	73	75	76	76	75	74	72	70	68	65	63	61	59	57	56	56	56	57	59	61	62	64	66	68	70	72	75	77	80	82	85	87	89	91	92	93	91	88	86	84	82	80	77	75	74	73	71	69	65	62	60	57	52	47	44	43	41	40	38	35	33	32	31	31	31	30	29	28	27	25	24	24	24	24	25	25	25	26	27	28	29	31	33	34	36	39	41	42	42	42	42	41	39	36	32	29	25	22	19	19	21	23	23	22	20	19	18	18	17	18	22	26	30	33	36	39	41	42	44	45	47	49	50	52	54	55	57	57	57	57	57	56	56	55	53	50	46	41	36	32	29	28	27	29	30	32	34	36	38	41	44	46	48	50	53	56	60	63	66	69	72	74	76	78	81	82	84	85	86	88	89	91	93	95	95	93	91	89	88	87	85	82	78	74	72	69	65	61	58	57	56	56	57	58	58	57	56	56	56	56	56	58	59	60	61	61	61	61	62	62	63	63	64	65	66	67	67	68	69	71	71	72	72	72	72	73	74	76	78	80	83	85	87	90	92	95	97	99	100	100	100	100	100	100	99	98	97	96	96	95	94	92	90	87	83	80	78	75	72	70	68	66	64	63	61	59	58	56	55	53	52	51	50	49	48	47	45	44	43	41	39	37	35	33	31	29	28	27	26	26	26	27	28	30	32	33	33	33	32	31	29	29	28	28	27	28	29	29	30	30	30	29	29	28	27	25	23	22	21	20	19	19	18	18	18	18	18	18	18	18	19	20	21	22	23	25	26	28	30	32	32	31	29	26	23	20	17	14	9	4	2	2	2	1	1	1	1	1	1	1	1	1	1	1	0	0	0	0	0	0	0	0	0	0	0	0	0	0	0	0	0	0	0	0	0	0	0	0	0	0	0	0	0	0	0	0	0	0	0	0	0	0	0	0	0	0	0	0	0	0	0	0	0	0	0	0	0	0	0	0	0	0	0	0	0	0	0	1	1	1	1	1	1	1	1	1	1	1	1	1	1	1	1	1	1	1	1	1	1	1	1	1	1	1	1	1	1	1	1	1	1	1	1	1	1	1	1	1	1	1	1	1	1	1	1	1	1	1	1	1	1	1	1	1	1	1	1	1	1	1	1	1	1	1	1	1	1	1	1	1	1	1	0	0	0	0	0	0	0	0	0	0	0	0	0	0	0	0	0	0	0	0	0	0	0	0	0	0	0	0	0	0	0	0	0	0	0	0	0	0	0	0	0	0	0	0	0	0	0	0	0	0	0	0	0	0	0	0	0	0	0	0	0	0	0	0	0	0	0	0	0	0	0	0	0	0	0	0	0	0	0	0	0	0	0	0	0	0	0	0	0	0	0	0	0	0	0	0	0	0	0	0	0	0	0	0	0	0	0	0	0	0	0	0	0	0	0	0	0	0	0	0	0	0	0	0	0	0	0	0	0	0	0	0	0	0	0	0	0	0	0	0	0	0	0	0	0	0	0	0	0	0	0	0	0	0	0	0	0	0	0	0	0	0	0	0	0	0	0	0	0	0	0	0	0	0	0	0	0	0	0	0	0	0	0	0	0	0	0	0	0	0	0	0	0	0	0	0	0	0	0	0	0	0	0	0	0	0	0	0	0	0	0	0	0	0	0	0	0	0	0	0	0	0	0	0	0	0	0	0	0	0	0	0	0	0	0	0	0	0	0	0	0	0	0	0	0	0	0	0	0	0	0	0	0	0	0	0	0	0	0	0	0	0	0	0	0	0	0	0	0	0	0	0	0	0	0	0	0	0	0	0	0	0	0	0	0	0	0	0	0	0	0	0	0	0	0	0	0	0	0	0	0	0	0	0	0	0	0	0	0	0	0	0	0	0	0	0	0	0	0	0	0	0	0	0	0	0	0	0	0	0	0	0	0	0	0	0	0	0	0	0	0	0	0	0	0	0	0	0	0	0	0	0	0	0	0	0	0	0	0	0	0	0	0	0	0	0	0	0	0	0	0	0	0	0	0	0	0	0	0	0	0	0	0	0	0	0	0	0	0	0	0	0	1	1	1	1	1	1	1	1	1	1	1	1	1	1	1	1	1	1	1	1	1	1	1	1	1	1	1	1	1	1	1	1	1	1	1	1	2	3	3	4	5
87	84	83	83	84	84	83	82	82	84	86	91	96	99	102	103	104	105	105	106	106	107	107	106	105	104	103	102	100	98	96	94	92	90	88	86	84	82	80	78	76	73	71	67	64	61	58	55	52	50	48	46	44	44	45	46	46	47	49	53	57	60	64	66	68	69	70	71	72	72	71	69	67	65	62	60	58	56	55	54	54	55	56	58	59	61	63	65	67	69	72	74	77	79	81	83	85	87	88	90	91	91	90	88	86	85	83	81	79	76	74	71	69	65	61	58	56	51	47	44	43	41	39	37	35	34	33	33	33	33	32	31	29	28	26	25	25	25	25	26	26	26	27	27	28	30	32	34	35	38	41	43	43	43	43	42	41	39	36	31	28	24	21	20	22	25	26	26	26	24	23	22	21	21	21	24	28	31	34	37	40	42	43	45	47	48	50	52	54	55	57	58	59	59	60	60	59	59	58	55	51	47	42	38	33	30	29	29	30	32	34	36	39	41	44	46	48	49	51	54	57	61	64	68	71	74	77	79	81	83	85	86	87	88	90	91	93	95	95	94	92	90	89	87	85	82	78	75	73	71	68	64	61	60	59	59	58	60	61	61	60	60	60	60	60	60	62	63	64	64	64	63	63	64	65	65	66	67	68	69	69	69	70	72	74	74	75	74	74	74	74	75	76	79	81	83	86	88	90	92	94	97	99	100	100	100	100	100	99	98	97	96	95	94	93	92	90	88	85	81	78	76	73	70	68	66	65	63	61	60	58	57	55	53	52	50	49	48	47	46	45	44	42	41	40	38	36	34	32	30	28	27	26	25	25	26	27	28	29	31	33	33	32	31	31	30	29	28	27	27	28	29	30	31	31	30	30	30	29	28	27	25	24	23	22	21	21	20	20	20	20	20	21	21	21	22	23	24	25	26	27	29	30	32	32	31	30	28	25	22	18	15	12	7	3	2	2	1	1	1	1	1	1	1	1	1	1	1	1	0	0	0	0	0	0	0	0	0	0	0	0	0	0	0	0	0	0	0	0	0	0	0	0	0	0	0	0	0	0	0	0	0	0	0	0	0	0	0	0	0	0	0	0	0	0	0	0	0	0	0	0	0	0	0	0	0	0	0	0	0	0	1	1	1	1	1	1	1	1	1	1	1	1	1	1	1	1	1	1	1	1	1	1	1	1	1	1	1	1	1	1	1	1	1	1	1	1	1	1	1	1	1	1	1	1	1	1	1	1	1	1	1	1	1	1	1	1	1	1	1	1	1	1	1	1	1	1	1	1	1	1	1	1	1	1	1	1	1	1	0	0	0	0	0	0	0	0	0	0	0	0	0	0	0	0	0	0	0	0	0	0	0	0	0	0	0	0	0	0	0	0	0	0	0	0	0	0	0	0	0	0	0	0	0	0	0	0	0	0	0	0	0	0	0	0	0	0	0	0	0	0	0	0	0	0	0	0	0	0	0	0	0	0	0	0	0	0	0	0	0	0	0	0	0	0	0	0	0	0	0	0	0	0	0	0	0	0	0	0	0	0	0	0	0	0	0	0	0	0	0	0	0	0	0	0	0	0	0	0	0	0	0	0	0	0	0	0	0	0	0	0	0	0	0	0	0	0	0	0	0	0	0	0	0	0	0	0	0	0	0	0	0	0	0	0	0	0	0	0	0	0	0	0	0	0	0	0	0	0	0	0	0	0	0	0	0	0	0	0	0	0	0	0	0	0	0	0	0	0	0	0	0	0	0	0	0	0	0	0	0	0	0	0	0	0	0	0	0	0	0	0	0	0	0	0	0	0	0	0	0	0	0	0	0	0	0	0	0	0	0	0	0	0	0	0	0	0	0	0	0	0	0	0	0	0	0	0	0	0	0	0	0	0	0	0	0	0	0	0	0	0	0	0	0	0	0	0	0	0	0	0	0	0	0	0	0	0	0	0	0	0	0	0	0	0	0	0	0	0	0	0	0	0	0	0	0	0	0	0	0	0	0	0	0	0	0	0	0	0	0	0	0	0	0	0	0	0	0	0	0	0	0	0	0	0	0	0	0	0	0	0	0	0	0	0	0	0	0	0	0	0	0	0	0	0	0	0	0	0	0	0	0	0	0	0	0	0	0	0	0	0	0	0	0	0	0	0	0	0	0	0	0	0	0	0	0	0	0	0	0	0	0	0	0	0	0	0	0	0	1	1	1	1	1	1	1	1	1	1	1	1	1	1	1	1	1	1	1	1	1	1	1	1	1	1	1	1	1	1	1	1	1	1	1	1	2	2	3	4	5
87	84	82	82	82	81	81	81	81	83	86	90	94	98	100	101	102	103	104	104	104	104	104	104	103	102	101	100	98	96	94	92	91	89	87	85	83	81	79	77	75	72	69	66	63	60	57	54	51	49	47	45	43	42	43	44	45	46	47	49	52	55	58	60	62	64	66	68	69	69	68	66	64	62	59	57	55	53	52	51	52	53	55	56	58	60	62	65	67	69	71	73	76	78	79	81	82	84	85	86	88	89	90	89	88	87	85	83	80	76	72	69	66	63	59	57	54	50	47	44	43	41	40	38	37	37	37	36	36	35	34	33	31	29	28	27	26	26	26	27	27	27	28	28	30	31	33	34	37	40	43	44	44	44	43	42	41	39	35	31	27	23	20	22	25	27	28	28	27	27	26	25	24	24	25	27	30	32	35	38	41	43	45	46	48	50	52	54	55	57	59	60	61	62	62	63	62	61	60	57	53	48	43	39	34	31	30	30	31	33	36	38	41	43	46	48	50	52	53	55	58	62	66	69	73	76	79	82	84	85	87	88	89	90	92	94	96	96	94	92	91	89	87	85	82	78	75	73	72	69	66	63	62	62	62	61	61	63	64	65	64	63	64	64	63	63	65	67	69	68	68	66	66	67	68	68	68	69	71	72	73	72	73	75	77	78	78	77	76	76	76	76	77	79	82	85	87	89	90	92	95	97	99	100	100	100	100	99	98	96	95	94	92	91	91	90	89	87	83	79	76	74	71	69	67	65	63	61	60	59	57	55	54	52	51	49	48	46	45	44	43	42	41	40	38	37	35	32	31	29	27	26	25	25	25	25	27	28	29	31	32	32	32	31	30	30	29	28	27	27	28	30	31	32	31	31	32	32	31	29	28	26	25	24	24	23	22	22	22	23	23	23	23	24	25	25	26	27	28	29	31	31	32	33	31	30	28	27	25	21	17	14	10	5	3	2	2	1	1	1	1	1	1	1	1	1	1	1	1	0	0	0	0	0	0	0	0	0	0	0	0	0	0	0	0	0	0	0	0	0	0	0	0	0	0	0	0	0	0	0	0	0	0	0	0	0	0	0	0	0	0	0	0	0	0	0	0	0	0	0	0	0	0	0	0	0	0	0	0	0	1	1	1	1	1	1	1	1	1	1	1	1	1	1	1	1	1	1	1	1	1	1	1	1	1	1	1	1	1	1	1	1	1	1	1	1	1	1	1	1	1	1	1	1	1	1	1	1	1	1	1	1	1	1	1	1	1	1	1	1	1	1	1	1	1	1	1	1	1	1	1	1	1	1	1	1	1	1	1	1	0	0	0	0	0	0	0	0	0	0	0	0	0	0	0	0	0	0	0	0	0	0	0	0	0	0	0	0	0	0	0	0	0	0	0	0	0	0	0	0	0	0	0	0	0	0	0	0	0	0	0	0	0	0	0	0	0	0	0	0	0	0	0	0	0	0	0	0	0	0	0	0	0	0	0	0	0	0	0	0	0	0	0	0	0	0	0	0	0	0	0	0	0	0	0	0	0	0	0	0	0	0	0	0	0	0	0	0	0	0	0	0	0	0	0	0	0	0	0	0	0	0	0	0	0	0	0	0	0	0	0	0	0	0	0	0	0	0	0	0	0	0	0	0	0	0	0	0	0	0	0	0	0	0	0	0	0	0	0	0	0	0	0	0	0	0	0	0	0	0	0	0	0	0	0	0	0	0	0	0	0	0	0	0	0	0	0	0	0	0	0	0	0	0	0	0	0	0	0	0	0	0	0	0	0	0	0	0	0	0	0	0	0	0	0	0	0	0	0	0	0	0	0	0	0	0	0	0	0	0	0	0	0	0	0	0	0	0	0	0	0	0	0	0	0	0	0	0	0	0	0	0	0	0	0	0	0	0	0	0	0	0	0	0	0	0	0	0	0	0	0	0	0	0	0	0	0	0	0	0	0	0	0	0	0	0	0	0	0	0	0	0	0	0	0	0	0	0	0	0	0	0	0	0	0	0	0	0	0	0	0	0	0	0	0	0	0	0	0	0	0	0	0	0	0	0	0	0	0	0	0	0	0	0	0	0	0	0	0	0	0	0	0	0	0	0	0	0	0	0	0	0	0	0	0	0	0	0	0	0	0	0	0	0	0	0	0	0	0	0	0	0	0	0	0	0	0	0	0	0	0	0	0	0	0	0	0	0	0	1	1	1	1	1	1	1	1	1	1	1	1	1	1	1	1	1	1	1	1	1	1	1	1	1	1	1	1	1	1	1	1	1	1	1	1	2	2	3	4	4
87	85	82	80	80	79	79	79	81	83	86	89	93	96	98	100	101	101	101	102	102	102	102	101	101	100	99	97	96	94	92	90	89	87	85	83	81	80	78	76	73	70	67	64	61	59	56	53	51	48	46	44	42	41	41	42	43	44	45	46	48	50	52	54	57	59	62	64	66	66	65	63	61	59	56	54	52	51	50	50	50	52	54	56	58	60	62	64	66	68	70	72	74	76	77	78	79	80	82	83	85	87	88	89	88	87	85	83	80	76	71	67	63	60	57	55	52	49	47	45	43	42	40	40	40	39	39	39	38	37	36	34	33	31	29	28	27	27	27	28	29	29	30	31	32	33	34	36	38	41	44	45	45	44	43	42	41	38	34	30	26	23	22	24	27	28	28	28	28	28	28	27	27	27	27	28	31	34	36	39	42	44	46	48	50	51	53	55	57	59	60	62	63	63	64	65	64	63	61	58	54	49	45	40	36	33	31	31	32	35	37	39	42	44	47	50	52	54	56	58	60	64	68	71	75	78	82	84	86	87	88	89	90	92	93	95	96	95	92	91	89	87	85	82	79	75	73	72	71	68	65	64	64	65	64	63	63	66	68	68	68	68	68	68	67	66	68	71	72	73	72	72	72	72	71	70	69	71	74	76	76	76	77	79	81	81	81	80	79	79	78	78	79	80	83	86	88	90	91	93	95	98	99	100	100	100	100	98	96	95	93	91	89	88	88	88	87	85	82	78	75	72	70	67	65	63	61	59	58	57	56	54	53	51	49	48	46	45	43	42	41	40	39	38	37	35	33	31	29	27	26	25	24	24	24	26	27	28	29	31	32	32	31	31	30	30	29	27	26	27	29	30	31	32	33	33	34	34	33	32	30	28	27	26	26	25	24	24	25	25	25	25	26	27	28	28	29	30	31	32	33	33	33	32	30	28	27	26	24	21	17	12	7	4	2	2	2	1	1	1	1	1	1	1	1	1	1	1	1	0	0	0	0	0	0	0	0	0	0	0	0	0	0	0	0	0	0	0	0	0	0	0	0	0	0	0	0	0	0	0	0	0	0	0	0	0	0	0	0	0	0	0	0	0	0	0	0	0	0	0	0	0	0	0	0	0	0	0	0	1	1	1	1	1	1	1	1	1	1	1	1	1	1	1	1	1	1	1	1	1	1	1	1	1	1	1	1	1	1	1	1	1	1	1	1	1	1	1	1	1	1	1	1	1	1	1	1	1	1	1	1	1	1	1	1	1	1	1	1	1	1	1	1	1	1	1	1	1	1	1	1	1	1	1	1	1	1	1	1	1	0	0	0	0	0	0	0	0	0	0	0	0	0	0	0	0	0	0	0	0	0	0	0	0	0	0	0	0	0	0	0	0	0	0	0	0	0	0	0	0	0	0	0	0	0	0	0	0	0	0	0	0	0	0	0	0	0	0	0	0	0	0	0	0	0	0	0	0	0	0	0	0	0	0	0	0	0	0	0	0	0	0	0	0	0	0	0	0	0	0	0	0	0	0	0	0	0	0	0	0	0	0	0	0	0	0	0	0	0	0	0	0	0	0	0	0	0	0	0	0	0	0	0	0	0	0	0	0	0	0	0	0	0	0	0	0	0	0	0	0	0	0	0	0	0	0	0	0	0	0	0	0	0	0	0	0	0	0	0	0	0	0	0	0	0	0	0	0	0	0	0	0	0	0	0	0	0	0	0	0	0	0	0	0	0	0	0	0	0	0	0	0	0	0	0	0	0	0	0	0	0	0	0	0	0	0	0	0	0	0	0	0	0	0	0	0	0	0	0	0	0	0	0	0	0	0	0	0	0	0	0	0	0	0	0	0	0	0	0	0	0	0	0	0	0	0	0	0	0	0	0	0	0	0	0	0	0	0	0	0	0	0	0	0	0	0	0	0	0	0	0	0	0	0	0	0	0	0	0	0	0	0	0	0	0	0	0	0	0	0	0	0	0	0	0	0	0	0	0	0	0	0	0	0	0	0	0	0	0	0	0	0	0	0	0	0	0	0	0	0	0	0	0	0	0	0	0	0	0	0	0	0	0	0	0	0	0	0	0	0	0	0	0	0	0	0	0	0	0	0	0	0	0	0	0	0	0	0	0	0	0	0	0	0	0	0	0	0	0	0	0	0	0	0	0	0	0	0	0	0	0	0	0	0	0	0	0	0	0	1	1	1	1	1	1	1	1	1	1	1	1	1	1	1	1	1	1	1	1	1	1	1	1	1	1	1	1	1	1	1	1	1	1	1	1	1	2	3	3	4
88	85	83	80	78	78	78	79	80	83	86	89	92	94	96	98	98	99	99	100	100	100	99	99	98	97	96	95	93	92	90	88	86	85	84	82	80	78	76	74	71	69	66	63	60	57	55	52	50	48	45	43	41	39	39	39	40	41	42	43	45	46	48	49	51	54	57	60	63	64	62	60	58	55	53	51	49	48	48	48	49	51	53	56	59	61	63	64	66	67	69	70	72	73	74	75	76	77	79	81	83	85	86	87	87	86	85	82	79	75	71	67	62	58	56	54	51	49	47	45	44	43	42	42	42	42	41	41	41	40	38	37	35	33	31	29	29	28	29	30	31	32	32	33	34	35	36	37	39	42	44	45	45	44	43	42	40	37	33	29	25	23	23	26	28	29	30	30	30	30	30	29	29	28	28	29	32	35	37	40	42	45	47	49	51	53	55	57	59	60	62	64	65	65	66	66	65	63	62	60	56	51	46	42	38	35	33	32	34	36	38	40	42	45	48	51	53	56	58	61	63	67	70	73	76	80	83	86	87	88	89	91	92	93	95	97	96	94	91	90	88	86	82	79	77	74	72	71	70	68	67	67	67	68	67	66	65	68	71	72	73	72	72	72	70	69	70	73	75	76	77	77	77	77	76	74	72	73	76	79	80	80	80	82	83	84	83	82	81	81	81	80	80	81	83	86	88	90	92	94	97	99	100	100	100	100	99	97	95	93	90	88	86	85	85	85	85	83	80	76	73	71	68	66	64	61	59	57	55	55	54	53	51	50	48	46	45	43	42	41	40	38	37	36	35	33	31	29	27	26	25	24	23	23	24	26	27	28	29	30	31	31	30	30	29	29	28	27	26	27	29	31	32	34	35	36	37	37	36	35	33	32	30	29	28	27	26	26	26	27	27	28	28	29	30	31	32	33	34	34	35	35	34	32	30	27	26	24	23	20	15	10	5	3	2	2	1	1	1	1	1	1	1	1	1	1	1	1	1	0	0	0	0	0	0	0	0	0	0	0	0	0	0	0	0	0	0	0	0	0	0	0	0	0	0	0	0	0	0	0	0	0	0	0	0	0	0	0	0	0	0	0	0	0	0	0	0	0	0	0	0	0	0	0	0	0	0	1	1	1	1	1	1	1	1	1	1	1	1	1	1	1	1	1	1	1	1	1	1	2	2	2	2	2	1	1	1	1	1	1	1	1	1	1	1	1	1	1	1	1	1	1	1	1	1	1	1	1	1	1	1	1	1	1	1	1	1	1	1	1	1	1	1	1	1	1	1	1	1	1	1	1	1	1	1	1	1	1	1	1	0	0	0	0	0	0	0	0	0	0	0	0	0	0	0	0	0	0	0	0	0	0	0	0	0	0	0	0	0	0	0	0	0	0	0	0	0	0	0	0	0	0	0	0	0	0	0	0	0	0	0	0	0	0	0	0	0	0	0	0	0	0	0	0	0	0	0	0	0	0	0	0	0	0	0	0	0	0	0	0	0	0	0	0	0	0	0	0	0	0	0	0	0	0	0	0	0	0	0	0	0	0	0	0	0	0	0	0	0	0	0	0	0	0	0	0	0	0	0	0	0	0	0	0	0	0	0	0	0	0	0	0	0	0	0	0	0	0	0	0	0	0	0	0	0	0	0	0	0	0	0	0	0	0	0	0	0	0	0	0	0	0	0	0	0	0	0	0	0	0	0	0	0	0	0	0	0	0	0	0	0	0	0	0	0	0	0	0	0	0	0	0	0	0	0	0	0	0	0	0	0	0	0	0	0	0	0	0	0	0	0	0	0	0	0	0	0	0	0	0	0	0	0	0	0	0	0	0	0	0	0	0	0	0	0	0	0	0	0	0	0	0	0	0	0	0	0	0	0	0	0	0	0	0	0	0	0	0	0	0	0	0	0	0	0	0	0	0	0	0	0	0	0	0	0	0	0	0	0	0	0	0	0	0	0	0	0	0	0	0	0	0	0	0	0	0	0	0	0	0	0	0	0	0	0	0	0	0	0	0	0	0	0	0	0	0	0	0	0	0	0	0	0	0	0	0	0	0	0	0	0	0	0	0	0	0	0	0	0	0	0	0	0	0	0	0	0	0	0	0	0	0	0	0	0	0	0	0	0	0	0	0	0	0	0	0	0	0	0	0	0	0	0	0	0	0	0	0	0	0	0	0	0	0	0	0	0	0	0	1	1	1	1	1	1	1	1	1	1	1	1	1	1	1	1	1	1	1	1	1	1	1	1	1	1	1	1	1	1	1	1	1	1	1	1	1	2	3	4	5
89	86	83	80	78	77	77	78	80	82	85	88	91	93	95	96	96	97	97	97	97	97	97	96	96	94	93	92	90	89	87	86	84	83	82	80	79	77	75	72	70	67	64	61	59	56	54	52	49	46	44	42	40	37	36	37	38	38	39	40	42	43	44	46	48	51	54	56	60	61	60	57	55	53	50	49	48	47	47	47	48	50	52	56	59	61	62	64	65	66	67	68	69	71	71	72	72	74	75	78	81	83	84	85	86	85	84	81	78	74	71	67	62	58	55	53	51	49	47	46	45	45	44	44	44	44	44	44	43	42	41	39	36	34	33	31	30	30	31	32	34	35	35	36	36	37	38	39	41	43	45	45	45	44	43	41	38	35	31	28	24	23	24	27	29	30	31	32	32	32	32	31	31	30	29	30	32	35	37	40	43	46	48	51	53	55	57	59	60	62	65	66	67	68	68	67	66	64	63	61	57	53	47	43	40	38	35	33	35	37	39	41	43	45	48	51	54	57	60	63	66	69	72	75	78	82	85	87	88	89	91	92	93	95	96	97	96	93	91	89	87	84	80	78	75	73	71	70	70	69	68	69	70	71	70	68	68	71	74	75	76	76	76	75	73	71	72	75	78	80	81	81	81	81	80	77	75	76	79	82	83	83	83	84	85	85	84	83	83	84	84	83	82	83	85	86	88	90	93	95	98	99	100	100	100	99	98	96	93	90	87	85	84	83	83	83	82	80	78	75	72	69	67	64	62	60	58	56	54	54	53	51	50	48	46	45	43	41	40	39	38	37	35	34	33	31	30	27	25	24	23	22	22	22	24	25	27	28	29	30	30	30	29	29	28	28	27	26	26	28	30	32	34	36	38	39	40	41	41	39	38	36	34	32	30	29	28	27	27	28	29	29	30	31	32	33	34	35	36	36	36	35	34	31	29	26	24	23	20	16	12	7	4	2	2	1	1	1	1	1	1	1	1	1	1	1	1	1	1	0	0	0	0	0	0	0	0	0	0	0	0	0	0	0	0	0	0	0	0	0	0	0	0	0	0	0	0	0	0	0	0	0	0	0	0	0	0	0	0	0	0	0	0	0	0	0	0	0	0	0	0	0	0	0	0	0	1	1	1	1	1	1	1	1	1	1	1	1	1	1	1	1	1	2	2	2	2	2	2	2	2	2	2	2	2	2	2	2	1	1	1	1	1	1	1	1	1	1	1	1	1	1	1	1	1	1	1	1	1	1	1	1	1	1	1	1	1	1	1	1	1	1	1	1	1	1	1	1	1	1	1	1	1	1	1	1	1	1	1	1	1	0	0	0	0	0	0	0	0	0	0	0	0	0	0	0	0	0	0	0	0	0	0	0	0	0	0	0	0	0	0	0	0	0	0	0	0	0	0	0	0	0	0	0	0	0	0	0	0	0	0	0	0	0	0	0	0	0	0	0	0	0	0	0	0	0	0	0	0	0	0	0	0	0	0	0	0	0	0	0	0	0	0	0	0	0	0	0	0	0	0	0	0	0	0	0	0	0	0	0	0	0	0	0	0	0	0	0	0	0	0	0	0	0	0	0	0	0	0	0	0	0	0	0	0	0	0	0	0	0	0	0	0	0	0	0	0	0	0	0	0	0	0	0	0	0	0	0	0	0	0	0	0	0	0	0	0	0	0	0	0	0	0	0	0	0	0	0	0	0	0	0	0	0	0	0	0	0	0	0	0	0	0	0	0	0	0	0	0	0	0	0	0	0	0	0	0	0	0	0	0	0	0	0	0	0	0	0	0	0	0	0	0	0	0	0	0	0	0	0	0	0	0	0	0	0	0	0	0	0	0	0	0	0	0	0	0	0	0	0	0	0	0	0	0	0	0	0	0	0	0	0	0	0	0	0	0	0	0	0	0	0	0	0	0	0	0	0	0	0	0	0	0	0	0	0	0	0	0	0	0	0	0	0	0	0	0	0	0	0	0	0	0	0	0	0	0	0	0	0	0	0	0	0	0	0	0	0	0	0	0	0	0	0	0	0	0	0	0	0	0	0	0	0	0	0	0	0	0	0	0	0	0	0	0	0	0	0	0	0	0	0	0	0	0	0	0	0	0	0	0	0	0	0	0	0	0	0	0	0	0	0	0	0	0	0	0	0	0	0	0	0	0	0	0	0	0	0	0	0	0	0	0	0	0	0	0	0	0	1	1	1	1	1	1	1	1	1	1	1	1	1	1	1	1	1	1	1	1	1	1	1	1	1	1	1	1	1	1	1	1	1	1	1	1	1	2	3	4	5
89	86	83	81	78	76	76	77	79	82	84	87	89	91	92	93	94	94	94	94	94	94	94	93	93	92	90	89	88	86	85	84	83	82	80	79	77	75	73	71	68	65	62	60	58	55	53	51	48	45	43	40	38	36	34	34	35	35	36	37	39	40	42	43	45	48	51	54	58	59	57	55	53	50	49	47	46	45	45	46	47	49	51	55	58	60	62	63	64	65	65	66	67	68	68	68	69	70	73	76	78	81	83	84	84	84	82	79	76	72	69	66	62	58	55	54	52	50	48	47	47	47	46	46	46	46	46	46	45	45	43	41	38	36	34	33	32	33	34	35	36	37	38	38	39	39	40	42	43	45	46	46	45	44	42	40	37	34	30	27	25	24	26	28	30	32	34	34	34	34	34	34	33	32	31	31	33	35	37	40	43	46	49	52	54	56	58	60	62	65	67	69	70	70	70	69	68	66	65	63	60	55	49	44	42	39	36	35	36	38	40	42	44	45	48	51	55	58	61	64	67	70	73	76	80	83	85	87	89	90	92	93	94	94	95	96	95	93	90	88	86	83	80	77	75	73	71	70	70	70	70	71	73	73	73	71	70	73	76	77	78	78	78	77	75	74	76	79	82	84	84	85	84	84	83	80	78	78	81	85	86	86	85	86	87	88	87	86	86	87	87	86	85	86	87	88	90	92	94	96	99	100	100	99	99	98	96	94	91	88	85	84	82	81	81	81	80	78	75	73	70	67	65	63	61	59	57	55	54	53	52	50	48	47	45	43	41	40	38	37	36	35	33	32	31	29	28	26	23	22	22	22	22	22	23	25	26	27	28	29	29	29	28	28	27	27	26	26	27	29	31	33	35	38	41	43	44	45	45	44	42	39	37	35	33	32	30	29	29	30	31	31	32	33	34	35	36	37	38	38	37	35	33	31	28	25	23	20	17	13	9	5	3	2	2	1	1	1	1	1	1	1	1	1	1	1	1	1	1	0	0	0	0	0	0	0	0	0	0	0	0	0	0	0	0	0	0	0	0	0	0	0	0	0	0	0	0	0	0	0	0	0	0	0	0	0	0	0	0	0	0	0	0	0	0	0	0	0	0	0	0	0	0	0	0	1	1	1	1	1	1	1	1	1	1	1	1	1	1	1	2	2	2	2	2	2	2	2	2	3	3	3	3	3	2	2	2	2	2	1	1	1	1	1	1	1	1	1	1	1	1	1	1	1	1	1	1	1	1	1	1	1	1	1	1	1	1	1	1	1	1	1	1	1	1	1	1	1	1	1	1	1	1	1	1	1	1	1	1	1	1	0	0	0	0	0	0	0	0	0	0	0	0	0	0	0	0	0	0	0	0	0	0	0	0	0	0	0	0	0	0	0	0	0	0	0	0	0	0	0	0	0	0	0	0	0	0	0	0	0	0	0	0	0	0	0	0	0	0	0	0	0	0	0	0	0	0	0	0	0	0	0	0	0	0	0	0	0	0	0	0	0	0	0	0	0	0	0	0	0	0	0	0	0	0	0	0	0	0	0	0	0	0	0	0	0	0	0	0	0	0	0	0	0	0	0	0	0	0	0	0	0	0	0	0	0	0	0	0	0	0	0	0	0	0	0	0	0	0	0	0	0	0	0	0	0	0	0	0	0	0	0	0	0	0	0	0	0	0	0	0	0	0	0	0	0	0	0	0	0	0	0	0	0	0	0	0	0	0	0	0	0	0	0	0	0	0	0	0	0	0	0	0	0	0	0	0	0	0	0	0	0	0	0	0	0	0	0	0	0	0	0	0	0	0	0	0	0	0	0	0	0	0	0	0	0	0	0	0	0	0	0	0	0	0	0	0	0	0	0	0	0	0	0	0	0	0	0	0	0	0	0	0	0	0	0	0	0	0	0	0	0	0	0	0	0	0	0	0	0	0	0	0	0	0	0	0	0	0	0	0	0	0	0	0	0	0	0	0	0	0	0	0	0	0	0	0	0	0	0	0	0	0	0	0	0	0	0	0	0	0	0	0	0	0	0	0	0	0	0	0	0	0	0	0	0	0	0	0	0	0	0	0	0	0	0	0	0	0	0	0	0	0	0	0	0	0	0	0	0	0	0	0	0	0	0	0	0	0	0	0	0	0	0	0	0	0	0	0	0	0	0	0	0	0	0	0	0	0	0	0	0	0	0	0	0	0	0	0	1	1	1	1	1	1	1	1	1	1	1	1	1	1	1	1	1	1	1	1	1	1	1	1	1	1	1	1	1	1	1	1	1	1	1	1	1	2	3	4	5
89	87	84	81	78	76	76	76	78	81	83	86	88	89	90	91	91	92	92	92	92	91	91	90	90	89	87	86	85	84	83	82	81	80	79	77	76	74	71	69	67	64	61	59	57	54	52	50	47	44	41	39	36	34	32	32	32	32	33	34	35	37	39	41	44	47	50	53	57	57	55	53	51	49	48	46	45	44	44	45	47	48	51	54	57	59	61	62	63	63	63	63	64	65	65	66	67	68	71	74	77	79	81	82	82	81	79	76	73	70	67	64	61	58	55	53	52	50	49	49	48	48	48	48	48	48	48	47	47	46	45	42	39	37	36	35	35	35	36	37	38	39	40	40	41	41	42	44	45	46	47	46	45	43	41	39	37	34	30	27	26	26	27	29	32	34	36	36	37	37	36	36	35	34	32	32	33	36	38	40	44	47	50	52	55	57	59	61	64	67	69	71	72	73	73	72	70	68	66	64	62	57	51	46	42	40	38	36	37	40	42	43	44	45	47	51	55	58	61	64	67	70	74	77	80	83	86	88	89	91	93	94	94	94	94	94	94	92	90	88	85	83	80	77	75	73	72	71	71	71	72	74	76	76	75	74	73	75	77	79	80	80	80	79	77	78	79	82	85	87	87	88	87	87	85	82	80	81	84	87	89	89	88	88	89	90	89	89	88	89	89	89	88	88	89	91	92	94	96	98	99	100	100	99	99	97	95	92	88	85	83	82	80	79	79	78	77	76	73	71	68	66	63	61	59	58	57	55	54	53	51	49	47	45	44	42	40	38	37	36	34	33	31	30	29	27	26	24	22	22	22	22	22	22	22	24	26	27	27	28	28	28	27	27	26	26	26	27	28	30	31	34	37	40	43	45	48	49	48	47	45	42	39	37	35	34	33	32	32	32	33	33	34	35	36	37	39	40	40	39	37	34	32	30	27	25	22	19	15	11	7	4	2	2	2	1	1	1	1	1	1	1	1	1	1	1	1	1	1	0	0	0	0	0	0	0	0	0	0	0	0	0	0	0	0	0	0	0	0	0	0	0	0	0	0	0	0	0	0	0	0	0	0	0	0	0	0	0	0	0	0	0	0	0	0	0	0	0	0	0	0	0	0	0	1	1	1	1	1	1	1	1	1	1	1	1	1	1	2	2	2	2	2	2	3	3	3	4	4	5	5	4	4	3	3	2	2	2	2	2	2	2	2	1	1	1	1	1	1	1	1	1	1	1	1	1	1	1	1	1	1	1	1	1	1	1	1	1	1	1	1	1	1	1	1	1	1	1	1	1	1	1	1	1	1	1	1	1	1	1	1	1	0	0	0	0	0	0	0	0	0	0	0	0	0	0	0	0	0	0	0	0	0	0	0	0	0	0	0	0	0	0	0	0	0	0	0	0	0	0	0	0	0	0	0	0	0	0	0	0	0	0	0	0	0	0	0	0	0	0	0	0	0	0	0	0	0	0	0	0	0	0	0	0	0	0	0	0	0	0	0	0	0	0	0	0	0	0	0	0	0	0	0	0	0	0	0	0	0	0	0	0	0	0	0	0	0	0	0	0	0	0	0	0	0	0	0	0	0	0	0	0	0	0	0	0	0	0	0	0	0	0	0	0	0	0	0	0	0	0	0	0	0	0	0	0	0	0	0	0	0	0	0	0	0	0	0	0	0	0	0	0	0	0	0	0	0	0	0	0	0	0	0	0	0	0	0	0	0	0	0	0	0	0	0	0	0	0	0	0	0	0	0	0	0	0	0	0	0	0	0	0	0	0	0	0	0	0	0	0	0	0	0	0	0	0	0	0	0	0	0	0	0	0	0	0	0	0	0	0	0	0	0	0	0	0	0	0	0	0	0	0	0	0	0	0	0	0	0	0	0	0	0	0	0	0	0	0	0	0	0	0	0	0	0	0	0	0	0	0	0	0	0	0	0	0	0	0	0	0	0	0	0	0	0	0	0	0	0	0	0	0	0	0	0	0	0	0	0	0	0	0	0	0	0	0	0	0	0	0	0	0	0	0	0	0	0	0	0	0	0	0	0	0	0	0	0	0	0	0	0	0	0	0	0	0	0	0	0	0	0	0	0	0	0	0	0	0	0	0	0	0	0	0	0	0	0	0	0	0	0	0	0	0	0	0	0	0	0	0	0	0	0	0	0	0	0	0	0	0	0	0	0	0	0	0	0	0	0	1	1	1	1	1	1	1	1	1	1	1	1	1	1	1	1	1	1	1	1	1	1	1	1	1	1	1	1	1	1	1	1	1	1	1	1	1	2	3	4	6
90	87	84	82	79	76	75	76	78	80	82	84	86	87	88	89	89	89	89	89	89	88	88	87	87	86	85	84	83	82	82	81	80	78	77	76	74	72	70	67	65	63	60	58	56	54	51	49	46	43	40	37	34	32	30	29	29	29	30	31	33	34	37	39	43	46	49	52	55	55	54	52	50	48	47	45	44	43	43	44	46	48	50	52	55	57	58	60	60	61	61	60	61	62	62	63	65	67	70	73	75	77	80	81	80	78	76	73	70	68	65	62	60	57	54	53	51	50	50	50	50	50	50	50	50	49	49	48	47	46	45	43	41	38	37	36	37	37	38	40	41	42	42	43	43	44	44	45	46	47	47	47	44	42	40	38	36	33	30	28	27	28	30	32	34	37	38	39	39	39	38	37	36	35	33	32	34	36	38	41	44	47	51	53	55	57	60	62	65	68	71	73	74	74	75	74	72	70	67	65	63	59	53	47	44	42	40	38	39	41	43	44	45	46	48	51	54	57	60	63	67	70	73	76	80	83	86	88	89	91	93	93	93	93	93	93	92	91	89	87	85	83	81	78	76	74	73	73	72	73	74	77	79	79	78	76	75	76	78	81	83	83	82	81	80	81	83	85	87	89	90	90	89	89	87	85	83	84	86	89	91	91	91	91	92	92	92	91	91	92	92	91	91	91	92	93	95	96	97	99	100	100	99	99	98	96	93	89	86	83	81	80	78	77	77	76	75	74	71	69	66	64	62	60	59	57	56	55	53	52	50	48	46	44	43	41	39	37	36	35	33	31	30	28	27	26	24	23	22	22	22	22	22	22	22	23	24	26	26	27	27	26	26	25	25	25	26	28	29	30	32	34	38	41	44	46	49	50	50	49	47	44	42	40	38	37	36	36	35	35	35	36	36	37	38	40	41	41	40	38	36	34	31	29	26	24	21	18	14	10	6	3	2	2	1	1	1	1	1	1	1	1	1	1	1	1	1	1	1	0	0	0	0	0	0	0	0	0	0	0	0	0	0	0	0	0	0	0	0	0	0	0	0	0	0	0	0	0	0	0	0	0	0	0	0	0	0	0	0	0	0	0	0	0	0	0	0	0	0	0	0	0	0	1	1	1	1	1	1	1	1	1	1	1	1	1	1	2	2	2	3	3	4	4	5	6	7	7	8	8	8	8	8	7	5	4	3	3	3	2	2	2	2	2	2	2	2	2	1	1	1	1	2	2	2	1	1	1	1	1	1	1	1	1	1	1	1	1	1	1	1	1	1	1	1	1	1	1	1	1	1	1	1	1	1	1	1	1	1	1	1	1	0	0	0	0	0	0	0	0	0	0	0	0	0	0	0	0	0	0	0	0	0	0	0	0	0	0	0	0	0	0	0	0	0	0	0	0	0	0	0	0	0	0	0	0	0	0	0	0	0	0	0	0	0	0	0	0	0	0	0	0	0	0	0	0	0	0	0	0	0	0	0	0	0	0	0	0	0	0	0	0	0	0	0	0	0	0	0	0	0	0	0	0	0	0	0	0	0	0	0	0	0	0	0	0	0	0	0	0	0	0	0	0	0	0	0	0	0	0	0	0	0	0	0	0	0	0	0	0	0	0	0	0	0	0	0	0	0	0	0	0	0	0	0	0	0	0	0	0	0	0	0	0	0	0	0	0	0	0	0	0	0	0	0	0	0	0	0	0	0	0	0	0	0	0	0	0	0	0	0	0	0	0	0	0	0	0	0	0	0	0	0	0	0	0	0	0	0	0	0	0	0	0	0	0	0	0	0	0	0	0	0	0	0	0	0	0	0	0	0	0	0	0	0	0	0	0	0	0	0	0	0	0	0	0	0	0	0	0	0	0	0	0	0	0	0	0	0	0	0	0	0	0	0	0	0	0	0	0	0	0	0	0	0	0	0	0	0	0	0	0	0	0	0	0	0	0	0	0	0	0	0	0	0	0	0	0	0	0	0	0	0	0	0	0	0	0	0	0	0	0	0	0	0	0	0	0	0	0	0	0	0	0	0	0	0	0	0	0	0	0	0	0	0	0	0	0	0	0	0	0	0	0	0	0	0	0	0	0	0	0	0	0	0	0	0	0	0	0	0	0	0	0	0	0	0	0	0	0	0	0	0	0	0	0	0	0	0	0	0	0	0	0	0	0	0	0	0	0	0	0	0	0	0	0	0	0	0	1	1	1	1	1	1	1	1	1	1	1	1	1	1	1	1	1	1	1	1	1	1	1	1	1	1	1	1	1	1	1	1	1	1	1	1	1	2	3	4	6
90	87	84	82	79	76	75	75	77	79	80	82	84	85	86	86	86	87	87	87	86	86	85	85	84	84	83	82	82	81	80	79	78	77	76	74	73	70	68	66	64	62	59	57	55	53	51	48	45	42	39	36	33	31	29	27	27	27	28	29	30	32	35	38	41	44	48	51	54	54	52	51	49	47	46	44	42	41	41	43	45	47	49	51	52	54	55	56	57	57	57	57	58	59	60	61	64	67	69	71	74	76	78	79	78	75	73	70	67	65	63	60	58	56	54	52	51	51	51	52	52	52	51	51	51	51	50	49	48	47	46	44	41	40	39	38	38	39	41	42	43	44	44	45	45	46	46	46	47	48	48	46	43	41	39	38	35	33	30	30	31	32	34	36	38	40	41	41	41	41	40	39	38	36	34	33	34	36	38	41	44	48	51	54	56	58	61	64	67	70	72	74	74	75	75	75	73	70	68	66	63	60	55	49	45	44	43	41	40	42	44	45	47	48	50	53	56	57	60	63	66	69	72	76	79	82	85	87	89	91	92	92	93	93	93	93	92	91	90	88	86	84	82	80	78	76	74	74	74	74	76	78	81	82	81	79	77	78	80	83	85	85	84	83	83	84	86	89	90	91	91	91	91	90	89	88	87	88	89	91	93	94	93	94	94	95	94	94	94	94	94	94	94	93	94	95	97	98	98	99	100	99	99	99	97	94	91	88	84	82	79	78	76	75	74	74	73	71	69	67	64	62	60	59	58	57	55	54	53	52	49	48	46	44	42	40	38	37	36	34	32	30	28	27	26	25	23	22	21	21	21	21	21	21	21	22	23	24	24	25	25	24	24	24	24	25	26	28	30	31	33	35	39	42	45	47	49	51	52	51	49	46	44	43	41	40	39	39	39	38	38	39	39	40	41	42	43	42	40	37	35	33	31	28	25	23	21	18	13	9	5	3	2	2	1	1	1	1	1	1	1	1	1	1	1	1	1	1	1	0	0	0	0	0	0	0	0	0	0	0	0	0	0	0	0	0	0	0	0	0	0	0	0	0	0	0	0	0	0	0	0	0	0	0	0	0	0	0	0	0	0	0	0	0	0	0	0	0	0	0	0	0	1	1	1	1	1	1	1	1	1	1	1	1	1	2	2	2	3	3	4	6	7	8	10	11	11	12	12	12	13	13	12	12	11	9	7	6	4	4	3	3	2	3	3	2	2	2	2	2	2	2	2	2	2	2	2	2	1	1	1	1	1	1	1	1	1	1	1	1	1	1	1	1	1	1	1	1	1	1	1	1	1	1	1	1	1	1	1	1	1	1	0	0	0	0	0	0	0	0	0	0	0	0	0	0	0	0	0	0	0	0	0	0	0	0	0	0	0	0	0	0	0	0	0	0	0	0	0	0	0	0	0	0	0	0	0	0	0	0	0	0	0	0	0	0	0	0	0	0	0	0	0	0	0	0	0	0	0	0	0	0	0	0	0	0	0	0	0	0	0	0	0	0	0	0	0	0	0	0	0	0	0	0	0	0	0	0	0	0	0	0	0	0	0	0	0	0	0	0	0	0	0	0	0	0	0	0	0	0	0	0	0	0	0	0	0	0	0	0	0	0	0	0	0	0	0	0	0	0	0	0	0	0	0	0	0	0	0	0	0	0	0	0	0	0	0	0	0	0	0	0	0	0	0	0	0	0	0	0	0	0	0	0	0	0	0	0	0	0	0	0	0	0	0	0	0	0	0	0	0	0	0	0	0	0	0	0	0	0	0	0	0	0	0	0	0	0	0	0	0	0	0	0	0	0	0	0	0	0	0	0	0	0	0	0	0	0	0	0	0	0	0	0	0	0	0	0	0	0	0	0	0	0	0	0	0	0	0	0	0	0	0	0	0	0	0	0	0	0	0	0	0	0	0	0	0	0	0	0	0	0	0	0	0	0	0	0	0	0	0	0	0	0	0	0	0	0	0	0	0	0	0	0	0	0	0	0	0	0	0	0	0	0	0	0	0	0	0	0	0	0	0	0	0	0	0	0	0	0	0	0	0	0	0	0	0	0	0	0	0	0	0	0	0	0	0	0	0	0	0	0	0	0	0	0	0	0	0	0	0	0	0	0	0	0	0	0	0	0	0	0	0	0	0	0	0	0	0	0	0	0	0	0	0	0	0	0	0	0	0	0	0	0	0	0	0	0	0	1	1	1	1	1	1	1	1	1	1	1	1	1	1	1	1	1	1	1	1	1	1	1	1	1	1	1	1	1	1	1	1	1	1	1	1	1	2	3	4	6
90	87	84	82	79	76	74	73	74	76	78	79	81	82	82	83	83	84	84	84	84	83	83	83	83	82	81	80	80	79	78	77	76	75	74	72	71	69	67	64	62	60	58	56	54	52	50	47	44	40	37	34	32	30	28	26	25	25	26	27	28	30	33	36	39	43	46	50	52	52	51	50	48	46	44	42	41	39	40	42	43	45	47	48	50	50	51	52	53	53	53	54	55	57	58	60	63	66	68	70	72	75	77	77	75	72	70	67	64	62	60	58	56	54	52	51	51	52	53	53	53	53	53	53	53	52	51	50	48	47	46	44	42	41	40	40	40	41	43	44	46	47	47	47	47	47	47	48	48	48	47	44	42	40	38	37	34	32	31	33	35	36	38	39	41	42	43	43	43	42	42	40	38	36	34	33	35	37	39	41	45	49	52	55	57	59	62	65	68	71	73	74	75	76	76	75	73	71	68	66	64	61	56	51	47	46	44	43	42	43	45	47	49	51	54	56	58	59	61	63	66	69	72	75	78	82	84	86	88	90	91	92	92	93	93	93	93	93	92	90	88	86	83	81	79	78	76	75	75	76	77	80	82	84	84	82	80	80	82	85	86	87	86	86	86	87	90	92	92	92	93	93	93	92	91	91	90	91	92	93	95	96	96	96	97	97	97	97	97	97	96	96	96	96	96	98	99	99	99	99	99	99	99	98	96	93	89	86	83	80	78	75	74	73	72	72	71	69	67	65	62	60	59	58	57	56	55	54	53	51	49	48	46	44	42	40	38	37	36	34	32	30	28	26	25	23	22	21	21	21	21	21	20	20	20	21	21	22	22	22	22	22	23	23	24	25	26	28	30	32	34	37	40	43	45	47	49	51	53	53	51	48	47	45	44	43	42	42	42	42	42	42	42	43	43	44	43	41	39	37	35	33	30	27	24	22	20	17	12	8	4	2	2	2	1	1	1	1	1	1	1	1	1	1	1	1	1	1	1	0	0	0	0	0	0	0	0	0	0	0	0	0	0	0	0	0	0	0	0	0	0	0	0	0	0	0	0	0	0	0	0	0	0	0	0	0	0	0	0	0	0	0	0	0	0	0	0	0	0	0	0	1	1	1	1	1	1	1	1	1	1	1	1	1	2	2	2	3	5	6	8	10	12	13	14	15	16	16	17	18	18	18	17	17	16	15	13	12	10	9	7	6	4	4	4	4	3	3	3	3	2	2	3	3	3	2	2	2	2	2	2	1	1	1	1	1	1	1	1	1	1	1	1	1	1	1	1	1	1	1	1	1	1	1	1	1	1	1	1	1	1	1	1	0	0	0	0	0	0	0	0	0	0	0	0	0	0	0	0	0	0	0	0	0	0	0	0	0	0	0	0	0	0	0	0	0	0	0	0	0	0	0	0	0	0	0	0	0	0	0	0	0	0	0	0	0	0	0	0	0	0	0	0	0	0	0	0	0	0	0	0	0	0	0	0	0	0	0	0	0	0	0	0	0	0	0	0	0	0	0	0	0	0	0	0	0	0	0	0	0	0	0	0	0	0	0	0	0	0	0	0	0	0	0	0	0	0	0	0	0	0	0	0	0	0	0	0	0	0	0	0	0	0	0	0	0	0	0	0	0	0	0	0	0	0	0	0	0	0	0	0	0	0	0	0	0	0	0	0	0	0	0	0	0	0	0	0	0	0	0	0	0	0	0	0	0	0	0	0	0	0	0	0	0	0	0	0	0	0	0	0	0	0	0	0	0	0	0	0	0	0	0	0	0	0	0	0	0	0	0	0	0	0	0	0	0	0	0	0	0	0	0	0	0	0	0	0	0	0	0	0	0	0	0	0	0	0	0	0	0	0	0	0	0	0	0	0	0	0	0	0	0	0	0	0	0	0	0	0	0	0	0	0	0	0	0	0	0	0	0	0	0	0	0	0	0	0	0	0	0	0	0	0	0	0	0	0	0	0	0	0	0	0	0	0	0	0	0	0	0	0	0	0	0	0	0	0	0	0	0	0	0	0	0	0	0	0	0	0	0	0	0	0	0	0	0	0	0	0	0	0	0	0	0	0	0	0	0	0	0	0	0	0	0	0	0	0	0	0	0	0	0	0	0	0	0	0	0	0	0	0	0	0	0	0	0	0	0	0	0	0	0	0	0	0	0	0	0	0	0	0	0	0	0	0	0	0	0	0	1	1	1	1	1	1	1	1	1	1	1	1	1	1	1	1	1	1	1	1	1	1	1	1	1	1	1	1	1	1	1	1	1	1	1	1	1	2	3	4	6
89	86	84	81	78	75	73	72	72	74	75	76	77	78	79	79	79	80	81	81	81	80	80	81	81	80	79	79	78	77	76	75	74	73	72	70	69	67	65	63	61	59	57	55	53	51	48	45	42	39	36	33	30	28	27	25	24	23	24	25	27	29	31	34	38	42	45	49	51	51	50	48	47	45	43	41	39	38	39	40	42	43	45	46	47	48	48	48	49	50	50	51	52	54	57	59	62	65	67	70	72	74	76	74	72	70	67	64	61	59	57	55	54	52	51	52	52	53	54	54	54	54	54	55	55	54	53	51	50	48	47	45	44	43	42	42	42	43	45	46	48	49	49	49	49	48	48	49	49	48	45	42	40	39	38	36	34	33	34	36	38	39	41	42	43	44	44	44	43	43	43	41	39	36	34	34	35	37	39	41	45	49	53	56	58	61	63	66	70	72	73	74	76	77	77	75	74	71	69	66	64	61	57	53	50	48	46	44	43	44	46	48	51	53	56	58	60	61	62	64	67	69	72	75	78	81	83	86	87	89	90	91	92	93	94	95	95	95	94	93	91	88	85	82	81	79	78	77	77	77	79	82	84	86	86	85	83	83	85	87	88	89	88	88	89	90	93	95	95	95	95	95	95	94	94	93	93	94	95	96	96	97	98	98	99	99	99	99	99	98	98	98	98	98	99	99	100	100	99	99	99	99	99	97	95	91	88	85	82	79	76	74	72	71	70	70	69	67	65	63	61	59	58	57	56	55	54	53	52	51	49	48	46	44	42	40	39	38	37	35	33	31	28	26	24	23	22	21	21	20	20	20	20	19	19	20	20	20	21	21	21	22	23	24	25	26	27	29	31	33	35	38	41	43	46	48	50	52	54	55	53	51	49	47	46	45	45	45	45	44	44	44	45	45	45	44	43	41	39	37	35	33	30	26	23	21	19	15	10	6	3	2	2	1	1	1	1	1	1	1	1	1	1	1	1	1	1	1	1	0	0	0	0	0	0	0	0	0	0	0	0	0	0	0	0	0	0	0	0	0	0	0	0	0	0	0	0	0	0	0	0	0	0	0	0	0	0	0	0	0	0	0	0	0	0	0	0	0	0	1	1	1	1	1	1	1	1	1	1	1	1	1	1	2	2	3	4	6	8	10	12	14	16	18	19	20	20	21	22	23	23	23	23	22	21	20	19	17	16	15	14	12	11	10	9	8	6	5	4	4	3	3	3	3	3	3	3	3	2	2	2	2	2	1	1	1	1	1	1	1	1	1	1	1	1	1	1	1	1	1	1	1	1	1	1	1	1	1	1	1	1	1	1	0	0	0	0	0	0	0	0	0	0	0	0	0	0	0	0	0	0	0	0	0	0	0	0	0	0	0	0	0	0	0	0	0	0	0	0	0	0	0	0	0	0	0	0	0	0	0	0	0	0	0	0	0	0	0	0	0	0	0	0	0	0	0	0	0	0	0	0	0	0	0	0	0	0	0	0	0	0	0	0	0	0	0	0	0	0	0	0	0	0	0	0	0	0	0	0	0	0	0	0	0	0	0	0	0	0	0	0	0	0	0	0	0	0	0	0	0	0	0	0	0	0	0	0	0	0	0	0	0	0	0	0	0	0	0	0	0	0	0	0	0	0	0	0	0	0	0	0	0	0	0	0	0	0	0	0	0	0	0	0	0	0	0	0	0	0	0	0	0	0	0	0	0	0	0	0	0	0	0	0	0	0	0	0	0	0	0	0	0	0	0	0	0	0	0	0	0	0	0	0	0	0	0	0	0	0	0	0	0	0	0	0	0	0	0	0	0	0	0	0	0	0	0	0	0	0	0	0	0	0	0	0	0	0	0	0	0	0	0	0	0	0	0	0	0	0	0	0	0	0	0	0	0	0	0	0	0	0	0	0	0	0	0	0	0	0	0	0	0	0	0	0	0	0	0	0	0	0	0	0	0	0	0	0	0	0	0	0	0	0	0	0	0	0	0	0	0	0	0	0	0	0	0	0	0	0	0	0	0	0	0	0	0	0	0	0	0	0	0	0	0	0	0	0	0	0	0	0	0	0	0	0	0	0	0	0	0	0	0	0	0	0	0	0	0	0	0	0	0	0	0	0	0	0	0	0	0	0	0	0	0	0	0	0	0	0	0	0	0	0	0	0	0	0	0	0	0	0	0	0	0	0	0	0	0	0	1	1	1	1	1	1	1	1	1	1	1	1	1	1	1	1	1	1	1	1	1	1	1	1	1	1	1	1	1	1	1	1	1	1	1	1	1	2	3	4	5
88	85	82	79	76	73	72	71	71	72	73	73	74	74	74	75	75	76	77	78	78	78	78	79	79	78	78	77	76	75	74	73	72	71	70	68	67	66	64	61	59	57	55	53	52	50	47	44	41	38	35	32	29	27	25	24	23	23	23	23	25	27	30	33	37	40	44	47	49	49	48	46	45	43	41	39	37	36	37	39	40	42	43	44	45	46	46	46	47	47	48	49	50	53	56	59	62	64	67	69	71	73	73	71	69	66	64	61	58	56	54	53	51	51	51	52	53	54	55	55	56	56	56	57	57	57	55	53	52	50	48	46	45	44	44	44	44	45	46	48	50	50	50	51	50	50	50	50	49	47	43	41	39	38	37	35	35	36	37	39	41	42	44	45	45	46	46	45	45	45	44	42	40	37	35	35	37	38	40	42	46	50	54	57	60	62	65	68	71	73	74	75	77	78	77	76	74	71	69	66	64	61	58	55	53	50	47	45	45	46	48	49	52	54	57	59	61	63	65	66	68	70	72	74	77	80	83	85	87	89	90	92	93	94	95	96	96	97	96	95	93	90	87	84	82	81	80	79	79	79	81	84	86	88	88	88	86	86	87	89	90	91	91	91	92	94	96	98	98	97	97	97	97	96	96	96	96	97	97	97	98	98	98	99	99	100	100	100	100	100	99	99	100	100	100	100	100	100	99	99	99	99	98	96	94	90	87	84	82	79	76	73	71	70	69	68	67	65	63	61	59	58	57	56	55	54	53	52	51	50	49	48	46	44	42	41	40	39	38	37	34	32	29	27	25	23	21	21	21	20	19	19	19	19	19	19	20	20	21	21	21	22	24	25	26	27	29	30	32	34	37	39	42	44	46	48	50	52	54	56	55	52	51	49	48	47	47	47	47	46	46	46	47	47	46	44	42	40	39	37	35	33	30	26	23	20	18	14	9	5	3	2	2	1	1	1	1	1	1	1	1	1	1	1	1	1	1	1	1	0	0	0	0	0	0	0	0	0	0	0	0	0	0	0	0	0	0	0	0	0	0	0	0	0	0	0	0	0	0	0	0	0	0	0	0	0	0	0	0	0	0	0	0	0	0	0	0	0	1	1	1	1	1	1	1	1	1	1	1	1	1	1	2	2	3	5	7	10	12	14	16	18	20	22	23	24	24	25	26	27	27	27	26	26	25	24	23	22	21	20	19	19	18	16	15	13	12	10	9	8	7	7	6	6	5	5	4	3	3	3	3	2	2	2	1	1	1	1	1	1	1	1	1	1	1	1	1	1	1	1	1	1	1	1	1	1	1	1	1	1	1	1	1	0	0	0	0	0	0	0	0	0	0	0	0	0	0	0	0	0	0	0	0	0	0	0	0	0	0	0	0	0	0	0	0	0	0	0	0	0	0	0	0	0	0	0	0	0	0	0	0	0	0	0	0	0	0	0	0	0	0	0	0	0	0	0	0	0	0	0	0	0	0	0	0	0	0	0	0	0	0	0	0	0	0	0	0	0	0	0	0	0	0	0	0	0	0	0	0	0	0	0	0	0	0	0	0	0	0	0	0	0	0	0	0	0	0	0	0	0	0	0	0	0	0	0	0	0	0	0	0	0	0	0	0	0	0	0	0	0	0	0	0	0	0	0	0	0	0	0	0	0	0	0	0	0	0	0	0	0	0	0	0	0	0	0	0	0	0	0	0	0	0	0	0	0	0	0	0	0	0	0	0	0	0	0	0	0	0	0	0	0	0	0	0	0	0	0	0	0	0	0	0	0	0	0	0	0	0	0	0	0	0	0	0	0	0	0	0	0	0	0	0	0	0	0	0	0	0	0	0	0	0	0	0	0	0	0	0	0	0	0	0	0	0	0	0	0	0	0	0	0	0	0	0	0	0	0	0	0	0	0	0	0	0	0	0	0	0	0	0	0	0	0	0	0	0	0	0	0	0	0	0	0	0	0	0	0	0	0	0	0	0	0	0	0	0	0	0	0	0	0	0	0	0	0	0	0	0	0	0	0	0	0	0	0	0	0	0	0	0	0	0	0	0	0	0	0	0	0	0	0	0	0	0	0	0	0	0	0	0	0	0	0	0	0	0	0	0	0	0	0	0	0	0	0	0	0	0	0	0	0	0	0	0	0	0	0	0	0	0	0	0	0	0	0	0	0	0	0	0	0	0	0	0	0	0	0	0	1	1	1	1	1	1	1	1	1	1	1	1	1	1	1	1	1	1	1	1	1	1	1	1	1	1	1	1	1	1	1	1	1	1	1	1	2	2	3	4	4
87	84	80	76	73	71	70	70	69	70	70	70	70	71	71	71	71	72	74	74	75	75	76	76	77	76	76	75	74	73	72	71	70	69	68	66	65	64	62	60	58	56	54	52	50	48	45	43	40	37	33	31	28	26	24	23	23	22	22	23	24	26	28	32	35	39	42	45	47	47	45	44	42	41	39	37	35	35	36	37	38	40	41	42	43	44	44	45	45	46	46	47	49	52	56	59	62	64	67	69	71	72	71	68	66	63	60	57	55	53	52	50	50	51	52	53	54	55	56	57	57	58	58	59	60	59	57	56	54	52	50	48	47	46	45	45	46	47	48	50	52	52	52	53	53	52	51	50	48	45	42	40	39	38	37	36	37	38	40	42	44	45	46	47	48	48	48	48	48	47	45	43	40	38	37	37	38	39	41	44	47	51	55	57	60	63	66	69	72	73	75	76	78	78	78	75	73	71	68	66	64	61	59	57	54	52	49	47	47	48	49	51	53	55	57	60	62	64	66	68	70	71	73	75	77	80	83	85	87	89	91	93	94	95	96	97	98	98	98	97	95	93	90	87	85	83	82	82	81	82	83	85	87	89	89	89	89	89	89	91	92	93	94	94	95	97	99	100	100	99	99	99	99	98	98	98	98	98	97	97	97	97	98	98	99	100	100	101	101	100	100	100	100	100	100	100	100	100	100	100	99	99	97	95	93	89	86	84	81	79	76	73	71	69	68	66	65	63	61	60	58	57	56	55	54	53	52	51	50	49	48	47	45	44	43	42	41	39	38	37	35	33	30	28	26	23	22	21	21	20	19	19	18	18	18	19	20	21	21	22	23	23	24	26	27	28	30	32	33	36	38	40	43	45	47	49	51	52	54	56	56	54	52	50	49	49	49	49	48	48	48	48	48	48	46	44	42	40	38	37	35	33	29	25	22	19	16	12	8	4	2	2	2	1	1	1	1	1	1	1	1	1	1	1	1	1	1	1	1	0	0	0	0	0	0	0	0	0	0	0	0	0	0	0	0	0	0	0	0	0	0	0	0	0	0	0	0	0	0	0	0	0	0	0	0	0	0	0	0	0	0	0	0	0	0	0	0	0	1	1	1	1	1	1	1	1	1	1	1	1	1	2	2	3	5	8	11	13	15	18	20	22	24	25	26	26	27	28	29	29	29	29	29	28	28	27	27	26	25	24	24	23	23	22	20	19	17	16	16	14	13	13	12	11	10	9	8	7	6	4	3	3	3	2	2	2	2	1	1	1	1	1	1	1	1	1	1	2	2	2	2	1	1	1	1	1	1	1	1	1	1	1	1	1	0	0	0	0	0	0	0	0	0	0	0	0	0	0	0	0	0	0	0	0	0	0	0	0	0	0	0	0	0	0	0	0	0	0	0	0	0	0	0	0	0	0	0	0	0	0	0	0	0	0	0	0	0	0	0	0	0	0	0	0	0	0	0	0	0	0	0	0	0	0	0	0	0	0	0	0	0	0	0	0	0	0	0	0	0	0	0	0	0	0	0	0	0	0	0	0	0	0	0	0	0	0	0	0	0	0	0	0	0	0	0	0	0	0	0	0	0	0	0	0	0	0	0	0	0	0	0	0	0	0	0	0	0	0	0	0	0	0	0	0	0	0	0	0	0	0	0	0	0	0	0	0	0	0	0	0	0	0	0	0	0	0	0	0	0	0	0	0	0	0	0	0	0	0	0	0	0	0	0	0	0	0	0	0	0	0	0	0	0	0	0	0	0	0	0	0	0	0	0	0	0	0	0	0	0	0	0	0	0	0	0	0	0	0	0	0	0	0	0	0	0	0	0	0	0	0	0	0	0	0	0	0	0	0	0	0	0	0	0	0	0	0	0	0	0	0	0	0	0	0	0	0	0	0	0	0	0	0	0	0	0	0	0	0	0	0	0	0	0	0	0	0	0	0	0	0	0	0	0	0	0	0	0	0	0	0	0	0	0	0	0	0	0	0	0	0	0	0	0	0	0	0	0	0	0	0	0	0	0	0	0	0	0	0	0	0	0	0	0	0	0	0	0	0	0	0	0	0	0	0	0	0	0	0	0	0	0	0	0	0	0	0	0	0	0	0	0	0	0	0	0	0	0	0	0	0	0	0	0	0	0	0	0	0	0	0	0	0	0	0	0	0	0	0	0	0	0	0	0	0	0	0	0	0	0	1	1	1	1	1	1	1	1	1	1	1	1	1	1	1	1	1	1	1	1	1	1	1	1	1	1	1	1	1	1	1	1	1	1	1	1	2	2	3	4	4
85	82	78	74	71	69	68	67	67	67	67	67	67	67	68	68	69	70	71	71	72	73	73	74	74	74	73	72	71	70	69	68	67	66	65	64	63	61	59	57	56	54	52	50	48	46	44	41	38	35	33	30	28	25	24	23	22	22	22	22	23	25	27	30	33	37	40	43	45	44	43	41	40	38	37	35	34	34	35	36	37	38	39	40	41	42	42	43	43	45	46	47	49	52	56	59	62	64	67	69	70	70	68	65	62	59	57	55	53	51	50	49	49	50	51	53	54	55	57	59	60	60	61	62	62	61	60	58	57	55	53	51	49	48	48	48	48	49	50	52	54	55	55	55	55	54	53	50	47	44	41	40	39	38	38	38	39	41	43	45	47	48	49	50	51	51	51	50	50	49	46	44	41	39	39	40	40	41	43	46	49	52	55	58	61	64	67	70	72	74	75	77	78	79	78	75	73	70	68	66	63	61	59	57	55	52	50	50	50	51	51	53	54	56	58	60	63	65	68	70	71	73	75	77	79	81	84	86	88	90	92	94	95	97	98	99	100	100	99	98	97	96	93	90	88	86	85	85	84	85	86	88	89	90	91	92	92	92	92	93	95	96	96	97	98	99	101	102	102	102	101	101	100	99	99	98	98	97	96	95	95	95	96	96	97	99	100	101	101	101	100	100	100	100	100	100	100	100	100	99	98	97	96	94	92	88	86	84	82	80	77	74	72	70	68	66	64	62	60	58	57	55	54	53	52	51	50	49	49	48	47	46	45	44	43	42	40	39	38	37	36	34	31	29	27	25	23	21	21	20	19	19	18	17	18	19	20	22	23	23	24	24	25	26	28	29	31	33	35	37	39	42	44	46	47	49	51	52	54	56	56	55	54	52	51	50	50	50	50	49	49	49	49	48	46	44	42	40	38	36	34	32	29	25	21	18	15	11	6	3	2	2	1	1	1	1	1	1	1	1	1	1	1	1	1	1	1	1	1	0	0	0	0	0	0	0	0	0	0	0	0	0	0	0	0	0	0	0	0	0	0	0	0	0	0	0	0	0	0	0	0	0	0	0	0	0	0	0	0	0	0	0	0	0	0	0	0	1	1	1	1	1	1	1	1	1	1	1	1	1	2	2	2	4	8	11	14	17	19	21	23	26	27	28	28	29	30	31	31	32	32	32	32	31	30	30	29	29	28	27	27	27	26	26	25	24	23	22	21	20	19	18	17	16	15	14	13	12	10	8	5	3	3	3	3	2	2	2	2	1	1	1	1	2	2	2	2	2	3	2	2	2	1	1	1	1	1	1	1	1	1	1	1	1	0	0	0	0	0	0	0	0	0	0	0	0	0	0	0	0	0	0	0	0	0	0	0	0	0	0	0	0	0	0	0	0	0	0	0	0	0	0	0	0	0	0	0	0	0	0	0	0	0	0	0	0	0	0	0	0	0	0	0	0	0	0	0	0	0	0	0	0	0	0	0	0	0	0	0	0	0	0	0	0	0	0	0	0	0	0	0	0	0	0	0	0	0	0	0	0	0	0	0	0	0	0	0	0	0	0	0	0	0	0	0	0	0	0	0	0	0	0	0	0	0	0	0	0	0	0	0	0	0	0	0	0	0	0	0	0	0	0	0	0	0	0	0	0	0	0	0	0	0	0	0	0	0	0	0	0	0	0	0	0	0	0	0	0	0	0	0	0	0	0	0	0	0	0	0	0	0	0	0	0	0	0	0	0	0	0	0	0	0	0	0	0	0	0	0	0	0	0	0	0	0	0	0	0	0	0	0	0	0	0	0	0	0	0	0	0	0	0	0	0	0	0	0	0	0	0	0	0	0	0	0	0	0	0	0	0	0	0	0	0	0	0	0	0	0	0	0	0	0	0	0	0	0	0	0	0	0	0	0	0	0	0	0	0	0	0	0	0	0	0	0	0	0	0	0	0	0	0	0	0	0	0	0	0	0	0	0	0	0	0	0	0	0	0	0	0	0	0	0	0	0	0	0	0	0	0	0	0	0	0	0	0	0	0	0	0	0	0	0	0	0	0	0	0	0	0	0	0	0	0	0	0	0	0	0	0	0	0	0	0	0	0	0	0	0	0	0	0	0	0	0	0	0	0	0	0	0	0	0	0	0	0	0	0	0	0	0	0	0	0	0	0	0	0	0	0	0	0	0	0	0	0	0	0	0	1	1	1	1	1	1	1	1	1	1	1	1	1	1	1	1	1	1	1	1	1	1	1	1	1	1	1	1	1	1	1	1	1	1	1	1	2	2	3	4	4
84	80	75	71	69	67	65	64	64	63	63	64	64	65	65	65	66	67	68	69	69	70	70	71	71	71	70	70	69	68	67	66	65	64	63	61	60	59	57	55	54	52	50	48	47	44	42	40	37	35	32	29	27	25	23	22	22	21	21	22	23	24	27	29	32	35	38	42	43	42	40	39	38	36	34	33	32	32	34	35	35	36	37	38	39	40	40	41	42	44	46	48	49	52	56	59	62	64	67	68	69	68	65	61	58	56	54	52	51	49	48	47	47	48	50	51	52	54	56	60	62	63	64	64	64	63	62	61	59	57	56	54	53	52	51	51	51	52	53	55	57	57	58	58	58	57	54	51	47	44	41	40	39	39	40	41	42	44	46	49	50	51	53	53	54	53	53	53	52	50	47	44	42	41	40	41	41	43	45	48	51	53	56	58	61	64	67	70	72	74	75	77	78	79	78	75	73	70	67	65	63	61	59	57	55	53	52	52	52	53	54	55	56	57	59	61	64	66	69	71	73	75	77	79	81	83	85	87	89	91	93	95	97	98	99	100	101	101	100	100	99	98	96	93	91	89	88	88	88	89	89	90	91	92	94	94	95	95	95	96	98	99	99	100	100	101	103	104	104	103	102	100	99	98	98	97	96	95	94	93	93	93	93	94	95	96	98	100	101	101	100	100	100	100	100	100	99	99	98	97	96	95	95	94	91	88	86	85	83	81	78	75	73	72	70	68	65	62	60	58	56	54	52	51	50	50	49	48	47	46	45	44	43	43	42	41	40	39	38	37	36	34	32	30	28	26	24	22	21	20	19	18	17	17	18	20	21	23	24	24	25	25	26	27	29	30	32	34	36	38	40	43	45	46	47	49	50	52	53	55	57	56	55	53	52	52	52	52	51	51	51	50	48	47	45	43	41	40	38	36	34	32	29	25	21	17	13	9	5	3	2	2	1	1	1	1	1	1	1	1	1	1	1	1	1	1	1	1	1	0	0	0	0	0	0	0	0	0	0	0	0	0	0	0	0	0	0	0	0	0	0	0	0	0	0	0	0	0	0	0	0	0	0	0	0	0	0	0	0	0	0	0	0	0	0	0	1	1	1	1	1	1	1	1	1	1	1	1	1	1	2	2	4	7	11	14	17	19	21	24	26	28	30	30	31	31	32	33	34	34	35	35	34	34	33	32	32	31	30	30	30	29	29	29	29	28	28	27	26	25	23	22	21	20	19	18	18	17	15	12	8	6	4	4	3	3	3	3	2	2	2	2	2	2	2	2	3	3	3	3	2	2	1	1	1	1	1	1	1	1	1	1	1	1	0	0	0	0	0	0	0	0	0	0	0	0	0	0	0	0	0	0	0	0	0	0	0	0	0	0	0	0	0	0	0	0	0	0	0	0	0	0	0	0	0	0	0	0	0	0	0	0	0	0	0	0	0	0	0	0	0	0	0	0	0	0	0	0	0	0	0	0	0	0	0	0	0	0	0	0	0	0	0	0	0	0	0	0	0	0	0	0	0	0	0	0	0	0	0	0	0	0	0	0	0	0	0	0	0	0	0	0	0	0	0	0	0	0	0	0	0	0	0	0	0	0	0	0	0	0	0	0	0	0	0	0	0	0	0	0	0	0	0	0	0	0	0	0	0	0	0	0	0	0	0	0	0	0	0	0	0	0	0	0	0	0	0	0	0	0	0	0	0	0	0	0	0	0	0	0	0	0	0	0	0	0	0	0	0	0	0	0	0	0	0	0	0	0	0	0	0	0	0	0	0	0	0	0	0	0	0	0	0	0	0	0	0	0	0	0	0	0	0	0	0	0	0	0	0	0	0	0	0	0	0	0	0	0	0	0	0	0	0	0	0	0	0	0	0	0	0	0	0	0	0	0	0	0	0	0	0	0	0	0	0	0	0	0	0	0	0	0	0	0	0	0	0	0	0	0	0	0	0	0	0	0	0	0	0	0	0	0	0	0	0	0	0	0	0	0	0	0	0	0	0	0	0	0	0	0	0	0	0	0	0	0	0	0	0	0	0	0	0	0	0	0	0	0	0	0	0	0	0	0	0	0	0	0	0	0	0	0	0	0	0	0	0	0	0	0	0	0	0	0	0	0	0	0	0	0	0	0	0	0	0	0	0	0	0	0	0	0	0	0	0	0	0	0	0	0	0	0	0	0	0	0	0	0	0	1	1	1	1	1	1	1	1	1	1	1	1	1	1	1	1	1	1	1	1	1	1	1	1	1	1	1	1	1	1	1	1	1	1	1	2	2	3	3	4	4
82	78	73	70	67	64	63	62	61	61	61	61	61	62	62	63	64	64	65	66	66	67	68	68	68	68	67	67	66	65	64	63	62	61	60	59	57	56	55	53	51	50	49	47	45	43	41	39	36	34	31	29	26	24	23	22	21	21	21	22	22	24	26	28	31	34	37	40	41	40	38	37	35	34	32	31	30	31	32	33	34	35	35	36	37	38	39	40	43	45	47	48	50	53	56	59	61	64	66	67	66	63	60	57	55	53	52	50	49	48	47	46	45	47	48	49	51	53	56	60	63	65	66	65	65	64	64	63	62	60	59	57	56	55	54	54	54	55	56	58	59	60	60	61	60	58	55	51	48	45	42	40	40	41	43	45	47	49	51	52	54	55	56	56	56	56	55	55	54	51	49	46	43	42	41	41	42	43	46	49	52	54	56	59	61	64	67	70	73	74	76	77	79	80	79	76	73	70	67	65	62	60	58	57	55	54	54	54	55	55	56	57	58	59	61	63	66	68	70	72	75	77	79	81	83	85	87	89	91	93	95	96	98	99	101	102	103	103	102	101	101	100	98	96	94	93	92	91	91	92	92	93	94	95	96	97	98	98	98	99	101	102	102	103	103	104	105	106	105	103	101	99	98	97	96	95	94	93	92	91	91	91	91	91	93	94	96	98	99	100	100	100	99	99	99	98	97	97	96	95	95	94	94	94	92	90	88	87	85	82	80	77	75	74	72	69	66	63	60	57	55	53	51	49	49	48	47	46	45	44	43	43	42	42	41	40	40	39	38	37	35	33	32	29	27	26	24	22	20	19	19	18	17	18	19	21	22	24	25	25	26	26	27	29	30	32	33	35	37	40	42	44	45	46	47	49	50	52	53	55	56	56	56	55	54	54	54	54	53	52	50	49	47	46	44	42	40	39	37	35	34	32	28	24	20	16	12	7	4	2	2	1	1	1	1	1	1	1	1	1	1	1	1	1	1	1	1	1	1	0	0	0	0	0	0	0	0	0	0	0	0	0	0	0	0	0	0	0	0	0	0	0	0	0	0	0	0	0	0	0	0	0	0	0	0	0	0	0	0	0	0	0	0	0	0	1	1	1	1	1	1	1	1	1	1	1	1	1	1	2	2	4	7	11	14	17	19	22	24	26	28	30	32	32	33	34	35	36	37	37	38	38	37	36	36	35	34	33	33	32	32	31	31	30	31	31	31	30	30	29	27	26	25	24	22	22	22	21	20	17	13	10	8	6	5	4	3	3	3	3	3	3	3	3	3	4	5	4	3	3	2	2	1	1	1	1	1	1	1	1	1	1	1	0	0	0	0	0	0	0	0	0	0	0	0	0	0	0	0	0	0	0	0	0	0	0	0	0	0	0	0	0	0	0	0	0	0	0	0	0	0	0	0	0	0	0	0	0	0	0	0	0	0	0	0	0	0	0	0	0	0	0	0	0	0	0	0	0	0	0	0	0	0	0	0	0	0	0	0	0	0	0	0	0	0	0	0	0	0	0	0	0	0	0	0	0	0	0	0	0	0	0	0	0	0	0	0	0	0	0	0	0	0	0	0	0	0	0	0	0	0	0	0	0	0	0	0	0	0	0	0	0	0	0	0	0	0	0	0	0	0	0	0	0	0	0	0	0	0	0	0	0	0	0	0	0	0	0	0	0	0	0	0	0	0	0	0	0	0	0	0	0	0	0	0	0	0	0	0	0	0	0	0	0	0	0	0	0	0	0	0	0	0	0	0	0	0	0	0	0	0	0	0	0	0	0	0	0	0	0	0	0	0	0	0	0	0	0	0	0	0	0	0	0	0	0	0	0	0	0	0	0	0	0	0	0	0	0	0	0	0	0	0	0	0	0	0	0	0	0	0	0	0	0	0	0	0	0	0	0	0	0	0	0	0	0	0	0	0	0	0	0	0	0	0	0	0	0	0	0	0	0	0	0	0	0	0	0	0	0	0	0	0	0	0	0	0	0	0	0	0	0	0	0	0	0	0	0	0	0	0	0	0	0	0	0	0	0	0	0	0	0	0	0	0	0	0	0	0	0	0	0	0	0	0	0	0	0	0	0	0	0	0	0	0	0	0	0	0	0	0	0	0	0	0	0	0	0	0	0	0	0	0	0	0	0	0	0	0	0	0	0	0	0	0	0	0	0	0	0	0	0	0	0	0	0	0	0	0	1	1	1	1	1	1	1	1	1	1	1	1	1	1	1	1	1	1	1	1	1	1	1	1	1	1	1	1	1	1	1	1	1	1	1	2	2	3	4	4	4
80	76	72	68	65	62	60	59	58	58	58	58	59	59	60	60	61	61	62	62	63	64	64	65	64	64	64	63	63	62	61	60	59	58	57	56	55	54	52	51	49	48	47	45	44	42	40	37	35	33	30	28	26	24	22	21	20	20	21	21	22	23	25	28	30	32	35	38	40	38	36	35	34	32	30	29	29	30	31	32	32	33	34	34	35	37	39	41	43	46	47	49	51	54	56	59	61	63	64	63	60	57	55	53	52	51	49	48	47	46	45	44	44	45	47	48	49	52	55	59	63	65	65	65	65	65	64	64	63	62	61	61	60	59	58	57	57	58	59	60	61	62	62	63	61	59	55	52	49	46	43	43	44	46	48	50	52	54	55	56	57	58	58	58	58	58	57	56	54	52	50	47	44	43	41	41	42	44	47	50	53	55	57	59	61	64	67	70	73	75	76	78	79	80	79	76	73	70	67	65	62	60	58	57	56	56	56	57	57	57	58	59	60	62	64	66	68	69	71	73	76	78	81	83	85	87	89	91	93	94	96	97	99	100	102	103	104	104	104	103	102	101	100	98	97	95	94	94	94	95	96	96	97	98	99	100	101	101	101	102	103	104	105	105	106	107	108	107	104	101	100	98	97	96	95	94	92	91	90	89	89	88	88	89	90	92	94	96	97	98	98	99	98	98	97	97	96	95	94	94	94	94	94	94	93	91	90	88	87	84	82	79	77	75	73	71	67	64	60	57	54	52	50	48	47	46	45	44	43	43	42	41	41	40	40	39	39	38	37	35	34	32	31	29	27	25	23	21	20	18	18	17	17	18	20	22	24	25	26	27	27	28	29	30	31	33	35	37	39	41	43	45	46	47	48	49	50	52	53	55	55	55	55	55	55	55	54	54	53	50	49	47	45	44	43	41	39	38	36	35	33	30	27	23	19	16	11	6	3	2	2	1	1	1	1	1	1	1	1	1	1	1	1	1	1	1	1	1	1	0	0	0	0	0	0	0	0	0	0	0	0	0	0	0	0	0	0	0	0	0	0	0	0	0	0	0	0	0	0	0	0	0	0	0	0	0	0	0	0	0	0	0	0	0	1	1	1	1	1	1	1	1	1	1	1	1	1	1	1	2	4	7	11	14	17	19	21	24	26	28	30	32	33	35	35	36	37	38	39	40	40	40	39	38	37	36	35	34	33	32	31	30	29	29	29	29	30	31	31	31	31	30	28	27	26	26	26	25	24	22	19	16	13	10	8	7	6	5	5	5	4	4	5	6	8	10	12	8	3	3	2	2	1	1	1	1	1	1	1	1	1	1	1	0	0	0	0	0	0	0	0	0	0	0	0	0	0	0	0	0	0	0	0	0	0	0	0	0	0	0	0	0	0	0	0	0	0	0	0	0	0	0	0	0	0	0	0	0	0	0	0	0	0	0	0	0	0	0	0	0	0	0	0	0	0	0	0	0	0	0	0	0	0	0	0	0	0	0	0	0	0	0	0	0	0	0	0	0	0	0	0	0	0	0	0	0	0	0	0	0	0	0	0	0	0	0	0	0	0	0	0	0	0	0	0	0	0	0	0	0	0	0	0	0	0	0	0	0	0	0	0	0	0	0	0	0	0	0	0	0	0	0	0	0	0	0	0	0	0	0	0	0	0	0	0	0	0	0	0	0	0	0	0	0	0	0	0	0	0	0	0	0	0	0	0	0	0	0	0	0	0	0	0	0	0	0	0	0	0	0	0	0	0	0	0	0	0	0	0	0	0	0	0	0	0	0	0	0	0	0	0	0	0	0	0	0	0	0	0	0	0	0	0	0	0	0	0	0	0	0	0	0	0	0	0	0	0	0	0	0	0	0	0	0	0	0	0	0	0	0	0	0	0	0	0	0	0	0	0	0	0	0	0	0	0	0	0	0	0	0	0	0	0	0	0	0	0	0	0	0	0	0	0	0	0	0	0	0	0	0	0	0	0	0	0	0	0	0	0	0	0	0	0	0	0	0	0	0	0	0	0	0	0	0	0	0	0	0	0	0	0	0	0	0	0	0	0	0	0	0	0	0	0	0	0	0	0	0	0	0	0	0	0	0	0	0	0	0	0	0	0	0	0	0	0	0	0	0	0	0	0	0	0	0	0	0	0	0	0	0	0	0	0	0	0	0	0	0	0	0	0	0	0	0	0	0	0	0	0	1	1	1	1	1	1	1	1	1	1	1	1	1	1	1	1	1	1	1	1	1	1	1	1	1	1	1	1	1	1	1	1	1	1	2	2	3	3	4	4	4
78	74	70	66	62	59	57	56	56	55	55	56	56	57	57	57	57	58	58	58	59	59	60	60	60	60	60	59	59	58	57	56	55	55	54	53	52	51	50	48	47	47	45	44	42	41	39	37	34	32	30	28	25	23	22	21	20	20	20	21	22	23	25	27	30	32	35	37	38	37	35	34	32	31	30	29	29	29	30	30	31	32	32	33	35	37	40	42	44	46	48	50	52	54	57	59	61	62	61	58	55	53	52	51	49	47	46	45	45	44	43	43	43	44	45	46	48	51	55	59	62	63	64	64	64	64	65	64	64	63	63	64	63	62	61	60	60	61	62	62	63	63	63	62	61	58	55	52	49	46	45	48	49	51	53	55	57	58	59	60	60	61	61	60	60	59	58	56	55	53	50	47	45	44	43	42	42	44	47	50	54	56	57	59	61	64	67	71	73	75	77	79	80	81	80	78	74	71	68	65	62	60	59	59	58	58	58	59	59	60	61	62	63	64	66	68	70	72	73	75	77	79	82	84	87	89	91	93	94	96	97	99	100	102	103	104	106	106	106	105	103	102	101	99	98	97	96	96	96	97	97	98	98	100	101	103	103	104	104	105	106	106	107	108	108	109	109	105	102	100	99	98	97	96	94	92	90	89	88	87	87	86	86	87	88	90	92	95	96	97	97	97	97	96	96	95	94	93	93	94	94	94	94	94	94	93	92	90	88	86	83	81	79	77	75	72	68	64	60	57	54	52	49	47	45	44	43	43	42	41	40	40	39	39	39	38	37	36	35	34	32	30	29	28	26	24	22	20	18	17	17	16	17	18	20	23	25	26	27	28	29	29	30	32	33	35	36	38	40	42	44	45	46	47	48	49	50	52	53	54	54	53	53	53	53	53	53	52	51	48	46	45	43	42	40	39	37	36	35	33	31	29	25	22	18	15	10	5	2	2	1	1	1	1	1	1	1	1	1	1	1	1	1	1	1	1	1	1	0	0	0	0	0	0	0	0	0	0	0	0	0	0	0	0	0	0	0	0	0	0	0	0	0	0	0	0	0	0	0	0	0	0	0	0	0	0	0	0	0	0	0	0	0	1	1	1	1	1	1	1	1	1	1	1	1	1	1	1	2	3	6	10	14	16	18	21	23	25	27	29	31	33	35	36	37	38	38	39	39	39	40	40	39	38	36	35	34	33	32	31	29	27	27	27	27	27	28	29	29	30	31	32	31	30	30	30	29	29	28	26	25	23	20	17	15	13	13	12	11	10	9	10	11	13	15	15	13	9	4	3	2	2	1	1	1	1	1	1	1	1	1	1	1	0	0	0	0	0	0	0	0	0	0	0	0	0	0	0	0	0	0	0	0	0	0	0	0	0	0	0	0	0	0	0	0	0	0	0	0	0	0	0	0	0	0	0	0	0	0	0	0	0	0	0	0	0	0	0	0	0	0	0	0	0	0	0	0	0	0	0	0	0	0	0	0	0	0	0	0	0	0	0	0	0	0	0	0	0	0	0	0	0	0	0	0	0	0	0	0	0	0	0	0	0	0	0	0	0	0	0	0	0	0	0	0	0	0	0	0	0	0	0	0	0	0	0	0	0	0	0	0	0	0	0	0	0	0	0	0	0	0	0	0	0	0	0	0	0	0	0	0	0	0	0	0	0	0	0	0	0	0	0	0	0	0	0	0	0	0	0	0	0	0	0	0	0	0	0	0	0	0	0	0	0	0	0	0	0	0	0	0	0	0	0	0	0	0	0	0	0	0	0	0	0	0	0	0	0	0	0	0	0	0	0	0	0	0	0	0	0	0	0	0	0	0	0	0	0	0	0	0	0	0	0	0	0	0	0	0	0	0	0	0	0	0	0	0	0	0	0	0	0	0	0	0	0	0	0	0	0	0	0	0	0	0	0	0	0	0	0	0	0	0	0	0	0	0	0	0	0	0	0	0	0	0	0	0	0	0	0	0	0	0	0	0	0	0	0	0	0	0	0	0	0	0	0	0	0	0	0	0	0	0	0	0	0	0	0	0	0	0	0	0	0	0	0	0	0	0	0	0	0	0	0	0	0	0	0	0	0	0	0	0	0	0	0	0	0	0	0	0	0	0	0	0	0	0	0	0	0	0	0	0	0	0	0	0	0	0	0	0	0	0	0	0	0	0	0	0	0	0	0	0	0	0	0	0	0	0	1	1	1	1	1	1	1	1	1	1	1	1	1	1	1	1	1	1	1	1	1	1	1	1	1	1	1	1	1	1	1	1	1	1	2	3	3	4	4	4	5
77	72	68	63	60	57	54	53	53	53	53	53	54	54	54	54	54	54	54	55	55	55	56	56	56	55	55	55	55	55	54	53	52	52	51	50	49	48	47	46	46	45	44	43	41	39	38	36	34	32	29	27	25	23	21	20	19	19	20	21	22	22	24	27	30	32	34	36	36	35	34	33	32	30	30	29	29	29	29	29	29	30	31	33	35	38	41	43	45	47	49	51	52	54	57	59	60	59	57	54	53	51	49	47	46	44	43	43	42	42	42	41	41	42	43	45	47	51	54	57	60	61	62	62	63	64	64	64	64	64	65	66	65	64	64	63	64	64	65	65	65	65	64	62	60	57	55	52	49	47	49	52	54	56	58	59	61	62	62	63	63	63	63	62	62	60	59	57	55	53	50	48	47	46	45	45	45	45	47	51	54	56	58	60	62	65	68	71	73	76	78	79	81	81	81	79	76	72	69	66	63	61	61	60	60	60	61	62	63	64	65	65	66	67	68	70	73	75	76	78	79	81	83	86	88	91	93	95	96	97	98	100	101	103	104	106	107	108	107	105	103	101	100	99	98	97	96	96	96	96	96	96	97	98	100	102	103	105	106	107	107	108	108	109	110	110	107	104	102	100	98	97	96	95	93	90	88	87	86	85	85	84	85	86	86	88	90	93	95	96	96	96	96	95	94	94	93	93	92	93	93	94	94	94	94	94	93	91	89	87	85	82	80	78	75	72	68	64	60	57	54	51	49	47	45	43	42	41	40	40	39	38	38	38	37	36	35	34	32	31	30	29	27	26	24	22	20	18	16	16	16	16	17	18	21	23	25	27	28	29	30	31	32	33	35	36	38	40	42	44	45	46	47	48	49	50	51	52	53	53	52	52	51	52	52	51	50	50	48	46	44	42	40	39	38	37	35	34	33	31	29	27	23	20	17	14	9	3	2	2	1	1	1	1	1	1	1	1	1	1	1	1	1	1	1	1	1	1	0	0	0	0	0	0	0	0	0	0	0	0	0	0	0	0	0	0	0	0	0	0	0	0	0	0	0	0	0	0	0	0	0	0	0	0	0	0	0	0	0	0	0	0	1	1	1	1	1	1	1	1	1	1	1	1	1	1	1	2	3	4	8	12	15	18	20	22	25	27	29	31	33	35	36	37	37	37	37	37	37	37	37	37	36	35	34	33	32	31	30	29	27	25	25	25	25	26	26	27	27	28	30	31	32	33	34	34	34	32	31	30	29	28	26	24	22	20	19	19	17	17	17	17	18	20	20	18	15	11	5	3	2	2	1	1	1	1	1	1	1	1	1	1	1	0	0	0	0	0	0	0	0	0	0	0	0	0	0	0	0	0	0	0	0	0	0	0	0	0	0	0	0	0	0	0	0	0	0	0	0	0	0	0	0	0	0	0	0	0	0	0	0	0	0	0	0	0	0	0	0	0	0	0	0	0	0	0	0	0	0	0	0	0	0	0	0	0	0	0	0	0	0	0	0	0	0	0	0	0	0	0	0	0	0	0	0	0	0	0	0	0	0	0	0	0	0	0	0	0	0	0	0	0	0	0	0	0	0	0	0	0	0	0	0	0	0	0	0	0	0	0	0	0	0	0	0	0	0	0	0	0	0	0	0	0	0	0	0	0	0	0	0	0	0	0	0	0	0	0	0	0	0	0	0	0	0	0	0	0	0	0	0	0	0	0	0	0	0	0	0	0	0	0	0	0	0	0	0	0	0	0	0	0	0	0	0	0	0	0	0	0	0	0	0	0	0	0	0	0	0	0	0	0	0	0	0	0	0	0	0	0	0	0	0	0	0	0	0	0	0	0	0	0	0	0	0	0	0	0	0	0	0	0	0	0	0	0	0	0	0	0	0	0	0	0	0	0	0	0	0	0	0	0	0	0	0	0	0	0	0	0	0	0	0	0	0	0	0	0	0	0	0	0	0	0	0	0	0	0	0	0	0	0	0	0	0	0	0	0	0	0	0	0	0	0	0	0	0	0	0	0	0	0	0	0	0	0	0	0	0	0	0	0	0	0	0	0	0	0	0	0	0	0	0	0	0	0	0	0	0	0	0	0	0	0	0	0	0	0	0	0	0	0	0	0	0	0	0	0	0	0	0	0	0	0	0	0	0	0	0	0	0	0	0	0	0	0	0	0	0	0	0	0	0	0	0	0	0	0	0	1	1	1	1	1	1	1	1	1	1	1	1	1	1	1	1	1	1	1	1	1	1	1	1	1	1	1	1	1	1	1	1	2	2	2	3	4	4	5	5	6
75	70	65	60	56	53	51	50	50	50	50	51	51	51	51	51	50	51	51	51	51	51	51	51	51	51	51	51	51	51	50	49	49	49	48	47	46	45	44	44	44	43	42	41	40	38	37	35	33	31	29	26	24	22	21	20	19	19	20	21	21	22	24	27	30	31	33	35	35	34	33	32	31	30	29	29	29	28	28	28	28	29	31	33	36	39	41	44	46	48	50	51	53	54	56	58	57	55	54	52	50	48	45	43	42	41	40	40	40	40	40	40	39	40	42	44	47	50	53	55	57	59	59	60	61	62	63	64	65	66	67	68	68	67	66	66	67	67	68	68	68	67	64	62	59	57	54	51	49	50	53	55	57	59	61	62	64	65	65	66	66	65	65	64	63	61	60	58	56	53	51	49	49	49	48	48	48	49	50	53	55	57	58	60	63	65	69	71	74	76	79	80	82	82	82	81	78	74	70	67	65	64	63	63	63	63	64	65	67	68	68	69	69	69	71	73	76	78	80	80	81	82	84	87	90	93	95	96	97	99	100	101	103	104	105	107	108	108	106	104	102	100	99	98	97	96	95	94	94	93	93	94	95	96	98	100	101	103	105	106	108	109	110	111	110	109	106	104	102	100	98	97	95	93	91	89	87	85	84	84	83	83	83	84	84	86	88	91	93	94	95	95	94	94	93	92	92	92	92	92	92	93	93	94	94	95	94	92	90	88	85	83	80	78	75	72	68	64	60	57	54	51	49	47	45	43	41	40	39	38	38	37	37	36	35	34	33	31	30	29	28	27	25	23	22	20	18	16	15	15	15	16	16	18	21	24	26	28	29	30	31	32	33	35	36	38	39	41	43	45	46	46	47	48	49	50	51	52	52	52	51	50	50	50	50	50	49	47	46	43	41	39	38	36	35	34	33	31	30	28	26	24	21	18	16	12	7	3	2	1	1	1	1	1	1	1	1	1	1	1	1	1	1	1	1	1	1	0	0	0	0	0	0	0	0	0	0	0	0	0	0	0	0	0	0	0	0	0	0	0	0	0	0	0	0	0	0	0	0	0	0	0	0	0	0	0	0	0	0	0	0	1	1	1	1	1	1	1	1	1	1	1	1	1	1	1	2	2	3	6	10	13	16	19	22	24	26	28	30	32	34	35	35	35	35	35	35	35	35	35	35	35	34	33	32	31	29	28	26	25	24	23	23	23	23	24	24	25	26	27	28	29	31	33	35	36	37	36	34	33	32	31	30	29	27	25	24	23	22	22	22	23	22	23	22	20	16	12	7	4	2	2	1	1	1	1	1	1	1	1	1	1	0	0	0	0	0	0	0	0	0	0	0	0	0	0	0	0	0	0	0	0	0	0	0	0	0	0	0	0	0	0	0	0	0	0	0	0	0	0	0	0	0	0	0	0	0	0	0	0	0	0	0	0	0	0	0	0	0	0	0	0	0	0	0	0	0	0	0	0	0	0	0	0	0	0	0	0	0	0	0	0	0	0	0	0	0	0	0	0	0	0	0	0	0	0	0	0	0	0	0	0	0	0	0	0	0	0	0	0	0	0	0	0	0	0	0	0	0	0	0	0	0	0	0	0	0	0	0	0	0	0	0	0	0	0	0	0	0	0	0	0	0	0	0	0	0	0	0	0	0	0	0	0	0	0	0	0	0	0	0	0	0	0	0	0	0	0	0	0	0	0	0	0	0	0	0	0	0	0	0	0	0	0	0	0	0	0	0	0	0	0	0	0	0	0	0	0	0	0	0	0	0	0	0	0	0	0	0	0	0	0	0	0	0	0	0	0	0	0	0	0	0	0	0	0	0	0	0	0	0	0	0	0	0	0	0	0	0	0	0	0	0	0	0	0	0	0	0	0	0	0	0	0	0	0	0	0	0	0	0	0	0	0	0	0	0	0	0	0	0	0	0	0	0	0	0	0	0	0	0	0	0	0	0	0	0	0	0	0	0	0	0	0	0	0	0	0	0	0	0	0	0	0	0	0	0	0	0	0	0	0	0	0	0	0	0	0	0	0	0	0	0	0	0	0	0	0	0	0	0	0	0	0	0	0	0	0	0	0	0	0	0	0	0	0	0	0	0	0	0	0	0	0	0	0	0	0	0	0	0	0	0	0	0	0	0	0	0	0	0	0	0	0	0	0	0	0	0	0	0	0	0	0	0	0	0	0	0	1	1	1	1	1	1	1	1	1	1	1	1	1	1	1	1	1	1	1	1	1	1	1	1	1	1	1	1	1	1	1	2	3	3	3	3	4	5	6	7	8
73	68	63	58	53	50	48	47	47	47	47	48	48	48	48	47	47	47	47	47	47	47	47	47	47	47	47	47	47	47	47	46	46	46	45	44	43	43	42	42	42	42	41	40	39	37	36	34	32	30	28	26	24	22	20	19	18	19	20	21	21	22	25	28	30	31	32	34	34	33	32	32	31	30	29	28	28	27	27	27	27	29	31	33	36	39	41	44	47	49	50	51	52	54	56	56	55	53	51	49	46	44	41	39	38	37	36	37	37	38	38	38	38	39	40	43	46	48	50	52	55	56	57	58	59	60	62	63	65	68	70	71	70	69	69	69	70	70	71	71	70	69	66	63	60	57	54	52	51	53	55	57	59	62	64	65	67	68	68	69	68	68	67	65	64	62	60	58	56	54	52	51	51	51	51	51	52	52	53	55	57	58	60	62	64	67	69	72	75	77	80	81	82	83	82	82	80	76	72	69	67	66	66	66	66	67	67	69	70	71	72	72	72	72	73	76	79	81	82	82	82	83	85	88	91	94	95	97	98	100	101	103	104	105	107	108	108	106	104	102	100	99	97	96	95	94	93	92	91	91	91	92	93	95	96	98	99	102	103	105	107	108	110	111	110	108	106	104	102	100	98	96	94	92	89	87	85	84	83	82	81	81	82	82	82	83	86	88	90	92	93	93	93	92	92	91	91	91	91	91	91	92	92	93	94	95	94	92	90	88	85	83	80	78	75	72	67	63	59	56	53	50	48	46	44	42	40	39	38	37	36	36	35	35	34	32	31	30	29	28	27	25	23	21	20	18	16	15	15	14	15	15	16	19	21	24	27	28	30	31	32	33	34	35	37	39	40	42	44	45	46	46	47	48	49	50	52	52	51	50	49	49	48	48	48	48	47	45	43	41	38	37	35	34	32	31	30	29	27	26	24	21	19	16	14	9	4	2	2	1	1	1	1	1	1	1	1	1	1	1	1	1	1	1	1	1	1	0	0	0	0	0	0	0	0	0	0	0	0	0	0	0	0	0	0	0	0	0	0	0	0	0	0	0	0	0	0	0	0	0	0	0	0	0	0	0	0	0	0	0	1	1	1	1	1	1	1	1	1	1	1	1	1	1	1	2	2	3	5	8	12	15	18	20	23	24	26	28	31	33	33	33	32	32	32	32	33	33	33	34	33	33	32	31	29	28	26	24	22	21	21	20	21	21	21	22	23	23	24	25	26	27	29	31	33	35	37	38	38	36	35	34	34	33	31	29	28	27	26	25	25	25	24	23	22	20	16	13	9	5	2	1	1	1	1	1	1	1	1	1	1	1	0	0	0	0	0	0	0	0	0	0	0	0	0	0	0	0	0	0	0	0	0	0	0	0	0	0	0	0	0	0	0	0	0	0	0	0	0	0	0	0	0	0	0	0	0	0	0	0	0	0	0	0	0	0	0	0	0	0	0	0	0	0	0	0	0	0	0	0	0	0	0	0	0	0	0	0	0	0	0	0	0	0	0	0	0	0	0	0	0	0	0	0	0	0	0	0	0	0	0	0	0	0	0	0	0	0	0	0	0	0	0	0	0	0	0	0	0	0	0	0	0	0	0	0	0	0	0	0	0	0	0	0	0	0	0	0	0	0	0	0	0	0	0	0	0	0	0	0	0	0	0	0	0	0	0	0	0	0	0	0	0	0	0	0	0	0	0	0	0	0	0	0	0	0	0	0	0	0	0	0	0	0	0	0	0	0	0	0	0	0	0	0	0	0	0	0	0	0	0	0	0	0	0	0	0	0	0	0	0	0	0	0	0	0	0	0	0	0	0	0	0	0	0	0	0	0	0	0	0	0	0	0	0	0	0	0	0	0	0	0	0	0	0	0	0	0	0	0	0	0	0	0	0	0	0	0	0	0	0	0	0	0	0	0	0	0	0	0	0	0	0	0	0	0	0	0	0	0	0	0	0	0	0	0	0	0	0	0	0	0	0	0	0	0	0	0	0	0	0	0	0	0	0	0	0	0	0	0	0	0	0	0	0	0	0	0	0	0	0	0	0	0	0	0	0	0	0	0	0	0	0	0	0	0	0	0	0	0	0	0	0	0	0	0	0	0	0	0	0	0	0	0	0	0	0	0	0	0	0	0	0	0	0	0	0	0	0	0	0	0	0	0	0	0	0	0	0	0	0	0	0	0	0	0	0	0	0	0	1	1	1	1	1	1	1	1	1	1	1	1	1	1	1	1	1	1	1	1	1	1	1	1	1	1	1	1	1	2	3	4	4	4	4	4	6	8	9	10
71	67	61	56	51	48	46	45	44	44	44	44	44	44	44	43	43	42	43	43	43	43	43	43	43	43	43	43	44	44	44	44	43	43	42	42	41	40	40	40	40	40	39	38	37	36	35	33	31	29	27	25	23	21	20	19	18	18	19	20	21	22	25	28	30	31	32	32	32	32	31	31	30	29	28	27	27	26	26	26	27	29	31	34	36	39	41	44	47	49	50	51	52	53	54	53	52	51	48	45	42	39	37	35	34	34	33	33	34	35	35	35	36	37	39	41	43	45	47	50	52	53	54	56	58	59	61	64	66	70	72	73	73	72	71	72	73	73	74	74	73	71	68	65	61	58	55	53	53	55	57	60	62	64	66	68	69	70	71	72	71	70	69	67	65	63	61	59	56	54	53	52	52	53	54	54	55	55	56	58	59	60	61	63	65	68	70	73	76	78	80	82	83	83	83	82	81	78	74	71	69	68	68	69	69	70	71	72	73	74	75	75	75	75	76	78	81	82	82	82	82	83	85	88	92	94	96	97	99	101	102	104	105	107	108	108	107	105	102	101	99	97	96	95	93	92	91	89	88	88	88	90	91	93	95	96	98	100	102	103	105	107	109	110	110	108	106	104	101	99	97	95	93	90	87	85	84	82	81	80	79	79	79	80	80	81	83	86	88	89	90	91	91	90	90	90	90	90	90	90	90	91	91	92	93	94	94	92	90	87	85	82	80	77	75	71	67	62	58	55	52	49	47	46	44	42	40	38	37	36	35	35	34	34	32	31	30	29	28	27	25	23	22	20	18	16	15	14	14	14	14	15	17	19	22	24	27	29	31	32	33	34	35	36	38	39	41	43	44	45	46	47	47	48	49	50	51	51	50	49	48	48	47	47	47	46	45	42	40	38	36	34	32	31	29	28	27	25	24	23	21	19	17	15	11	6	2	2	1	1	1	1	1	1	1	1	1	1	1	1	1	1	1	1	1	1	1	0	0	0	0	0	0	0	0	0	0	0	0	0	0	0	0	0	0	0	0	0	0	0	0	0	0	0	0	0	0	0	0	0	0	0	0	0	0	0	0	0	0	1	1	1	1	1	1	1	1	1	1	1	1	1	1	1	1	2	2	3	7	11	14	16	19	21	23	25	27	29	31	32	31	31	30	29	29	30	30	31	31	32	31	31	30	29	27	25	23	21	19	18	18	18	17	18	18	19	20	21	22	23	25	26	28	30	31	33	35	37	39	39	39	38	38	38	36	34	32	30	28	26	25	24	22	22	21	19	16	12	8	4	2	1	1	1	1	1	1	1	1	1	1	1	0	0	0	0	0	0	0	0	0	0	0	0	0	0	0	0	0	0	0	0	0	0	0	0	0	0	0	0	0	0	0	0	0	0	0	0	0	0	0	0	0	0	0	0	0	0	0	0	0	0	0	0	0	0	0	0	0	0	0	0	0	0	0	0	0	0	0	0	0	0	0	0	0	0	0	0	0	0	0	0	0	0	0	0	0	0	0	0	0	0	0	0	0	0	0	0	0	0	0	0	0	0	0	0	0	0	0	0	0	0	0	0	0	0	0	0	0	0	0	0	0	0	0	0	0	0	0	0	0	0	0	0	0	0	0	0	0	0	0	0	0	0	0	0	0	0	0	0	0	0	0	0	0	0	0	0	0	0	0	0	0	0	0	0	0	0	0	0	0	0	0	0	0	0	0	0	0	0	0	0	0	0	0	0	0	0	0	0	0	0	0	0	0	0	0	0	0	0	0	0	0	0	0	0	0	0	0	0	0	0	0	0	0	0	0	0	0	0	0	0	0	0	0	0	0	0	0	0	0	0	0	0	0	0	0	0	0	0	0	0	0	0	0	0	0	0	0	0	0	0	0	0	0	0	0	0	0	0	0	0	0	0	0	0	0	0	0	0	0	0	0	0	0	0	0	0	0	0	0	0	0	0	0	0	0	0	0	0	0	0	0	0	0	0	0	0	0	0	0	0	0	0	0	0	0	0	0	0	0	0	0	0	0	0	0	0	0	0	0	0	0	0	0	0	0	0	0	0	0	0	0	0	0	0	0	0	0	0	0	0	0	0	0	0	0	0	0	0	0	0	0	0	0	0	0	0	0	0	0	0	0	0	0	0	0	0	0	0	0	0	0	0	0	0	0	0	0	0	0	0	0	0	0	0	0	0	0	0	1	1	1	1	1	1	1	1	1	1	1	1	1	1	1	1	1	1	1	1	1	1	1	1	1	1	1	1	2	3	4	5	5	5	5	5	7	9	11	12
69	65	59	53	49	47	45	43	41	40	40	40	40	40	39	39	38	38	38	39	39	39	39	40	40	40	40	40	41	41	41	41	40	40	40	39	38	38	38	38	38	38	37	37	36	35	33	32	30	28	26	25	23	21	19	18	17	18	19	20	21	23	26	28	29	30	31	32	31	31	31	30	30	29	27	26	26	25	25	26	28	30	32	33	36	38	41	44	46	49	50	51	51	52	52	51	50	47	44	40	37	35	33	32	31	31	30	31	31	32	32	32	33	34	36	38	40	42	45	47	49	50	52	54	57	59	62	65	68	71	74	75	75	74	74	74	75	76	76	76	75	73	70	66	63	59	56	55	55	56	59	61	63	66	69	71	72	73	74	75	74	72	70	68	67	64	62	59	57	54	53	54	55	56	57	58	58	58	59	60	61	62	63	65	68	70	72	74	77	80	81	82	83	83	83	82	82	79	76	73	71	70	71	71	72	74	75	76	77	77	78	78	77	77	79	81	82	83	82	82	82	83	85	88	91	94	96	97	99	101	103	105	106	108	109	108	105	103	101	99	97	95	94	92	91	90	88	87	86	86	86	88	90	92	94	95	97	99	101	102	104	106	107	109	109	107	105	103	101	99	97	94	92	89	86	84	82	80	79	78	77	77	77	78	78	79	81	84	85	87	88	88	88	88	88	89	89	89	89	89	89	90	90	91	92	93	92	90	89	87	84	82	79	77	74	70	65	61	57	53	51	48	47	45	43	41	39	37	36	35	34	34	33	32	31	31	30	29	28	26	24	22	20	18	17	15	14	13	13	13	14	16	17	19	22	24	27	29	32	33	34	35	36	37	38	40	41	43	45	45	46	47	47	48	49	50	50	50	49	48	47	46	46	45	45	43	42	39	36	34	32	31	29	27	26	25	24	23	22	21	19	18	16	13	8	3	1	1	1	1	1	1	1	1	1	1	1	1	1	1	1	1	1	1	1	1	0	0	0	0	0	0	0	0	0	0	0	0	0	0	0	0	0	0	0	0	0	0	0	0	0	0	0	0	0	0	0	0	0	0	0	0	0	0	0	0	0	0	1	1	1	1	1	1	1	1	1	1	1	1	1	1	1	1	2	2	3	5	9	13	15	17	19	22	24	25	27	29	31	31	30	29	28	27	27	27	28	28	29	29	29	29	28	27	25	23	21	19	17	16	15	15	14	15	15	16	17	18	20	22	23	24	26	28	30	32	34	36	38	40	40	40	40	39	36	34	31	28	26	24	22	21	20	19	17	15	13	10	6	3	2	1	1	1	1	1	1	1	1	1	1	1	0	0	0	0	0	0	0	0	0	0	0	0	0	0	0	0	0	0	0	0	0	0	0	0	0	0	0	0	0	0	0	0	0	0	0	0	0	0	0	0	0	0	0	0	0	0	0	0	0	0	0	0	0	0	0	0	0	0	0	0	0	0	0	0	0	0	0	0	0	0	0	0	0	0	0	0	0	0	0	0	0	0	0	0	0	0	0	0	0	0	0	0	0	0	0	0	0	0	0	0	0	0	0	0	0	0	0	0	0	0	0	0	0	0	0	0	0	0	0	0	0	0	0	0	0	0	0	0	0	0	0	0	0	0	0	0	0	0	0	0	0	0	0	0	0	0	0	0	0	0	0	0	0	0	0	0	0	0	0	0	0	0	0	0	0	0	0	0	0	0	0	0	0	0	0	0	0	0	0	0	0	0	0	0	0	0	0	0	0	0	0	0	0	0	0	0	0	0	0	0	0	0	0	0	0	0	0	0	0	0	0	0	0	0	0	0	0	0	0	0	0	0	0	0	0	0	0	0	0	0	0	0	0	0	0	0	0	0	0	0	0	0	0	0	0	0	0	0	0	0	0	0	0	0	0	0	0	0	0	0	0	0	0	0	0	0	0	0	0	0	0	0	0	0	0	0	0	0	0	0	0	0	0	0	0	0	0	0	0	0	0	0	0	0	0	0	0	0	0	0	0	0	0	0	0	0	0	0	0	0	0	0	0	0	0	0	0	0	0	0	0	0	0	0	0	0	0	0	0	0	0	0	0	0	0	0	0	0	0	0	0	0	0	0	0	0	0	0	0	0	0	0	0	0	0	0	0	0	0	0	0	0	0	0	0	0	0	0	0	0	0	0	0	0	0	0	0	0	0	0	0	0	0	0	0	0	0	0	1	1	1	1	1	1	1	1	1	1	1	1	1	1	1	1	1	1	1	1	1	1	1	1	1	1	2	2	2	3	4	5	5	5	5	5	8	11	12	13
