0	0	0	0	0	0	0	0	0	0	0	0	0	0	0	0	0	0	0	0	0	0	0	0	0	0	0	0	0	0	0	0	0	0	0	0	0	0	0	0	0	0	0	0	0	0	0	0	0	0	0	0	0	0	0	0	0	0	0	0	0	0	0	0	0	0	0	0	0	0	0	0	0	0	0	0	0	0	0	0	0	0	0	0	0	0	0	0	0	0	0	0	0	0	0	0	0	0	0	0	0	0	0	0	0	0	0	0	0	0	0	0	0	0	0	0	0	0	0	0	0	0	0	0	0	0	0	0	0	0	0	0	0	0	0	0	0	0	0	0	0	1	2	2	3	3	3	3	3	4	4	4	4	4	4	5	5	5	5	5	5	5	5	5	5	5	5	5	5	5	5	6	6	6	6	6	6	6	6	6	6	6	6	6	6	6	6	6	6	6	6	6	6	6	6	6	6	6	6	6	6	6	6	6	6	6	6	6	6	6	6	6	6	6	6	6	6	6	6	6	6	6	6	6	6	6	6	6	5	5	5	5	5	5	5	5	5	5	5	5	5	5	5	5	5	5	5	5	5	5	5	5	5	5	5	5	5	5	5	5	5	5	5	5	5	5	5	5	5	5	5	5	5	5	5	5	5	5	5	5	5	5	5	5	5	5	5	5	5	5	5	5	5	5	5	5	5	5	5	5	4	4	4	4	4	3	3	2	1	1	1	1	1	1	1	1	1	1	1	1	1	1	1	2	3	4	4	3	3	3	3	3	3	3	3	3	3	3	3	3	3	3	3	3	3	3	3	3	3	3	3	3	4	4	3	3	3	3	3	3	4	4	5	5	6	6	6	6	6	7	9	11	12	14	15	16	17	17	17	18	18	19	20	20	20	20	20	21	21	20	20	20	20	20	19	19	19	19	19	20	20	22	23	24	25	25	26	27	28	27	26	24	22	19	16	12	11	12	14	16	17	19	21	23	25	26	28	31	32	34	34	34	34	33	31	30	27	24	23	24	25	26	26	27	27	27	27	28	28	30	32	34	36	38	41	43	46	49	52	55	58	60	63	65	68	70	72	74	76	78	79	80	80	81	81	80	80	81	81	82	82	82	82	82	82	81	81	80	80	79	79	79	79	79	79	79	79	80	80	80	80	80	80	80	80	80	79	78	76	73	69	66	64	62	61	58	56	54	51	49	48	47	46	45	44	43	42	41	39	37	35	33	30	29	29	28	29	29	30	32	34	36	38	40	41	43	45	47	50	52	52	53	53	54	55	56	57	59	60	60	58	55	53	52	50	49	47	45	43	41	39	37	36	35	34	32	31	28	26	25	24	23	22	21	20	19	19	19	18	18	18	18	17	17	16	16	16	15	14	14	14	14	14	14	13	13	12	12	11	10	9	8	8	8	7	7	7	7	7	7	7	7	7	7	8	8	8	8	7	7	7	7	7	8	12	16	17	18	18	17	17	17	17	17	17	18	18	18	18	18	18	19	19	19	20	20	21	21	22	22	22	22	22	23	23	23	23	24	24	24	24	24	24	24	24	24	24	24	24	25	24	24	24	24	24	24	24	24	25	25	25	26	26	26	26	25	25	25	25	25	26	26	26	26	26	27	27	27	28	29	29	29	29	29	29	29	29	29	29	29	29	29	29	29	29	29	29	30	30	30	30	30	30	30	30	30	32	34	36	38	40	40	39	38	38	38	40	40	41	42	42	42	42	42	42	42	43	43	44	46	47	48	48	49	49	50	51	51	53	54	56	57	58	59	61	63	65	67	69	70	72	73	75	77	79	80	82	85	88	91	93	95	96	98	99	99	100	100	101	102	103	105	107	110	112	115	117	120	123	127	130	134	137	140	144	147	151	155	156	153	151	148	146	143	141	138	135	132	130	129	128	127	127	126	125	124	123	122	121	120	118	115	113	111	109	106	103	100	97	94	91	89	86	84	82	81	80	79	78	76	74	72	70	69	67	65	62	59	56	54	51	49	46	43	41	40	39	39	37	35	34	35	35	36	36	36	37	38	38	37	37	37	37	37	37	37	37	38	40	42	45	46	46	46	45	45	44	43	42	41	40	40	39	39	39	38	36	36	35	35	36	36	36	36	35	34	33	31	30	28	27	26	24	22	20	18	17	16	15	13	12	11	10	9	8	7	7	6	6	6	7	7	7	7	7	7	7	7	7	7	8	8	8	9	9	9	9	9	8	6	5	4	4	3	3	4	6	7	6	4	2	1	1	1	1	1	1	1	1	1	1	1	1	1	1	2	4	6	7	7
0	0	0	0	0	0	0	0	0	0	0	0	0	0	0	0	0	0	0	0	0	0	0	0	0	0	0	0	0	0	0	0	0	0	0	0	0	0	0	0	0	0	0	0	0	0	0	0	0	0	0	0	0	0	0	0	0	0	0	0	0	0	0	0	0	0	0	0	0	0	0	0	0	0	0	0	0	0	0	0	0	0	0	0	0	0	0	0	0	0	0	0	0	0	0	0	0	0	0	0	0	0	0	0	0	0	0	0	0	0	0	0	0	0	0	0	0	0	0	0	0	0	0	0	0	0	0	0	0	0	0	0	0	0	0	0	0	0	0	0	0	1	1	2	2	3	3	3	3	3	4	4	4	4	4	5	5	5	5	5	5	5	5	5	5	5	5	5	5	5	5	5	5	6	6	6	6	6	6	6	6	6	6	6	6	6	6	6	6	6	6	6	6	6	6	6	6	6	6	6	6	6	6	6	6	6	6	6	6	6	6	6	6	6	6	6	6	6	6	6	6	6	6	6	6	6	6	6	5	5	5	5	5	5	5	5	5	5	5	5	5	5	5	5	5	5	5	5	5	5	5	5	5	5	5	5	5	5	5	5	5	5	5	5	5	5	5	5	5	5	5	5	5	5	5	5	5	5	5	5	5	5	5	5	5	5	5	5	5	5	5	5	5	5	5	5	5	5	5	5	5	5	4	4	4	4	3	2	2	1	1	1	1	1	1	1	1	1	1	1	1	1	1	1	2	3	4	4	4	3	3	3	3	3	3	3	3	3	3	3	3	3	3	3	3	3	3	3	3	3	3	4	4	4	3	3	3	3	3	3	3	3	4	5	5	5	6	6	6	6	6	7	8	10	12	14	15	15	16	16	16	17	18	18	18	18	19	19	19	19	19	19	18	18	18	18	18	18	19	19	20	21	22	23	24	25	25	26	27	27	26	24	22	20	17	13	11	11	12	14	16	18	20	22	24	25	27	29	30	31	32	32	32	31	29	28	26	23	22	23	25	25	26	26	26	26	27	27	28	29	31	34	36	38	40	43	46	49	51	54	57	60	62	64	66	68	70	72	74	75	76	77	78	78	78	78	77	78	78	79	79	79	80	80	79	79	79	78	78	78	78	78	77	78	78	78	79	80	80	80	80	81	82	82	82	82	81	80	78	75	72	70	67	66	63	61	58	56	53	52	50	49	48	47	47	46	44	43	42	40	38	36	33	31	29	28	28	28	29	30	32	34	36	38	40	41	43	45	48	49	49	50	50	50	51	53	55	58	60	61	60	58	56	54	53	51	49	47	45	42	40	39	38	36	35	33	31	29	27	25	24	23	22	21	20	19	19	19	18	18	18	18	17	17	16	16	15	15	15	14	14	14	14	14	13	13	12	12	11	10	9	8	8	8	7	7	7	7	7	7	7	7	7	7	7	7	7	7	7	7	7	7	7	9	14	17	17	18	18	18	18	17	17	17	18	18	18	18	18	19	19	19	20	20	20	21	21	22	22	22	22	22	22	23	23	24	24	24	24	24	24	24	24	24	24	24	24	24	24	24	24	24	24	24	23	23	23	24	24	25	25	25	25	25	25	25	25	25	25	25	25	25	25	26	26	27	27	27	28	28	29	29	29	29	29	29	29	29	29	29	29	29	29	29	29	29	30	30	30	30	30	30	30	30	30	31	32	35	37	39	40	40	40	39	38	39	40	41	42	43	44	44	44	44	44	45	45	46	47	48	48	49	49	50	50	51	52	52	53	54	55	56	58	59	60	62	64	65	67	69	70	72	74	76	78	79	82	84	87	90	92	95	97	99	100	101	101	101	102	103	105	107	109	112	114	116	118	121	124	127	131	134	137	141	144	147	151	154	154	152	149	147	145	142	139	136	132	129	127	126	125	124	124	123	122	122	121	120	120	119	118	116	114	112	109	106	103	101	98	95	93	90	88	86	84	82	82	81	79	78	76	74	72	71	69	67	63	60	58	55	52	50	47	44	41	40	40	40	38	36	36	36	37	38	39	39	40	41	41	40	40	40	41	41	40	40	40	42	44	46	48	49	49	49	48	48	47	46	44	43	42	41	40	40	39	38	36	34	34	34	34	35	35	35	35	35	34	32	31	29	28	27	25	22	20	19	17	16	15	14	12	11	10	9	8	8	7	6	6	6	7	7	7	7	7	7	7	7	7	7	8	8	9	10	10	9	9	9	8	6	4	4	4	3	3	4	5	7	6	4	2	1	1	1	1	1	1	1	1	1	1	1	1	2	1	2	3	6	7	7
0	0	0	0	0	0	0	0	0	0	0	0	0	0	0	0	0	0	0	0	0	0	0	0	0	0	0	0	0	0	0	0	0	0	0	0	0	0	0	0	0	0	0	0	0	0	0	0	0	0	0	0	0	0	0	0	0	0	0	0	0	0	0	0	0	0	0	0	0	0	0	0	0	0	0	0	0	0	0	0	0	0	0	0	0	0	0	0	0	0	0	0	0	0	0	0	0	0	0	0	0	0	0	0	0	0	0	0	0	0	0	0	0	0	0	0	0	0	0	0	0	0	0	0	0	0	0	0	0	0	0	0	0	0	0	0	0	0	0	0	0	0	1	1	2	2	3	3	3	3	4	4	4	4	4	5	5	5	5	5	5	5	5	5	5	5	5	5	5	5	5	5	5	5	5	5	6	6	6	6	6	6	6	6	6	6	6	6	6	6	6	6	6	6	6	6	6	6	6	6	6	6	6	6	6	6	6	6	6	6	6	6	6	6	6	6	6	6	6	6	6	6	6	6	6	6	6	6	5	5	5	5	5	5	5	5	5	5	5	5	5	5	5	5	5	5	5	5	5	5	5	5	5	5	5	5	5	5	5	5	5	5	5	5	5	5	5	5	5	5	5	5	5	5	5	5	5	5	5	5	5	5	5	5	5	5	5	5	5	5	5	5	5	5	5	5	5	5	5	4	4	4	4	4	4	4	4	3	2	2	1	1	1	1	1	1	1	1	1	1	1	1	1	1	1	2	3	4	4	3	3	3	3	3	3	3	3	3	3	3	3	3	3	3	3	3	3	3	3	3	4	4	4	3	3	3	3	3	3	3	3	3	3	4	4	5	5	5	5	6	6	6	6	7	8	10	11	13	14	14	15	15	16	16	17	17	17	17	17	17	17	17	17	17	17	17	17	17	18	19	20	21	22	22	23	24	24	25	26	27	26	24	22	21	18	14	11	11	11	12	14	17	19	21	22	24	26	27	28	29	29	29	29	29	28	26	24	22	21	22	24	25	25	25	25	26	26	27	28	29	30	33	35	37	40	43	45	48	51	54	56	59	61	62	64	66	67	69	71	72	74	74	75	75	75	75	75	75	76	76	76	77	77	77	77	77	77	76	77	77	77	76	76	77	77	78	79	80	80	81	82	83	84	85	84	84	83	82	80	78	75	73	71	69	66	62	60	58	56	54	53	52	51	50	49	48	46	45	44	42	40	38	36	34	31	29	28	27	27	29	31	33	35	37	39	40	41	43	45	46	46	47	47	47	49	51	54	57	60	61	62	60	59	57	55	53	51	48	46	44	42	40	38	37	34	32	31	29	27	25	24	23	22	20	20	19	19	18	18	18	18	18	17	17	16	16	15	15	15	15	14	14	14	13	13	13	12	12	11	10	9	9	8	8	7	7	7	7	7	7	7	7	7	7	7	7	7	7	7	7	7	7	7	9	14	17	18	18	18	18	18	18	17	18	18	19	19	19	19	19	19	20	20	20	20	21	21	22	22	22	23	23	23	23	23	23	24	24	24	24	24	24	24	24	24	24	24	24	24	24	24	24	24	24	23	23	23	23	24	24	24	25	25	25	25	25	24	24	25	25	25	25	25	26	26	26	27	27	28	28	29	29	29	29	29	29	29	29	29	29	29	29	29	29	29	29	30	30	30	30	30	30	30	30	30	32	34	36	38	40	41	41	40	40	39	39	40	41	43	44	46	46	47	47	47	47	48	48	49	49	49	49	50	51	52	53	53	53	54	54	55	56	57	58	59	60	62	64	66	67	69	71	73	74	76	79	81	84	86	89	91	94	97	99	101	102	102	103	103	105	106	108	110	113	115	117	119	122	124	128	131	134	138	140	143	147	150	154	153	150	148	146	143	141	137	134	130	127	124	123	122	121	121	120	119	118	118	118	117	117	116	116	114	112	109	107	104	101	99	97	94	92	90	88	86	84	83	82	81	79	78	76	74	73	71	68	65	61	59	56	53	50	47	44	42	40	40	40	38	37	36	37	38	39	40	41	42	42	43	43	43	43	43	44	44	43	44	45	48	50	51	51	51	51	51	51	50	49	47	46	45	43	42	41	39	37	35	34	33	32	33	34	35	35	35	35	34	32	31	30	29	27	25	23	20	19	18	16	15	14	13	11	10	9	8	8	7	6	6	6	7	7	7	7	7	7	7	7	7	8	8	9	10	10	10	10	10	9	8	6	4	4	4	4	3	3	5	7	7	5	3	2	1	1	1	1	1	1	1	2	2	2	2	2	2	2	3	5	7	7
0	0	0	0	0	0	0	0	0	0	0	0	0	0	0	0	0	0	0	0	0	0	0	0	0	0	0	0	0	0	0	0	0	0	0	0	0	0	0	0	0	0	0	0	0	0	0	0	0	0	0	0	0	0	0	0	0	0	0	0	0	0	0	0	0	0	0	0	0	0	0	0	0	0	0	0	0	0	0	0	0	0	0	0	0	0	0	0	0	0	0	0	0	0	0	0	0	0	0	0	0	0	0	0	0	0	0	0	0	0	0	0	0	0	0	0	0	0	0	0	0	0	0	0	0	0	0	0	0	0	0	0	0	0	0	0	0	0	0	0	0	0	0	1	1	2	2	3	3	3	3	4	4	4	4	5	5	5	5	5	5	5	5	5	5	5	5	5	5	5	5	5	5	5	5	5	5	6	6	6	6	6	6	6	6	6	6	6	6	6	6	6	6	6	6	6	6	6	6	6	6	6	6	6	6	6	6	6	6	6	6	6	6	6	6	6	6	6	6	6	6	6	6	6	6	6	6	6	6	5	5	5	5	5	5	5	5	5	5	5	5	5	5	5	5	5	5	5	5	5	5	5	5	5	5	5	5	5	5	5	5	5	5	5	5	5	5	5	5	5	5	5	5	5	5	5	5	5	5	5	5	5	5	5	5	5	5	5	5	5	5	5	5	5	5	5	5	5	5	4	4	4	4	4	4	4	4	4	3	2	2	1	1	1	1	1	1	1	1	1	1	1	1	1	1	1	2	3	4	4	3	3	3	3	3	3	3	3	3	3	3	3	3	3	3	3	3	3	3	4	4	4	4	3	3	3	3	3	3	3	3	3	3	3	3	4	4	4	5	5	5	5	5	6	6	7	8	9	11	12	13	13	14	14	15	15	15	16	16	16	16	16	16	16	16	16	16	17	19	19	20	21	21	22	22	23	23	24	25	26	26	24	22	20	18	15	12	11	11	11	12	14	17	19	21	22	24	25	26	26	27	27	27	27	26	25	23	21	20	21	23	24	24	24	25	25	26	27	27	28	30	32	34	37	39	42	45	47	50	52	55	57	59	61	62	63	65	67	69	70	71	72	72	71	71	71	72	72	73	73	74	74	74	75	75	75	75	75	75	75	75	75	75	76	77	79	79	80	81	83	84	85	86	87	87	86	85	84	82	81	78	76	74	71	67	63	60	59	58	56	55	55	53	52	51	50	48	47	46	44	42	40	39	37	35	32	29	27	27	27	29	31	33	35	37	38	39	41	42	43	43	44	45	46	48	50	53	57	60	62	63	62	61	59	57	55	52	50	48	45	43	41	39	36	34	32	30	29	27	25	24	22	21	20	19	19	18	18	18	18	18	18	17	17	16	16	15	15	15	14	14	14	13	13	13	13	12	12	11	10	10	9	8	8	7	7	7	7	7	7	7	7	7	7	7	7	7	7	7	7	7	8	9	10	13	16	17	18	18	18	18	18	18	18	19	19	19	19	19	19	20	20	20	20	20	21	21	22	22	23	23	23	23	23	23	23	23	23	23	23	23	23	23	23	23	23	23	24	24	24	24	24	24	24	24	23	23	23	23	24	24	24	24	24	24	24	24	24	24	24	24	25	25	25	26	26	27	27	28	28	29	29	29	29	29	29	29	29	29	29	29	29	29	29	29	30	30	30	30	30	30	30	30	30	31	33	35	37	39	41	42	42	41	40	40	40	40	41	43	45	46	47	48	49	49	49	50	50	51	51	51	51	51	52	53	54	55	55	55	55	56	56	57	58	59	60	61	63	64	66	68	70	72	74	76	78	80	83	85	88	90	93	96	98	100	102	103	104	104	106	107	109	111	113	116	118	120	123	125	128	131	134	137	140	143	146	150	154	153	150	147	144	142	139	135	132	128	125	122	120	118	118	117	116	116	115	115	114	114	113	113	113	112	111	109	107	105	102	100	98	96	94	92	90	87	85	84	83	82	81	79	77	75	73	71	68	65	62	60	57	54	51	48	45	42	40	40	39	38	37	37	38	39	40	41	42	43	44	44	45	45	45	46	47	47	47	48	49	51	52	53	53	53	52	52	52	52	51	50	48	46	44	43	42	40	38	35	33	31	31	31	33	34	34	35	35	34	33	32	31	30	28	27	24	21	19	18	17	16	14	13	11	10	9	8	8	7	6	6	6	6	7	8	7	7	7	7	7	8	8	9	9	10	11	11	10	10	9	7	5	4	4	4	4	3	3	4	7	7	6	3	2	1	1	2	2	2	2	2	2	2	2	2	2	2	2	3	5	7	7
0	0	0	0	0	0	0	0	0	0	0	0	0	0	0	0	0	0	0	0	0	0	0	0	0	0	0	0	0	0	0	0	0	0	0	0	0	0	0	0	0	0	0	0	0	0	0	0	0	0	0	0	0	0	0	0	0	0	0	0	0	0	0	0	0	0	0	0	0	0	0	0	0	0	0	0	0	0	0	0	0	0	0	0	0	0	0	0	0	0	0	0	0	0	0	0	0	0	0	0	0	0	0	0	0	0	0	0	0	0	0	0	0	0	0	0	0	0	0	0	0	0	0	0	0	0	0	0	0	0	0	0	0	0	0	0	0	0	0	0	0	0	0	1	1	1	2	3	3	3	3	4	4	4	4	4	5	5	5	5	5	5	5	5	5	5	5	5	5	5	5	5	5	5	5	5	5	6	6	6	6	6	6	6	6	6	6	6	6	6	6	6	6	6	6	6	6	6	6	6	6	6	6	6	6	6	6	6	6	6	6	6	6	6	6	6	6	6	6	6	6	6	6	6	6	6	6	6	6	5	5	5	5	5	5	5	5	5	5	5	5	5	5	5	5	5	5	5	5	5	5	5	5	5	5	5	5	5	5	5	5	5	5	5	5	5	5	5	5	5	5	5	5	5	5	5	5	5	5	5	5	5	5	5	5	5	5	5	5	5	5	5	5	5	5	5	5	5	5	4	4	4	4	4	4	4	4	4	4	3	2	2	1	1	1	1	1	1	1	1	1	1	1	1	1	1	1	2	4	4	4	3	3	3	3	3	3	3	3	3	3	3	3	3	3	3	3	3	4	4	4	4	4	3	3	3	3	3	3	3	3	3	3	3	3	3	3	3	4	4	4	5	5	5	5	5	6	7	8	9	10	11	12	12	13	13	14	14	14	14	15	15	15	14	14	15	16	17	18	19	20	21	21	21	22	22	23	23	24	25	25	24	22	21	19	16	14	11	11	11	11	13	15	17	19	20	22	23	24	25	25	25	25	25	24	23	22	20	20	20	21	22	23	23	24	24	25	26	27	27	29	31	34	36	39	41	44	46	49	51	54	56	57	59	60	61	62	64	66	67	68	69	69	69	68	68	69	69	70	70	71	71	72	72	73	73	73	73	73	73	73	74	75	76	78	79	80	81	83	84	86	87	88	89	89	88	87	86	85	83	81	79	76	72	68	64	61	60	60	59	58	57	56	54	53	52	51	49	48	46	44	42	41	40	37	34	31	29	27	26	27	29	32	34	35	36	37	39	40	40	41	42	45	47	49	51	54	57	60	62	63	63	62	60	59	56	54	51	48	46	44	41	39	37	34	32	30	28	27	25	24	22	21	20	19	19	18	18	18	18	18	18	17	17	16	16	15	15	14	14	14	13	13	13	13	13	12	12	11	11	11	10	8	8	8	7	7	7	7	7	7	7	7	7	7	7	7	7	7	7	7	9	10	12	14	15	17	17	18	18	18	18	18	19	19	20	20	20	20	20	20	20	20	20	20	21	22	22	22	23	23	23	24	24	23	23	23	23	23	23	23	23	23	23	23	23	23	23	24	24	24	24	24	24	24	23	23	23	23	23	23	23	23	23	23	23	23	24	24	24	24	25	25	25	26	26	27	27	27	28	28	29	29	29	29	29	29	29	29	29	29	29	29	29	30	30	30	30	30	30	30	30	30	31	33	35	37	39	40	42	43	43	41	41	40	40	40	41	43	45	47	48	49	50	51	51	52	52	52	53	53	53	53	54	55	56	56	56	56	57	57	57	57	58	58	59	60	62	63	65	67	69	71	74	76	78	80	82	84	87	90	92	94	97	99	101	103	104	105	106	107	109	111	114	116	119	121	123	126	128	131	134	137	140	143	146	150	153	152	149	146	143	141	137	134	130	126	123	120	117	116	114	114	113	112	111	111	111	111	110	110	109	109	109	108	107	105	103	102	100	98	96	94	91	89	87	85	84	83	81	80	78	75	72	70	67	64	62	59	56	54	51	48	45	42	40	39	38	37	37	38	39	39	41	42	43	44	45	46	46	47	47	48	50	50	50	51	52	52	53	53	54	53	53	53	53	53	52	51	49	47	46	44	43	41	39	36	33	31	29	30	31	33	34	34	34	34	34	33	32	31	29	28	25	22	20	19	17	16	15	13	12	10	9	8	8	7	6	6	6	6	7	8	8	7	7	7	8	8	9	10	10	11	11	11	10	9	8	6	5	5	4	4	4	3	3	4	6	7	6	4	2	2	2	2	2	2	2	2	2	2	2	2	2	2	2	2	4	7	7
0	0	0	0	0	0	0	0	0	0	0	0	0	0	0	0	0	0	0	0	0	0	0	0	0	0	0	0	0	0	0	0	0	0	0	0	0	0	0	0	0	0	0	0	0	0	0	0	0	0	0	0	0	0	0	0	0	0	0	0	0	0	0	0	0	0	0	0	0	0	0	0	0	0	0	0	0	0	0	0	0	0	0	0	0	0	0	0	0	0	0	0	0	0	0	0	0	0	0	0	0	0	0	0	0	0	0	0	0	0	0	0	0	0	0	0	0	0	0	0	0	0	0	0	0	0	0	0	0	0	0	0	0	0	0	0	0	0	0	0	0	0	0	0	1	1	2	2	3	3	3	3	4	4	4	4	5	5	5	5	5	5	5	5	5	5	5	5	5	5	5	5	5	5	5	5	5	6	6	6	6	6	6	6	6	6	6	6	6	6	6	6	6	6	6	6	6	6	6	6	6	6	6	6	6	6	6	6	6	6	6	6	6	6	6	6	6	6	6	6	6	6	6	6	6	6	6	6	6	6	5	5	5	5	5	5	5	5	5	5	5	5	5	5	5	5	5	5	5	5	5	5	5	5	5	5	5	5	5	5	5	5	5	5	5	5	5	5	5	5	5	5	5	5	5	5	5	5	5	5	5	5	5	5	5	5	5	5	5	5	5	5	5	5	5	5	5	5	5	4	4	4	4	4	4	4	4	4	4	4	3	3	2	1	1	1	1	1	1	1	1	1	1	1	1	0	1	1	3	4	4	4	3	3	3	3	3	3	3	3	3	3	3	3	3	3	3	3	4	4	4	4	3	3	3	3	3	3	3	3	3	3	3	3	3	3	3	3	3	3	3	4	4	4	5	5	5	6	6	7	8	9	10	11	11	12	12	13	13	13	13	13	13	13	13	14	15	17	18	19	20	21	21	21	22	22	23	23	24	24	25	24	23	22	20	18	15	12	11	11	11	12	13	15	17	18	20	21	22	23	23	24	23	23	22	21	20	19	19	19	20	21	21	22	23	24	24	25	26	27	29	31	33	36	39	41	43	45	48	50	52	54	55	56	57	58	60	62	64	65	66	66	66	66	66	65	66	66	67	68	68	69	69	70	71	71	71	71	71	71	72	74	75	77	78	79	80	82	84	86	88	89	90	91	91	90	89	88	87	85	83	80	77	73	69	66	64	62	61	61	60	59	58	57	55	54	53	51	50	48	45	43	42	41	40	37	33	30	28	27	26	28	30	32	33	34	35	37	38	39	40	43	46	48	50	52	55	58	60	62	64	64	63	61	59	57	54	51	48	45	43	41	39	37	34	32	30	28	26	25	24	22	21	20	19	18	18	18	18	18	18	18	17	17	16	16	15	15	14	14	14	13	13	13	13	13	12	12	12	11	11	10	8	8	8	7	7	7	7	7	7	7	7	7	7	7	7	7	7	7	7	9	11	13	14	15	16	17	18	18	17	18	19	19	20	20	20	20	20	20	20	20	20	21	21	21	22	22	23	23	23	24	24	24	23	23	23	23	23	23	23	23	23	23	23	23	23	23	23	23	23	24	24	24	24	24	23	23	22	22	22	22	23	23	23	23	23	23	23	24	24	25	25	26	26	26	27	27	27	28	28	28	29	29	29	29	29	29	29	29	29	29	29	29	30	30	30	30	30	30	30	30	31	32	34	36	38	40	42	43	44	44	43	42	42	41	40	41	43	45	47	49	50	51	52	53	53	54	54	54	55	55	55	56	56	57	58	58	58	58	58	58	58	58	58	59	60	61	63	65	67	69	71	73	75	77	79	81	84	86	89	91	93	95	98	100	102	103	104	106	107	109	111	114	116	119	121	124	126	128	131	134	137	139	142	146	150	152	151	148	145	143	140	136	132	128	125	121	118	116	114	111	110	109	108	108	108	108	107	107	106	106	106	106	106	106	105	104	103	101	99	97	95	93	91	88	86	85	83	81	79	77	74	71	69	66	64	61	58	55	53	50	47	44	42	40	39	38	37	38	39	39	40	41	43	44	45	46	47	48	48	49	51	52	53	53	53	54	54	54	54	54	54	54	54	54	53	52	51	50	48	46	45	43	41	40	37	34	31	29	28	30	31	32	33	33	34	34	34	33	32	30	28	26	24	21	19	18	16	15	13	12	10	9	8	8	7	6	6	6	6	7	8	8	7	7	8	8	9	9	10	11	11	11	11	9	8	7	5	5	5	4	4	4	3	3	4	6	7	6	4	2	2	2	2	2	2	2	2	2	2	2	2	2	2	2	2	4	6	7
0	0	0	0	0	0	0	0	0	0	0	0	0	0	0	0	0	0	0	0	0	0	0	0	0	0	0	0	0	0	0	0	0	0	0	0	0	0	0	0	0	0	0	0	0	0	0	0	0	0	0	0	0	0	0	0	0	0	0	0	0	0	0	0	0	0	0	0	0	0	0	0	0	0	0	0	0	0	0	0	0	0	0	0	0	0	0	0	0	0	0	0	0	0	0	0	0	0	0	0	0	0	0	0	0	0	0	0	0	0	0	0	0	0	0	0	0	0	0	0	0	0	0	0	0	0	0	0	0	0	0	0	0	0	0	0	0	0	0	0	0	0	0	0	0	1	1	2	2	3	3	3	4	4	4	4	4	5	5	5	5	5	5	5	5	5	5	5	5	5	5	5	5	5	5	5	5	5	6	6	6	6	6	6	6	6	6	6	6	6	7	6	6	6	6	6	6	6	6	6	6	6	6	6	6	6	6	6	6	6	6	6	6	6	6	6	6	6	6	6	6	6	6	6	6	6	6	6	6	6	5	5	5	5	5	5	5	5	5	5	5	5	5	5	5	5	5	5	5	5	5	5	5	5	5	5	5	5	5	5	5	5	5	5	5	5	5	5	5	5	5	5	5	5	5	5	5	5	5	5	5	5	5	5	5	5	5	5	5	5	5	5	5	5	5	5	5	5	4	4	4	4	4	4	4	4	4	4	4	4	4	4	3	2	1	1	1	1	1	1	1	1	1	1	1	0	0	1	2	3	4	4	3	3	3	3	3	3	3	3	3	3	3	3	3	3	3	4	4	4	3	3	3	3	3	3	3	3	3	3	3	3	3	3	3	3	3	3	3	3	3	3	3	4	5	5	5	5	5	6	6	7	8	9	9	10	11	11	11	11	11	11	12	12	13	14	15	16	17	19	20	20	21	21	22	22	23	23	24	24	25	25	24	22	21	20	16	13	11	11	11	11	11	13	15	16	18	19	20	21	22	22	22	21	21	20	19	18	18	18	19	19	20	21	22	23	23	24	25	26	28	30	33	36	38	40	42	45	47	48	50	51	52	53	54	56	58	60	61	62	63	63	63	63	63	62	63	63	64	65	65	66	66	67	68	68	68	69	70	71	73	75	76	77	78	80	81	83	85	87	89	91	92	93	93	92	92	90	88	85	83	81	78	75	71	69	67	65	64	63	62	61	60	59	58	56	55	53	52	49	47	45	43	43	41	39	35	32	30	28	26	26	28	30	30	32	33	35	36	38	41	44	47	49	51	53	56	59	61	63	64	64	63	61	59	56	53	50	46	44	42	40	39	37	34	32	30	28	26	25	23	22	21	19	19	18	18	18	18	18	17	17	17	17	16	16	15	14	14	14	13	13	13	13	13	13	12	12	11	11	10	9	8	8	8	7	7	7	7	7	7	7	7	7	7	7	7	7	7	7	8	10	11	13	15	16	16	17	18	18	18	19	19	20	20	20	20	20	20	20	20	20	20	21	21	22	22	22	23	23	23	24	24	23	23	23	23	23	23	23	23	23	23	22	22	22	23	23	22	22	22	23	23	23	24	24	23	22	22	22	21	22	22	22	22	22	22	22	23	23	24	25	25	26	26	26	27	27	27	28	28	28	28	29	29	29	29	29	29	29	29	29	29	30	30	30	30	30	30	30	30	30	31	33	36	38	39	41	43	44	44	44	44	44	43	41	40	41	43	45	47	49	51	52	53	53	54	55	55	56	56	56	57	57	58	59	59	60	60	60	60	60	60	60	59	59	60	61	63	65	67	69	71	73	75	76	78	80	83	85	87	89	92	94	96	98	100	101	103	104	106	108	111	113	116	118	120	123	126	128	131	134	136	139	142	146	149	151	149	146	144	141	138	135	131	127	123	120	117	115	112	109	107	106	105	104	104	104	104	104	103	103	103	103	103	103	103	103	102	101	99	98	96	94	91	88	86	84	83	81	79	76	73	70	68	65	63	60	57	54	51	48	46	43	41	39	38	38	38	39	39	40	41	42	43	45	46	47	48	49	50	51	52	54	54	55	55	55	55	55	55	55	55	54	54	54	53	52	51	50	48	47	45	43	42	40	38	35	32	29	28	28	30	31	32	32	32	32	33	32	31	30	28	26	24	22	20	18	16	15	13	12	11	9	9	8	7	6	6	6	6	6	7	8	8	7	8	8	9	9	10	11	11	11	10	8	7	5	5	5	5	5	4	4	4	3	3	5	7	7	5	3	2	2	2	2	2	2	2	2	2	2	2	2	2	2	2	3	6	7
0	0	0	0	0	0	0	0	0	0	0	0	0	0	0	0	0	0	0	0	0	0	0	0	0	0	0	0	0	0	0	0	0	0	0	0	0	0	0	0	0	0	0	0	0	0	0	0	0	0	0	0	0	0	0	0	0	0	0	0	0	0	0	0	0	0	0	0	0	0	0	0	0	0	0	0	0	0	0	0	0	0	0	0	0	0	0	0	0	0	0	0	0	0	0	0	0	0	0	0	0	0	0	0	0	0	0	0	0	0	0	0	0	0	0	0	0	0	0	0	0	0	0	0	0	0	0	0	0	0	0	0	0	0	0	0	0	0	0	0	0	0	0	0	0	0	1	1	2	2	3	3	3	4	4	4	4	4	4	5	5	5	5	5	5	5	5	5	5	5	5	5	5	5	5	5	5	5	5	6	6	6	6	6	6	6	6	6	6	6	7	6	6	6	6	6	6	6	6	6	6	6	6	6	6	6	6	6	6	6	6	6	6	6	6	6	6	6	6	6	6	6	6	6	6	6	6	6	6	6	5	5	5	5	5	5	5	5	5	5	5	5	5	5	5	5	5	5	5	5	5	5	5	5	5	5	5	5	5	5	5	5	5	5	5	5	5	5	5	5	5	5	5	5	5	5	5	5	5	5	5	5	5	5	5	5	5	5	5	5	5	5	5	5	5	5	5	5	4	4	4	4	4	4	4	4	4	4	4	5	5	4	3	2	2	1	1	1	1	1	1	1	1	1	0	0	0	0	1	2	3	4	4	3	3	3	3	3	3	3	3	3	3	3	3	3	3	4	3	3	3	3	3	3	3	3	3	3	3	3	3	3	3	3	3	3	3	3	3	3	3	3	3	4	5	5	5	4	4	5	5	6	6	7	7	8	9	10	10	10	10	10	11	11	12	13	14	16	17	18	20	20	21	21	22	22	23	23	23	24	25	25	24	23	22	21	18	14	11	10	10	10	10	11	13	15	16	17	18	19	20	20	20	20	19	19	18	18	17	18	18	19	20	20	21	22	22	23	25	26	28	30	32	35	37	39	41	43	45	46	47	48	49	50	52	53	55	57	59	60	60	60	60	60	60	60	60	60	61	62	63	63	64	65	66	66	67	68	70	72	74	75	77	78	79	81	83	85	87	89	90	92	94	95	95	95	94	92	89	86	83	81	79	76	74	71	69	68	66	65	64	62	61	60	59	59	57	55	53	51	48	46	45	44	42	40	37	34	31	29	26	25	26	27	28	29	32	34	36	39	41	44	47	49	51	54	56	59	61	63	64	64	63	61	59	55	52	49	45	42	41	39	38	36	33	31	29	27	26	24	23	21	20	19	19	18	18	18	17	17	17	17	17	16	16	15	15	14	14	13	13	13	13	12	12	12	12	11	11	10	9	9	8	8	7	7	7	7	7	7	7	7	7	7	7	7	7	7	7	7	8	10	12	13	15	16	17	17	18	18	19	19	20	20	20	20	20	20	20	20	20	20	21	21	22	22	22	23	23	23	23	23	23	23	23	23	23	22	22	22	22	22	22	22	22	22	22	22	22	22	22	22	22	23	23	23	23	22	22	21	21	21	21	21	21	21	22	22	23	23	24	25	26	26	26	27	27	27	28	28	28	28	28	29	29	29	29	29	29	29	29	29	30	30	30	30	30	30	30	30	30	31	33	35	37	39	41	43	44	45	45	45	45	45	44	42	41	42	44	46	48	49	51	52	53	54	55	56	56	57	57	58	58	59	59	60	61	61	61	61	61	61	61	61	61	60	60	61	63	65	66	68	70	72	73	75	77	79	81	83	86	88	90	93	95	97	99	100	101	103	105	108	111	113	116	118	120	122	125	128	131	134	137	140	142	146	149	149	147	145	143	140	137	133	130	126	122	119	116	113	110	107	105	103	101	101	100	100	100	100	100	100	100	100	100	100	100	100	100	99	98	96	94	92	90	88	85	83	82	80	78	75	72	69	67	64	61	58	56	53	50	47	44	41	40	39	38	38	39	39	40	40	41	43	44	46	47	48	49	50	51	52	54	55	56	56	56	56	56	56	56	55	55	55	54	53	53	52	51	50	48	47	45	43	42	40	38	35	32	30	28	28	29	30	30	31	31	31	31	31	30	29	28	26	24	22	20	18	16	15	14	12	11	9	9	8	7	6	6	6	6	6	6	7	8	8	8	8	8	9	10	11	11	10	8	7	6	5	5	5	5	5	4	4	4	3	3	5	7	7	5	3	2	2	2	2	2	2	2	2	2	2	2	2	2	1	2	3	5	7
0	0	0	0	0	0	0	0	0	0	0	0	0	0	0	0	0	0	0	0	0	0	0	0	0	0	0	0	0	0	0	0	0	0	0	0	0	0	0	0	0	0	0	0	0	0	0	0	0	0	0	0	0	0	0	0	0	0	0	0	0	0	0	0	0	0	0	0	0	0	0	0	0	0	0	0	0	0	0	0	0	0	0	0	0	0	0	0	0	0	0	0	0	0	0	0	0	0	0	0	0	0	0	0	0	0	0	0	0	0	0	0	0	0	0	0	0	0	0	0	0	0	0	0	0	0	0	0	0	0	0	0	0	0	0	0	0	0	0	0	0	0	0	0	0	0	1	1	1	2	2	3	3	3	4	4	4	4	4	4	4	5	5	5	5	5	5	5	5	5	5	5	5	5	5	5	5	5	5	6	6	6	6	6	6	6	6	6	6	6	6	6	6	6	6	6	6	6	6	6	6	6	6	6	6	6	6	6	6	6	6	6	6	6	6	6	6	6	6	6	6	6	6	6	6	6	6	6	6	6	6	5	5	5	5	5	5	5	5	5	5	5	5	5	5	5	5	5	5	5	5	5	5	5	5	5	5	5	5	5	5	5	5	5	5	5	5	5	5	5	5	5	5	5	5	5	5	5	5	5	5	5	5	5	5	5	5	5	5	5	5	5	5	5	5	5	5	4	4	4	4	4	4	4	4	4	4	4	4	4	5	4	3	3	2	1	1	1	1	1	1	1	1	0	0	0	0	0	0	1	2	3	4	4	3	3	3	3	3	3	3	3	3	3	3	3	4	4	3	3	3	3	3	3	3	3	3	3	3	3	3	3	3	3	3	3	3	3	3	3	3	3	3	4	5	5	4	3	3	3	4	5	5	6	6	7	7	8	8	9	9	10	10	11	11	12	13	15	16	18	19	20	21	21	22	22	22	23	23	23	24	25	25	24	23	21	19	15	12	10	9	9	9	10	11	13	14	16	17	18	19	19	19	19	18	18	18	17	17	17	18	19	19	20	20	21	21	22	24	26	27	29	32	34	36	38	40	41	43	44	44	45	46	48	49	51	53	55	56	57	57	57	57	57	57	57	57	58	59	59	60	61	61	62	63	65	66	68	70	72	74	76	78	79	81	83	85	87	89	90	92	94	95	97	98	98	97	94	91	88	85	82	80	78	76	74	72	70	68	67	66	64	62	61	60	60	59	57	55	52	50	48	46	45	43	40	37	35	32	30	27	25	25	26	27	28	30	33	36	38	41	44	47	50	52	54	57	59	61	63	64	64	62	60	57	54	51	48	44	41	39	38	36	34	32	30	28	26	25	24	22	21	20	19	18	18	18	17	17	17	17	16	16	16	15	15	14	14	14	13	13	12	12	12	12	11	11	11	10	10	9	8	8	8	7	7	7	7	7	7	7	7	7	7	7	7	7	7	7	7	8	10	12	14	15	16	16	17	18	19	20	20	20	20	20	21	21	21	20	20	20	21	21	22	22	22	23	23	23	23	23	23	23	23	23	23	22	22	22	22	22	22	22	22	22	22	22	22	22	22	22	22	22	22	23	23	22	22	21	21	21	21	20	20	20	21	21	22	23	24	25	25	26	26	27	27	28	28	28	28	29	29	29	29	29	29	29	29	29	30	30	30	30	30	30	30	30	30	30	30	31	32	34	36	38	40	42	44	45	45	46	46	45	45	44	42	42	43	45	46	48	50	51	53	53	54	56	57	57	58	59	59	60	60	61	62	63	63	63	63	63	63	63	63	63	62	61	61	63	64	66	67	69	71	73	75	77	79	80	82	84	87	89	92	94	97	99	100	100	102	105	108	111	113	116	118	120	123	126	129	132	135	138	140	143	146	149	148	146	144	142	139	136	132	129	125	121	118	115	112	109	105	103	100	99	98	97	97	97	97	97	98	98	98	97	97	97	97	97	97	95	93	91	90	89	86	84	82	81	79	76	74	71	68	65	62	60	57	54	51	48	45	42	40	39	39	39	39	39	40	40	41	42	44	45	46	48	49	50	51	53	54	55	56	56	56	56	56	56	56	56	56	55	55	54	53	52	52	51	49	47	46	44	43	41	40	38	35	32	30	28	27	28	29	29	29	29	29	29	29	29	28	27	26	25	22	20	18	16	15	14	12	11	9	9	8	7	6	6	6	6	6	6	7	8	8	8	8	8	9	9	10	9	8	7	6	5	5	5	5	5	5	5	4	4	3	3	4	6	7	5	3	2	2	2	2	2	2	2	2	2	1	1	2	2	1	1	3	5	6
0	0	0	0	0	0	0	0	0	0	0	0	0	0	0	0	0	0	0	0	0	0	0	0	0	0	0	0	0	0	0	0	0	0	0	0	0	0	0	0	0	0	0	0	0	0	0	0	0	0	0	0	0	0	0	0	0	0	0	0	0	0	0	0	0	0	0	0	0	0	0	0	0	0	0	0	0	0	0	0	0	0	0	0	0	0	0	0	0	0	0	0	0	0	0	0	0	0	0	0	0	0	0	0	0	0	0	0	0	0	0	0	0	0	0	0	0	0	0	0	0	0	0	0	0	0	0	0	0	0	0	0	0	0	0	0	0	0	0	0	0	0	0	0	0	0	0	1	1	1	2	3	3	3	3	4	4	4	4	4	4	4	4	4	4	5	5	5	5	5	5	5	5	5	5	5	5	5	5	5	5	6	6	6	6	6	6	6	6	6	6	6	6	6	6	6	6	6	6	6	6	6	6	6	6	6	6	6	6	6	6	6	6	6	6	6	6	6	6	6	6	6	6	6	6	6	6	6	6	6	6	6	5	5	5	5	5	5	5	5	5	5	5	5	5	5	5	5	5	5	5	5	5	5	5	5	5	5	5	5	5	5	5	5	5	5	5	5	5	5	5	5	5	5	5	5	5	5	5	5	5	5	5	5	5	5	5	5	5	5	5	5	5	5	5	5	5	4	4	4	4	4	4	4	4	4	4	4	4	4	4	4	4	3	2	2	1	1	1	1	1	1	0	0	0	0	0	0	0	1	1	3	4	4	4	3	3	3	3	3	3	3	3	3	3	3	4	3	3	3	3	3	3	3	3	3	3	3	3	3	3	3	3	3	3	3	3	3	3	3	3	3	4	4	5	4	3	3	2	2	3	3	4	5	6	6	6	7	7	8	8	9	9	10	10	11	13	14	16	17	19	20	20	21	21	22	22	22	23	23	25	26	26	24	23	21	19	16	13	9	8	8	8	9	10	12	13	14	16	17	18	18	18	18	17	17	17	17	16	16	17	18	19	20	20	20	21	22	23	25	27	29	31	33	35	36	38	39	41	41	42	43	43	45	47	49	51	52	53	54	54	54	55	55	55	55	55	55	56	57	57	58	58	59	61	64	67	69	71	73	75	77	79	81	82	85	86	88	90	92	94	95	97	98	100	100	99	96	93	89	86	82	80	80	78	76	74	72	70	69	68	66	64	62	60	60	60	58	56	54	51	49	47	45	43	40	38	35	33	30	28	26	25	26	26	27	30	33	35	37	40	43	46	49	52	54	56	59	61	62	63	63	62	60	56	52	49	46	43	39	37	35	33	31	30	28	26	25	24	23	22	20	19	19	19	18	18	17	17	17	16	16	16	15	15	15	14	14	13	13	13	12	12	11	11	11	11	10	10	9	9	8	8	7	7	7	7	7	7	7	7	7	7	7	7	7	7	7	7	7	9	11	13	14	15	16	16	17	17	19	19	20	20	20	21	21	21	21	21	20	21	21	22	22	23	23	23	23	23	23	23	23	23	23	23	22	22	22	22	22	22	22	22	22	21	22	22	22	22	22	22	22	22	22	22	22	22	21	21	21	21	20	20	20	20	20	22	23	24	25	25	26	26	27	27	28	28	28	29	29	29	29	29	30	30	30	30	30	30	30	30	30	30	30	30	30	30	30	30	30	32	34	36	38	40	42	44	45	45	46	46	46	46	45	44	43	42	43	45	46	47	49	51	52	53	54	56	57	58	59	60	60	61	62	63	64	64	64	65	65	65	65	65	65	64	64	63	63	63	64	66	67	69	70	72	75	77	78	79	81	84	86	89	92	94	96	98	99	100	102	105	107	110	113	116	118	121	124	127	129	132	135	138	141	144	146	148	147	145	143	141	138	134	131	128	124	120	117	114	111	107	104	101	99	98	96	94	94	94	94	95	95	95	94	94	94	94	94	94	93	93	91	89	88	87	85	83	81	79	77	74	72	69	66	64	61	58	56	53	50	47	44	41	40	39	39	39	40	40	41	42	43	44	45	46	47	48	50	51	52	53	54	55	56	56	56	56	57	56	56	56	56	56	55	53	52	52	51	50	48	47	45	44	42	41	40	37	35	32	30	28	27	27	28	28	27	27	28	28	28	27	26	25	24	23	21	19	18	16	15	13	12	10	9	9	8	7	6	6	6	6	6	6	7	8	8	8	8	8	8	9	8	8	7	5	5	5	4	4	4	4	5	5	4	4	4	3	4	6	7	6	4	2	2	2	2	1	1	1	1	1	1	1	1	1	1	1	2	4	6
0	0	0	0	0	0	0	0	0	0	0	0	0	0	0	0	0	0	0	0	0	0	0	0	0	0	0	0	0	0	0	0	0	0	0	0	0	0	0	0	0	0	0	0	0	0	0	0	0	0	0	0	0	0	0	0	0	0	0	0	0	0	0	0	0	0	0	0	0	0	0	0	0	0	0	0	0	0	0	0	0	0	0	0	0	0	0	0	0	0	0	0	0	0	0	0	0	0	0	0	0	0	0	0	0	0	0	0	0	0	0	0	0	0	0	0	0	0	0	0	0	0	0	0	0	0	0	0	0	0	0	0	0	0	0	0	0	0	0	0	0	0	0	0	0	0	0	0	1	1	2	2	3	3	3	3	4	4	4	4	4	4	4	4	4	4	5	5	5	5	5	5	5	5	5	5	5	5	5	5	5	6	6	6	6	6	6	6	6	6	6	6	6	6	6	6	6	6	6	6	6	6	6	6	6	6	6	6	6	6	6	6	6	6	6	6	6	6	6	6	6	6	6	6	6	6	6	6	6	6	6	6	5	5	5	5	5	5	5	5	5	5	5	5	5	5	5	5	5	5	5	5	5	5	5	5	5	5	5	5	5	5	5	5	5	5	5	5	5	5	5	5	5	5	5	5	5	5	5	5	5	5	5	5	5	5	5	5	5	5	5	5	5	5	5	5	5	4	4	4	4	4	4	4	4	4	4	4	4	4	5	4	4	4	3	3	2	1	1	1	1	0	0	0	0	0	0	0	0	0	1	2	3	4	4	4	3	3	3	3	3	3	3	3	3	4	3	3	3	3	3	3	3	3	3	3	3	3	3	3	3	3	3	3	3	3	3	3	3	3	3	4	4	5	4	4	3	2	2	2	2	2	3	4	4	5	6	6	6	7	7	8	8	9	10	11	12	13	15	16	18	19	20	20	21	21	21	22	22	23	25	26	26	25	23	21	19	16	13	9	7	7	7	8	9	10	12	13	15	16	17	17	17	17	16	16	16	16	15	15	16	17	18	19	20	20	20	21	22	24	26	28	30	31	33	34	36	37	38	39	40	40	41	42	45	47	48	49	50	51	51	52	52	52	52	52	52	53	53	54	54	55	56	58	60	64	67	69	71	73	76	78	80	82	84	86	88	90	92	94	96	97	99	100	102	102	100	97	93	90	86	83	80	80	80	78	76	75	73	71	70	68	65	63	61	60	59	57	56	54	52	50	48	46	43	40	38	35	33	31	28	26	25	26	26	27	29	32	34	36	38	41	44	48	51	53	55	58	60	62	63	62	61	58	54	50	46	43	40	37	34	33	31	30	29	27	25	24	23	22	21	20	19	19	19	18	17	17	17	16	16	16	15	15	14	14	14	13	13	13	12	12	12	11	11	10	10	10	9	9	8	8	7	7	7	7	7	7	7	7	7	7	7	7	7	7	7	7	7	7	9	11	14	15	16	16	16	17	17	18	19	20	20	20	21	21	21	21	21	21	21	22	22	23	23	23	23	23	23	23	23	23	23	23	23	22	22	22	22	22	21	21	21	21	21	21	21	21	21	21	22	22	22	22	21	21	21	21	20	20	20	20	20	20	20	20	22	24	25	25	26	26	27	27	28	28	28	29	29	30	30	30	30	31	31	31	31	31	31	31	31	31	30	30	30	30	30	30	30	31	33	36	38	39	41	43	45	46	46	46	47	46	46	45	44	43	43	44	45	45	46	47	49	52	53	54	56	57	59	60	61	62	63	64	65	65	66	66	66	66	67	67	67	67	66	65	65	65	65	66	66	68	69	71	73	75	77	78	79	81	83	86	89	92	94	96	97	98	100	102	105	108	110	113	116	118	121	124	127	130	133	136	139	141	144	146	148	146	144	142	140	137	133	130	126	123	119	116	113	110	107	104	101	99	97	96	93	92	91	91	92	92	91	91	91	90	90	90	90	90	90	89	87	86	85	83	82	80	78	75	72	69	67	65	62	59	57	54	52	49	47	43	41	40	39	40	40	41	41	42	43	44	45	46	47	48	49	50	51	52	53	54	55	56	56	56	57	57	57	57	57	57	56	55	53	52	51	50	49	47	46	44	43	41	40	38	36	34	32	30	28	27	27	27	26	26	26	26	26	26	25	24	23	22	21	20	18	17	16	14	13	11	10	9	9	9	8	7	6	6	6	6	6	6	7	8	8	8	8	7	7	6	5	5	4	4	4	4	4	3	4	4	5	5	4	4	3	4	6	7	6	4	2	1	1	2	1	1	1	1	1	1	1	1	1	1	1	2	4	6
0	0	0	0	0	0	0	0	0	0	0	0	0	0	0	0	0	0	0	0	0	0	0	0	0	0	0	0	0	0	0	0	0	0	0	0	0	0	0	0	0	0	0	0	0	0	0	0	0	0	0	0	0	0	0	0	0	0	0	0	0	0	0	0	0	0	0	0	0	0	0	0	0	0	0	0	0	0	0	0	0	0	0	0	0	0	0	0	0	0	0	0	0	0	0	0	0	0	0	0	0	0	0	0	0	0	0	0	0	0	0	0	0	0	0	0	0	0	0	0	0	0	0	0	0	0	0	0	0	0	0	0	0	0	0	0	0	0	0	0	0	0	0	0	0	0	0	0	0	1	1	2	2	3	3	3	3	4	4	4	4	4	4	4	4	4	5	5	5	5	5	5	5	5	5	5	5	5	5	5	5	5	6	6	6	6	6	6	6	6	6	6	6	6	6	6	6	6	6	6	6	6	6	6	6	6	6	6	6	6	6	6	6	6	6	6	6	6	6	6	6	6	6	6	6	6	6	6	6	6	6	6	6	6	5	5	5	5	5	5	5	5	5	5	5	5	5	5	5	5	5	5	5	5	5	5	5	5	5	5	5	5	5	5	5	5	5	5	5	5	5	5	5	5	5	5	5	5	5	5	5	5	5	5	5	5	5	5	5	5	5	5	5	5	5	5	4	4	4	4	4	4	4	4	4	4	4	4	4	4	5	5	5	4	4	3	2	1	1	1	0	0	0	0	0	0	0	0	0	0	1	1	2	3	4	4	3	3	3	3	3	3	3	3	4	4	3	3	3	3	3	3	3	3	3	3	3	3	3	3	3	3	3	3	3	3	3	3	3	4	4	5	5	4	4	3	2	2	2	2	2	2	2	3	3	4	4	5	6	6	6	7	7	8	8	9	11	12	14	15	17	18	19	20	20	21	21	21	22	24	25	26	26	24	23	21	19	16	12	8	7	7	7	7	8	9	11	12	14	15	16	16	16	16	16	15	15	15	14	15	15	16	17	18	19	19	20	20	22	24	25	27	28	30	31	32	34	35	36	37	37	38	39	40	43	45	46	47	47	48	48	49	49	49	49	49	50	50	51	51	51	52	55	57	60	63	66	69	71	74	76	78	81	83	86	88	90	92	94	96	98	99	101	102	103	102	100	97	93	90	87	83	80	80	79	78	76	74	73	71	70	68	66	64	62	60	58	56	54	52	50	49	47	45	42	39	37	35	33	30	28	25	24	25	26	27	29	31	33	36	38	40	42	45	48	51	53	56	58	61	62	62	61	58	53	49	45	42	39	36	33	32	31	30	28	26	25	24	23	21	20	19	19	19	19	18	17	17	17	16	16	15	15	14	14	14	13	13	13	12	12	12	11	11	10	10	10	9	9	9	8	8	7	7	7	7	7	7	7	7	7	7	7	7	7	7	7	7	7	7	9	12	14	15	16	16	16	17	18	18	19	20	21	21	21	21	21	22	22	21	22	22	22	23	23	23	23	24	24	23	23	23	23	23	22	22	21	21	21	21	21	21	21	21	21	21	21	20	20	20	21	21	21	21	20	20	20	20	20	20	20	20	20	20	20	20	21	23	24	25	26	26	27	27	28	28	29	29	30	30	30	31	31	32	32	32	33	32	32	32	32	31	31	31	31	30	30	30	31	33	35	37	39	41	43	44	45	46	47	47	47	46	46	45	44	44	44	44	45	45	45	47	49	51	53	54	55	57	59	60	61	62	64	65	66	67	67	67	68	68	68	69	69	68	68	67	67	68	68	68	68	69	70	72	73	75	76	78	79	81	83	86	89	92	93	95	96	98	100	102	105	108	110	113	116	118	121	123	126	129	132	136	139	141	144	146	147	146	144	142	140	136	132	129	125	122	119	116	113	110	107	104	101	99	98	96	94	91	90	89	89	89	88	88	87	87	87	87	87	87	87	86	85	84	83	82	80	78	75	73	70	67	65	63	60	58	55	53	51	49	47	44	41	40	40	41	42	43	43	44	45	46	46	47	48	49	50	51	52	53	54	55	55	56	56	56	57	57	57	57	57	56	55	54	53	52	51	49	48	46	45	43	42	40	39	37	35	33	32	30	28	27	26	25	25	24	24	24	24	24	23	22	21	20	19	18	17	17	15	14	12	11	10	9	9	9	9	8	7	7	6	6	6	6	6	7	7	7	6	5	5	5	5	5	5	5	5	4	4	4	3	4	4	5	4	4	3	4	5	7	6	4	3	2	2	2	2	2	2	2	2	2	2	2	1	1	1	2	4	6
0	0	0	0	0	0	0	0	0	0	0	0	0	0	0	0	0	0	0	0	0	0	0	0	0	0	0	0	0	0	0	0	0	0	0	0	0	0	0	0	0	0	0	0	0	0	0	0	0	0	0	0	0	0	0	0	0	0	0	0	0	0	0	0	0	0	0	0	0	0	0	0	0	0	0	0	0	0	0	0	0	0	0	0	0	0	0	0	0	0	0	0	0	0	0	0	0	0	0	0	0	0	0	0	0	0	0	0	0	0	0	0	0	0	0	0	0	0	0	0	0	0	0	0	0	0	0	0	0	0	0	0	0	0	0	0	0	0	0	0	0	0	0	0	0	0	0	0	0	0	1	1	2	2	3	3	3	3	4	4	4	4	4	4	4	4	4	5	5	5	5	5	5	5	5	5	5	5	5	5	5	5	5	6	6	6	6	6	6	6	6	6	6	6	6	6	6	6	6	6	6	6	6	6	6	6	6	6	6	6	6	6	6	6	6	6	6	6	6	6	6	6	6	6	6	6	6	6	6	6	6	6	6	6	6	5	5	5	5	5	5	5	5	5	5	5	5	5	5	5	5	5	5	5	5	5	5	5	5	5	5	5	5	5	5	5	5	5	5	5	5	5	5	5	5	5	5	5	5	5	5	5	5	5	5	5	5	5	5	5	5	5	5	6	5	4	4	4	4	4	4	4	4	4	4	4	4	4	4	5	5	5	5	5	4	4	3	2	1	1	0	0	0	0	0	0	0	1	1	1	0	1	1	2	3	4	4	4	3	3	3	4	4	4	4	4	3	3	3	3	3	3	3	3	3	3	3	3	3	3	3	3	3	3	3	3	3	3	4	4	5	5	5	4	3	2	2	2	2	2	2	2	2	2	2	3	3	4	5	5	6	6	6	7	7	8	9	10	12	14	15	16	17	19	19	20	21	21	22	23	24	24	24	23	21	20	18	15	11	8	6	6	7	7	7	8	10	11	13	14	15	15	15	15	15	14	14	14	14	14	15	16	17	17	18	19	19	20	21	23	24	25	27	28	29	31	32	33	34	34	35	36	37	39	41	42	43	44	44	45	45	46	46	47	47	47	47	47	48	48	49	51	54	57	60	63	66	69	72	74	77	79	82	84	87	90	92	94	96	98	100	102	103	104	103	101	99	96	93	90	86	83	80	79	78	76	74	72	70	69	68	66	65	63	61	59	57	54	52	50	48	46	45	43	41	38	36	34	31	29	27	25	24	25	26	27	29	31	33	36	38	39	41	43	46	49	52	54	57	60	62	62	60	57	53	49	45	41	38	35	33	31	30	29	28	26	25	23	22	21	20	20	19	19	18	18	17	16	16	16	15	15	15	14	14	13	13	12	12	12	12	11	11	11	10	10	10	9	9	8	8	7	7	7	7	7	7	7	7	7	7	7	7	7	7	7	7	7	7	8	10	12	14	15	16	16	16	17	18	18	20	21	21	21	21	21	21	22	22	22	22	22	22	23	23	23	23	24	23	23	23	23	23	23	22	22	21	21	21	21	21	21	21	21	20	20	20	20	20	20	20	20	20	19	19	18	19	19	19	19	20	20	20	20	20	20	20	21	23	24	25	26	26	27	28	28	29	30	30	31	31	31	32	32	33	33	33	33	33	33	33	33	32	32	32	31	31	31	32	34	36	39	41	43	44	45	46	47	47	48	47	47	46	46	45	44	44	45	45	45	45	47	49	50	52	53	54	56	58	60	61	62	64	66	67	68	69	69	69	70	70	71	71	70	70	70	70	70	70	70	70	70	71	73	74	75	77	78	80	81	84	86	89	91	93	94	96	98	100	102	105	108	110	113	115	117	120	122	125	129	132	135	138	141	143	146	147	145	143	142	139	136	132	128	125	121	119	116	113	110	108	105	102	100	98	96	94	92	90	88	87	86	85	85	84	84	84	84	84	83	83	83	82	82	81	80	78	76	73	71	68	65	63	61	58	56	54	51	50	49	47	45	43	42	42	43	44	45	46	46	47	47	48	48	49	50	51	52	52	53	54	55	55	56	56	56	57	57	57	57	56	55	54	53	52	51	50	48	46	45	43	42	40	39	37	36	34	32	31	30	28	27	25	25	24	24	23	23	23	22	21	20	19	18	17	16	16	16	15	13	12	11	10	9	9	9	9	9	9	8	8	8	8	7	6	6	6	6	5	5	5	5	6	6	6	6	6	5	5	5	4	4	5	5	5	4	4	4	5	7	7	5	3	2	2	2	2	2	2	2	2	2	2	2	2	2	1	2	4	6
0	0	0	0	0	0	0	0	0	0	0	0	0	0	0	0	0	0	0	0	0	0	0	0	0	0	0	0	0	0	0	0	0	0	0	0	0	0	0	0	0	0	0	0	0	0	0	0	0	0	0	0	0	0	0	0	0	0	0	0	0	0	0	0	0	0	0	0	0	0	0	0	0	0	0	0	0	0	0	0	0	0	0	0	0	0	0	0	0	0	0	0	0	0	0	0	0	0	0	0	0	0	0	0	0	0	0	0	0	0	0	0	0	0	0	0	0	0	0	0	0	0	0	0	0	0	0	0	0	0	0	0	0	0	0	0	0	0	0	0	0	0	0	0	0	0	0	0	0	0	0	1	1	2	2	3	3	3	3	3	3	4	4	4	4	4	4	4	5	5	5	5	5	5	5	5	5	5	5	5	5	5	5	6	6	6	6	6	6	6	6	6	6	6	6	6	6	6	6	6	6	6	6	6	6	6	6	6	6	6	6	6	6	6	6	6	6	6	6	6	6	6	6	6	6	6	6	6	6	6	6	6	6	6	6	6	6	5	5	5	5	5	5	5	5	5	5	5	5	5	5	5	5	5	5	5	5	5	5	5	5	5	5	5	5	5	5	5	5	5	5	5	5	5	5	5	5	5	5	5	5	5	5	5	5	5	5	5	5	5	5	5	5	6	5	4	4	4	4	4	4	4	4	4	4	4	4	4	4	5	5	5	5	5	5	4	4	3	2	1	0	0	0	0	0	1	1	1	1	1	1	1	1	2	2	3	4	4	4	4	4	4	4	4	4	4	3	3	3	3	3	3	3	3	3	3	3	3	3	3	3	3	3	3	3	3	3	4	4	5	5	4	4	3	2	2	2	2	2	2	2	2	2	2	2	2	2	3	4	5	6	6	6	6	6	6	7	8	10	12	13	14	15	16	18	19	20	21	21	22	22	22	22	20	19	18	16	14	10	7	6	6	6	6	7	8	9	11	12	13	13	14	14	14	14	13	13	13	13	14	14	15	16	17	17	18	18	19	20	21	23	24	25	26	27	29	30	31	31	32	32	33	35	36	38	40	40	41	41	42	42	43	44	44	44	44	44	45	45	47	48	51	54	57	60	63	66	69	72	75	77	80	83	85	88	91	93	96	98	100	102	104	105	105	103	100	98	95	91	88	85	82	79	77	75	73	71	69	67	66	65	64	63	61	60	59	56	54	51	48	46	43	42	41	39	37	35	33	30	28	25	23	23	25	26	27	29	32	34	36	38	39	41	43	46	48	51	53	57	60	61	61	59	56	52	48	44	41	38	35	33	31	30	29	27	26	25	24	22	21	21	20	19	19	18	17	17	16	16	16	15	15	14	14	13	13	12	12	12	12	11	11	11	10	10	10	9	9	9	8	8	7	7	7	7	7	7	6	6	6	7	7	7	7	7	7	7	7	7	8	10	12	13	14	15	16	16	17	18	18	20	21	21	21	21	21	21	22	22	22	22	22	22	23	23	23	23	23	23	23	23	23	23	22	22	21	21	21	21	21	21	20	20	20	20	20	19	19	20	20	20	19	19	19	18	18	18	19	19	19	19	19	19	19	20	20	20	20	21	22	24	25	26	26	27	28	29	29	30	31	31	32	33	33	34	34	34	34	34	33	33	33	33	34	34	33	33	33	34	36	38	40	42	44	45	45	46	47	47	48	47	47	47	46	46	45	45	45	46	46	46	47	48	50	51	52	53	55	56	58	60	61	63	65	67	68	70	71	71	72	72	73	73	72	72	72	73	73	73	72	72	72	73	74	76	77	78	79	80	82	84	86	89	91	92	94	96	98	100	102	105	107	109	112	114	116	119	122	125	128	131	134	138	141	143	145	147	145	143	142	139	136	132	129	125	122	119	117	114	112	109	107	104	101	99	97	95	93	91	88	85	83	82	81	81	81	81	81	81	80	80	80	80	79	79	77	76	74	71	69	66	64	61	59	57	54	52	50	49	48	47	45	45	44	44	45	46	47	48	48	49	49	49	50	50	51	52	52	53	53	54	55	55	55	56	56	57	57	57	57	56	55	53	52	51	50	48	47	45	44	42	40	39	37	36	34	33	31	30	29	27	26	25	24	23	23	22	22	21	21	20	18	17	16	15	15	15	14	14	13	12	11	10	9	9	9	9	9	9	9	10	10	10	10	8	7	6	6	6	6	6	6	6	6	6	6	6	6	6	6	6	6	6	5	5	5	4	4	5	6	7	5	3	2	2	2	2	2	2	2	2	2	2	2	2	2	1	2	3	5
0	0	0	0	0	0	0	0	0	0	0	0	0	0	0	0	0	0	0	0	0	0	0	0	0	0	0	0	0	0	0	0	0	0	0	0	0	0	0	0	0	0	0	0	0	0	0	0	0	0	0	0	0	0	0	0	0	0	0	0	0	0	0	0	0	0	0	0	0	0	0	0	0	0	0	0	0	0	0	0	0	0	0	0	0	0	0	0	0	0	0	0	0	0	0	0	0	0	0	0	0	0	0	0	0	0	0	0	0	0	0	0	0	0	0	0	0	0	0	0	0	0	0	0	0	0	0	0	0	0	0	0	0	0	0	0	0	0	0	0	0	0	0	0	0	0	0	0	0	0	0	1	1	1	2	3	3	3	3	3	3	4	4	4	4	4	4	4	5	5	5	5	5	5	5	5	5	5	5	5	5	5	5	5	6	6	6	6	6	6	6	6	6	6	6	6	6	6	6	6	6	6	6	6	6	6	6	6	6	6	6	6	6	6	6	6	6	6	6	6	6	6	6	6	6	6	6	6	6	6	6	6	6	6	6	6	6	6	5	5	5	5	5	5	5	5	5	5	5	5	5	5	5	5	5	5	5	5	5	5	5	5	5	5	5	5	5	5	5	5	5	5	5	5	5	5	5	5	5	5	5	5	5	5	5	5	5	5	5	5	5	5	6	5	5	4	4	4	4	4	4	4	4	4	4	4	4	4	4	5	5	5	5	5	5	5	5	4	3	2	1	1	1	1	1	1	1	1	1	1	1	1	1	1	1	2	3	3	4	4	4	3	3	3	3	4	3	3	3	3	3	3	3	3	3	3	3	3	3	3	3	3	3	3	3	3	4	4	4	4	4	3	3	3	2	2	2	2	2	2	2	2	2	2	2	2	2	2	4	5	5	5	5	5	5	6	6	6	7	8	10	11	13	14	16	17	18	20	20	21	20	20	19	18	17	15	13	11	8	6	6	6	6	6	6	7	8	9	11	12	12	13	13	13	12	12	13	13	13	13	14	15	15	16	16	17	18	18	19	20	21	22	23	24	25	27	28	28	29	29	30	31	32	34	36	37	38	38	38	39	40	40	41	41	41	42	42	43	44	47	49	52	55	57	60	63	66	69	72	75	78	81	83	86	89	92	95	97	100	102	104	105	106	105	103	99	96	93	90	87	84	81	78	75	72	70	68	66	64	63	63	62	61	60	60	58	56	53	51	48	45	42	40	39	37	35	33	31	29	26	24	22	23	25	26	27	30	32	35	37	39	40	42	44	46	48	50	53	56	59	61	60	58	55	52	48	44	41	38	35	33	31	30	28	27	26	25	24	23	22	21	20	20	19	18	17	17	16	16	15	15	14	14	14	13	13	12	12	12	11	11	11	10	10	10	10	9	9	9	8	8	7	7	7	7	7	7	6	6	7	7	7	7	7	7	7	7	7	7	9	11	12	13	14	14	15	15	16	18	19	20	21	21	21	21	21	21	22	22	22	22	22	22	22	23	23	23	23	23	23	23	23	22	22	21	21	21	21	21	20	20	20	19	19	19	19	19	19	19	19	19	18	18	17	17	18	18	19	19	19	19	19	19	19	20	20	20	20	20	21	22	23	25	26	26	27	28	29	29	30	31	32	33	34	34	35	35	34	34	34	34	34	35	35	35	35	35	35	36	38	40	41	43	45	45	46	46	47	47	47	47	47	47	47	46	46	45	45	46	46	46	47	48	49	50	51	52	53	55	57	59	60	62	64	66	68	70	71	72	73	74	75	75	74	75	75	75	75	75	74	74	74	75	76	77	79	79	80	81	83	85	87	89	91	92	95	97	98	100	102	104	107	109	111	114	116	118	121	124	128	131	134	137	140	143	146	147	146	144	142	140	137	133	130	127	124	121	118	116	113	111	108	105	102	100	98	95	93	90	87	83	80	79	79	78	78	78	78	77	77	77	77	77	77	76	75	73	72	70	67	65	62	59	57	55	53	51	50	49	47	47	47	47	47	46	47	48	49	50	51	51	51	51	51	51	52	52	53	53	54	54	54	55	55	56	56	57	57	57	56	55	54	52	51	50	49	47	46	44	43	41	39	37	35	34	33	32	30	29	27	26	25	24	24	23	22	22	21	20	20	19	17	16	15	15	14	14	14	13	12	11	11	10	10	9	9	9	9	10	10	11	11	11	11	10	8	6	6	6	7	7	6	6	6	6	6	6	7	6	6	6	6	6	6	5	5	5	4	5	6	7	5	3	2	2	2	2	2	2	2	2	2	2	2	2	2	1	2	3	5
0	0	0	0	0	0	0	0	0	0	0	0	0	0	0	0	0	0	0	0	0	0	0	0	0	0	0	0	0	0	0	0	0	0	0	0	0	0	0	0	0	0	0	0	0	0	0	0	0	0	0	0	0	0	0	0	0	0	0	0	0	0	0	0	0	0	0	0	0	0	0	0	0	0	0	0	0	0	0	0	0	0	0	0	0	0	0	0	0	0	0	0	0	0	0	0	0	0	0	0	0	0	0	0	0	0	0	0	0	0	0	0	0	0	0	0	0	0	0	0	0	0	0	0	0	0	0	0	0	0	0	0	0	0	0	0	0	0	0	0	0	0	0	0	0	0	0	0	0	0	0	0	1	1	2	2	3	3	3	3	3	3	4	4	4	4	4	4	4	5	5	5	5	5	5	5	5	5	5	5	5	5	5	5	5	6	6	6	6	6	6	6	6	6	6	6	6	6	6	6	6	6	6	6	6	6	6	6	6	6	6	6	6	6	6	6	6	6	6	6	6	6	6	6	6	6	6	6	6	6	6	6	6	6	6	6	6	6	6	5	5	5	5	5	5	5	5	5	5	5	5	5	5	5	5	5	5	5	5	5	5	5	5	5	5	5	5	5	5	5	5	5	5	5	5	5	5	5	5	5	5	5	5	5	5	5	5	5	5	5	5	5	6	5	4	4	4	4	4	4	4	4	4	4	4	4	4	4	4	4	5	5	5	5	5	5	5	5	4	4	3	2	1	1	1	1	1	1	1	1	1	1	1	1	1	1	2	2	3	4	4	3	3	3	3	3	3	3	3	3	3	3	3	3	3	3	3	3	3	3	3	3	3	3	4	4	4	4	4	4	3	3	3	3	2	2	2	2	2	2	2	2	2	2	2	2	2	3	4	4	4	4	4	4	4	5	5	5	6	6	7	8	10	12	14	16	17	18	19	19	19	18	17	16	14	13	11	8	6	5	6	6	6	6	6	6	7	8	9	10	11	12	12	12	12	12	12	12	13	13	13	14	15	15	16	16	17	17	18	19	20	21	21	22	24	25	26	27	27	28	28	29	30	32	33	35	35	36	36	36	37	38	38	39	39	39	40	42	45	48	50	53	55	58	61	64	67	70	73	76	78	81	84	87	90	93	96	98	101	104	105	105	106	105	103	99	96	93	89	86	83	80	76	73	70	67	65	63	62	61	60	59	59	58	58	57	56	53	51	49	46	43	40	38	35	32	30	29	27	24	22	22	23	25	26	28	31	33	35	38	40	42	44	46	48	49	50	53	56	59	60	60	58	55	51	48	44	41	38	35	33	31	30	28	27	26	25	24	23	22	21	21	20	19	18	17	17	16	15	15	15	14	14	14	13	12	12	12	11	11	11	10	10	10	10	9	9	8	8	8	8	7	7	7	7	7	6	6	6	6	7	7	7	7	7	7	7	6	7	9	11	12	13	13	14	14	14	16	18	19	20	21	21	21	21	21	21	22	22	22	22	22	22	22	23	23	23	23	23	23	22	22	22	22	21	21	20	20	20	19	19	19	19	18	18	17	17	17	17	18	18	17	16	16	17	17	18	18	19	19	19	18	17	18	19	20	20	20	20	20	21	22	23	25	26	26	27	28	29	30	31	32	33	34	35	35	35	35	35	35	35	35	36	36	37	37	37	37	38	40	41	41	42	44	44	45	45	46	47	47	47	47	47	47	47	46	46	46	46	46	47	47	47	48	49	50	51	52	53	55	57	59	61	63	65	67	69	71	73	74	75	76	77	77	77	78	78	78	77	76	76	76	76	78	79	80	81	81	83	85	86	88	90	91	93	95	97	98	100	102	104	107	109	112	114	116	119	121	124	128	131	134	137	140	143	146	148	147	145	143	141	138	135	132	129	126	123	120	117	115	112	109	107	103	100	98	95	92	89	86	83	80	78	77	76	76	75	75	75	74	74	74	74	74	73	72	71	69	68	65	63	61	58	55	53	51	50	49	48	47	47	48	48	49	49	49	50	51	52	52	53	53	53	53	53	53	53	53	53	54	54	54	55	55	56	56	56	56	56	55	54	52	51	50	49	48	46	45	43	42	40	38	36	34	32	31	30	29	28	27	26	25	24	24	23	22	21	21	20	19	18	17	16	15	14	14	14	13	13	12	11	10	10	10	10	9	9	10	11	11	12	12	11	11	11	10	8	6	6	6	6	6	6	6	6	6	6	6	6	6	6	6	6	6	6	5	5	4	5	6	7	6	4	2	2	2	2	2	2	2	2	2	2	2	2	1	1	1	3	5
0	0	0	0	0	0	0	0	0	0	0	0	0	0	0	0	0	0	0	0	0	0	0	0	0	0	0	0	0	0	0	0	0	0	0	0	0	0	0	0	0	0	0	0	0	0	0	0	0	0	0	0	0	0	0	0	0	0	0	0	0	0	0	0	0	0	0	0	0	0	0	0	0	0	0	0	0	0	0	0	0	0	0	0	0	0	0	0	0	0	0	0	0	0	0	0	0	0	0	0	0	0	0	0	0	0	0	0	0	0	0	0	0	0	0	0	0	0	0	0	0	0	0	0	0	0	0	0	0	0	0	0	0	0	0	0	0	0	0	0	0	0	0	0	0	0	0	0	0	0	0	0	0	1	1	2	2	3	3	3	3	3	3	4	4	4	4	4	4	5	5	5	5	5	5	5	5	5	5	5	5	5	5	5	5	6	6	6	6	6	6	6	6	6	6	6	6	6	6	6	6	6	6	6	6	6	6	6	6	6	6	6	6	6	6	6	6	6	6	6	6	6	6	6	6	6	6	6	6	6	6	6	6	6	6	6	6	6	6	6	6	5	5	5	5	5	5	5	5	5	5	5	5	5	5	5	5	5	5	5	5	5	5	5	5	5	5	5	5	5	5	5	5	5	5	5	5	5	5	5	5	5	5	5	5	5	5	5	5	5	5	6	5	5	4	4	4	4	4	4	4	4	4	4	4	4	4	4	4	4	5	5	5	5	5	5	5	5	5	4	4	3	2	1	1	1	1	1	1	1	1	1	1	1	1	1	1	2	3	4	3	3	3	3	3	3	3	3	3	3	3	3	3	3	3	3	3	3	3	3	3	3	3	4	4	5	4	4	4	3	3	2	2	3	3	2	2	2	2	2	2	2	2	2	2	2	2	3	4	4	3	3	3	3	3	4	4	5	5	5	6	6	7	9	12	14	16	17	18	18	17	16	15	14	13	11	8	6	5	5	6	6	6	6	6	6	6	7	8	9	10	11	11	11	11	11	12	12	12	12	13	13	14	14	15	16	16	17	17	18	18	19	20	21	22	23	24	25	26	26	27	28	29	30	31	32	33	33	33	34	34	35	36	36	37	38	41	43	46	48	51	53	56	58	61	64	67	70	73	76	79	81	84	87	90	93	96	99	102	104	105	105	106	105	102	99	95	92	89	86	82	79	76	72	69	66	63	60	59	58	57	56	56	56	55	55	54	53	51	49	47	43	41	38	34	31	29	27	25	23	22	21	23	25	26	29	31	34	36	38	41	43	45	47	49	50	52	54	56	59	60	59	57	54	51	48	44	41	39	36	34	33	31	29	28	27	26	25	24	23	22	21	20	19	18	17	16	16	15	15	15	14	14	13	13	12	12	11	11	10	10	10	10	9	9	8	8	8	8	7	7	7	7	7	7	7	6	6	6	6	6	6	7	7	7	7	7	7	8	10	12	12	13	13	13	13	13	15	18	20	21	21	21	21	21	21	21	21	22	22	22	21	21	22	23	23	23	23	23	22	22	22	22	22	21	20	19	19	19	19	19	18	17	16	15	14	14	15	15	15	16	15	15	15	16	16	17	18	18	19	18	18	17	17	19	20	20	20	20	20	20	21	22	23	25	26	26	27	28	29	30	32	33	34	35	36	36	36	35	35	36	37	37	38	38	38	38	39	39	40	40	40	41	42	43	43	44	46	46	46	46	46	46	46	46	46	46	46	46	47	47	47	47	48	49	50	51	52	53	54	56	58	60	62	64	67	69	71	72	74	75	77	78	79	79	80	80	79	79	78	78	78	78	79	81	82	83	83	85	87	89	90	92	93	95	96	98	99	101	103	105	108	110	112	115	117	119	122	125	128	131	134	138	141	143	146	149	149	147	144	142	140	137	134	131	128	125	122	119	116	114	111	108	104	101	98	95	92	89	86	84	81	79	78	76	74	73	72	72	71	71	71	71	71	71	70	69	67	65	63	61	59	56	54	52	50	49	48	47	47	48	49	49	50	50	51	52	52	53	53	54	54	54	54	54	54	54	54	53	53	53	54	55	55	56	56	56	55	54	53	52	51	50	49	48	47	45	44	42	41	39	38	36	34	32	30	30	29	29	29	28	26	25	24	23	23	22	21	20	19	19	17	16	14	13	13	13	12	12	12	11	11	11	11	11	10	10	11	12	13	13	12	12	11	11	11	9	7	6	6	7	8	8	8	8	7	6	6	6	6	6	6	6	6	5	5	5	5	5	6	7	6	4	2	2	2	2	2	2	2	2	2	2	2	1	1	1	1	3	5
0	0	0	0	0	0	0	0	0	0	0	0	0	0	0	0	0	0	0	0	0	0	0	0	0	0	0	0	0	0	0	0	0	0	0	0	0	0	0	0	0	0	0	0	0	0	0	0	0	0	0	0	0	0	0	0	0	0	0	0	0	0	0	0	0	0	0	0	0	0	0	0	0	0	0	0	0	0	0	0	0	0	0	0	0	0	0	0	0	0	0	0	0	0	0	0	0	0	0	0	0	0	0	0	0	0	0	0	0	0	0	0	0	0	0	0	0	0	0	0	0	0	0	0	0	0	0	0	0	0	0	0	0	0	0	0	0	0	0	0	0	0	0	0	0	0	0	0	0	0	0	0	0	0	1	1	2	3	3	3	3	3	3	4	4	4	4	4	4	4	5	5	5	5	5	5	5	5	5	5	5	5	5	5	5	5	6	6	6	6	6	6	6	6	6	6	6	6	6	6	6	6	6	6	6	6	6	6	6	6	6	6	6	6	6	6	6	6	6	6	6	6	6	6	6	6	6	6	6	6	6	6	6	6	6	6	6	6	6	6	6	6	5	5	5	5	5	5	5	5	5	5	5	5	5	5	5	5	5	5	5	5	5	5	5	5	5	5	5	5	5	5	5	5	5	5	5	5	5	5	5	5	5	5	5	5	5	5	5	5	6	6	5	5	4	4	4	4	4	4	4	4	4	4	4	4	4	4	4	4	4	5	5	5	5	5	5	5	5	5	4	4	3	2	1	1	1	1	1	1	1	1	1	1	1	1	1	1	2	3	3	3	3	3	3	3	3	3	3	3	3	3	3	3	3	3	3	3	3	3	3	3	4	5	5	5	4	4	3	3	2	2	2	3	3	3	2	2	1	2	2	2	2	2	2	2	3	3	3	3	2	2	2	2	2	3	3	3	4	5	5	5	6	7	9	12	14	16	17	17	16	15	14	13	12	9	6	5	5	5	6	6	6	6	6	6	5	6	7	8	9	10	11	11	11	11	11	12	12	12	12	13	13	13	14	15	15	16	16	17	17	18	18	19	20	21	22	23	24	24	25	26	27	28	29	30	30	31	31	31	32	33	33	34	36	38	41	43	46	48	51	53	56	59	61	64	67	70	73	76	79	82	84	87	90	93	96	99	102	104	105	105	106	105	102	98	95	92	89	85	82	79	75	72	69	65	62	59	57	55	54	53	53	53	52	52	52	52	50	48	46	43	41	37	34	31	28	26	24	22	21	22	24	26	28	30	32	34	37	39	42	44	47	49	51	52	53	55	57	59	60	59	56	53	51	48	45	43	40	38	36	35	33	30	29	28	26	25	24	24	23	22	21	19	17	15	14	14	14	14	14	14	14	14	13	12	11	11	11	10	10	9	9	9	8	8	7	7	7	7	7	7	7	7	7	6	6	6	6	6	6	6	6	6	7	6	6	7	9	11	12	13	13	13	14	13	13	15	18	20	21	21	21	21	21	21	21	21	22	22	22	21	21	22	22	23	23	23	22	22	22	22	22	22	21	20	19	18	18	18	17	15	14	13	13	13	13	14	14	14	14	14	15	15	16	16	17	18	18	18	18	18	17	17	18	20	20	20	21	21	21	21	21	21	23	24	26	27	27	29	30	31	32	33	35	35	36	36	36	36	37	38	39	39	39	39	39	39	40	40	40	40	40	41	42	43	44	45	46	46	46	47	47	47	47	47	47	47	47	47	48	48	48	48	48	49	50	51	52	53	55	57	59	62	64	66	68	70	72	73	74	76	78	79	80	81	81	80	80	80	79	79	80	81	82	84	85	86	87	89	91	92	94	95	96	98	99	101	103	105	107	109	111	114	116	118	120	123	126	129	132	135	138	141	144	147	150	150	148	146	144	142	139	136	133	130	127	124	121	118	115	112	108	105	102	99	96	93	91	88	85	83	80	79	77	75	73	71	69	68	68	68	68	68	68	67	66	65	63	61	59	57	54	52	51	50	49	48	47	48	49	49	50	51	51	52	53	54	54	54	55	55	55	55	55	54	54	54	53	53	53	53	54	55	55	55	55	54	53	52	51	50	49	47	46	45	44	43	41	40	39	38	36	34	32	32	31	31	31	30	29	28	26	25	24	23	22	21	20	20	19	18	16	14	13	12	12	11	11	11	11	11	10	10	11	11	12	12	13	13	13	13	12	12	11	11	11	9	8	8	9	10	11	10	10	9	8	7	6	6	6	6	6	5	5	5	5	5	5	6	7	6	4	3	2	2	2	2	2	2	2	2	2	1	1	1	1	1	3	5
0	0	0	0	0	0	0	0	0	0	0	0	0	0	0	0	0	0	0	0	0	0	0	0	0	0	0	0	0	0	0	0	0	0	0	0	0	0	0	0	0	0	0	0	0	0	0	0	0	0	0	0	0	0	0	0	0	0	0	0	0	0	0	0	0	0	0	0	0	0	0	0	0	0	0	0	0	0	0	0	0	0	0	0	0	0	0	0	0	0	0	0	0	0	0	0	0	0	0	0	0	0	0	0	0	0	0	0	0	0	0	0	0	0	0	0	0	0	0	0	0	0	0	0	0	0	0	0	0	0	0	0	0	0	0	0	0	0	0	0	0	0	0	0	0	0	0	0	0	0	0	0	0	0	1	1	2	2	3	3	3	3	3	3	4	4	4	4	4	4	5	5	5	5	5	5	5	5	5	5	5	5	5	5	5	5	6	6	6	6	6	6	6	6	6	6	6	6	6	6	6	6	6	6	6	6	6	6	6	6	6	6	6	6	6	6	6	6	6	6	6	6	6	6	6	6	6	6	6	6	6	6	6	6	6	6	6	6	6	6	6	6	6	5	5	5	5	5	5	5	5	5	5	5	5	5	5	5	5	5	5	5	5	5	5	5	5	5	5	5	5	5	5	5	5	5	5	5	5	5	5	5	5	5	5	5	5	5	5	5	6	6	5	4	4	4	4	4	4	4	4	4	4	4	4	4	4	4	4	4	4	5	5	5	5	5	5	5	5	5	5	4	3	3	2	1	1	1	1	1	1	1	1	1	1	1	1	1	2	3	3	3	3	3	3	3	3	3	3	3	3	3	3	3	3	3	3	3	3	3	3	4	4	5	5	4	4	3	2	2	2	2	2	2	3	3	3	2	2	2	2	2	2	2	1	2	3	3	3	2	2	2	2	2	2	2	2	2	3	4	4	5	5	6	7	9	12	14	15	15	15	14	14	14	12	9	6	5	5	5	5	6	6	6	6	6	6	6	7	8	9	10	10	10	11	11	11	11	11	12	12	12	12	13	13	13	14	14	15	16	16	17	17	18	19	20	20	21	22	23	24	25	25	26	27	28	28	28	29	29	29	30	32	33	36	38	41	43	45	48	50	53	56	58	61	64	67	70	73	76	78	81	84	87	90	93	96	99	102	104	105	105	106	105	102	98	95	92	88	85	82	78	75	71	68	64	61	58	55	53	51	51	50	50	50	50	50	50	48	47	45	43	40	37	33	30	28	26	24	22	21	22	24	27	29	31	34	36	38	40	43	45	48	50	52	53	55	57	58	59	60	59	57	55	52	50	47	45	42	40	39	38	36	32	30	29	27	26	25	25	24	23	21	19	17	14	12	12	12	12	13	14	14	14	12	11	11	11	10	10	9	9	9	9	8	7	7	7	7	7	7	7	7	6	6	6	6	6	6	6	6	6	6	6	6	6	7	8	11	12	13	13	14	14	14	14	14	15	18	20	21	20	20	21	21	21	21	21	22	22	21	21	21	21	22	22	22	22	22	22	22	22	21	21	20	19	18	18	16	15	14	13	12	12	13	13	14	14	14	14	14	15	15	15	16	16	17	17	18	18	18	18	18	17	18	19	20	21	21	21	21	21	21	20	21	23	24	26	27	28	29	31	32	33	34	35	35	36	37	37	38	39	40	41	41	41	40	40	41	41	41	41	40	40	41	43	44	45	46	47	48	48	48	48	48	48	48	48	49	49	49	49	49	49	49	49	50	51	52	53	54	56	59	61	63	65	67	68	70	72	73	75	77	79	80	81	81	81	81	81	81	82	82	83	85	86	87	89	90	91	93	94	95	97	98	100	101	103	105	107	108	110	112	115	117	119	121	124	127	130	133	136	138	141	144	147	151	151	149	147	145	143	141	138	135	131	128	125	122	119	116	113	110	106	103	100	98	95	92	90	87	85	82	80	78	76	74	72	70	68	66	65	65	65	65	64	63	62	61	59	57	54	52	51	50	49	48	48	48	49	49	50	51	52	53	54	55	56	56	56	56	56	56	56	55	55	54	54	53	53	52	53	53	54	54	54	54	53	52	51	50	49	47	46	45	44	43	42	41	40	39	38	37	35	34	33	33	32	31	30	29	28	26	25	25	24	23	22	21	20	19	18	16	14	13	12	11	11	11	11	11	10	10	10	10	12	13	14	14	14	13	13	13	12	12	11	11	10	10	10	11	11	12	11	11	11	10	9	8	7	6	6	5	5	5	5	5	5	5	6	7	6	4	3	2	2	2	2	2	2	2	2	2	1	1	1	1	1	2	5
0	0	0	0	0	0	0	0	0	0	0	0	0	0	0	0	0	0	0	0	0	0	0	0	0	0	0	0	0	0	0	0	0	0	0	0	0	0	0	0	0	0	0	0	0	0	0	0	0	0	0	0	0	0	0	0	0	0	0	0	0	0	0	0	0	0	0	0	0	0	0	0	0	0	0	0	0	0	0	0	0	0	0	0	0	0	0	0	0	0	0	0	0	0	0	0	0	0	0	0	0	0	0	0	0	0	0	0	0	0	0	0	0	0	0	0	0	0	0	0	0	0	0	0	0	0	0	0	0	0	0	0	0	0	0	0	0	0	0	0	0	0	0	0	0	0	0	0	0	0	0	0	0	0	0	1	1	2	2	3	3	3	3	3	4	4	4	4	4	4	4	5	5	5	5	5	5	5	5	5	5	5	5	5	5	5	5	6	6	6	6	6	6	6	6	6	6	6	6	6	6	6	6	6	6	6	6	6	6	6	6	6	6	6	6	6	6	6	6	6	6	6	6	6	6	6	6	6	6	6	6	6	6	6	6	6	6	6	6	6	6	6	6	6	6	5	5	5	5	5	5	5	5	5	5	5	5	5	5	5	5	5	5	5	5	5	5	5	5	5	5	5	5	5	5	5	5	5	5	5	5	5	5	5	5	5	5	5	5	6	6	5	5	4	4	4	4	4	4	4	4	4	4	4	4	4	4	4	4	4	4	4	5	5	5	5	5	5	5	5	5	5	4	3	2	2	1	1	1	1	1	1	1	1	1	1	1	1	1	2	3	3	3	3	3	3	3	3	3	3	3	3	3	3	3	3	3	3	3	3	3	4	5	4	4	4	3	2	2	2	2	2	2	2	2	3	3	3	2	2	2	2	2	1	2	3	3	3	3	2	2	2	2	2	2	2	2	2	2	3	3	4	5	5	6	7	9	12	14	15	14	15	15	14	12	10	7	5	5	5	5	6	6	6	6	6	6	6	6	7	8	9	10	10	10	10	10	11	11	11	11	12	12	12	12	12	13	13	14	14	15	16	16	17	18	19	19	20	21	21	22	23	24	24	25	26	26	26	27	27	28	29	31	33	36	38	40	42	45	47	50	53	55	58	61	63	66	69	72	75	78	81	84	87	90	92	95	98	100	103	104	105	105	104	102	98	95	91	88	85	81	78	74	70	67	63	60	57	54	51	49	48	47	46	46	46	47	47	46	45	43	41	39	36	33	30	27	25	23	22	21	22	24	27	30	32	35	37	39	41	44	46	49	51	53	55	56	58	59	60	61	60	59	57	54	52	49	46	44	42	41	40	38	34	31	29	28	27	27	26	25	23	22	20	18	15	13	12	11	11	11	12	13	13	11	10	10	10	10	9	9	9	9	8	8	7	7	7	7	7	7	7	6	6	6	6	6	6	6	6	6	6	6	6	6	6	8	10	12	12	13	14	14	15	15	15	16	17	18	20	20	20	20	20	20	21	21	21	21	21	21	21	21	21	21	22	22	22	22	22	21	21	21	20	19	18	16	15	14	13	12	13	13	13	13	14	14	14	14	15	15	15	15	16	16	16	16	17	17	18	18	18	18	17	18	20	21	21	21	21	21	21	21	21	21	22	23	25	26	28	29	30	31	32	33	34	35	36	36	37	39	40	41	42	42	42	42	42	42	42	42	42	42	41	42	43	45	46	47	48	48	48	48	48	49	49	49	49	50	50	50	50	50	50	50	50	50	51	52	53	54	56	58	60	62	63	65	66	69	71	72	74	76	78	80	81	82	83	83	83	83	84	85	86	87	89	90	91	92	93	95	96	97	98	100	102	103	105	107	109	111	112	114	116	118	120	122	125	128	131	134	137	139	142	145	148	151	152	150	148	146	144	142	139	136	132	129	126	123	120	117	114	111	108	105	102	99	97	94	91	89	86	84	82	80	78	76	74	71	69	67	65	63	63	62	62	61	60	58	57	55	53	51	51	50	49	49	48	49	50	50	51	52	53	54	55	56	57	58	58	58	58	58	57	57	56	55	54	54	53	52	52	52	53	53	53	53	52	51	50	49	48	46	45	44	44	43	42	41	40	40	39	38	36	35	34	34	33	32	31	30	29	28	27	27	26	24	23	22	21	20	18	16	15	14	14	12	11	11	11	11	10	10	10	10	12	13	14	15	14	14	13	13	12	12	12	12	11	11	11	12	12	12	12	12	13	13	12	11	10	9	7	5	5	5	5	5	5	5	6	7	6	5	3	2	2	2	2	2	2	2	1	1	1	1	1	1	1	2	4
0	0	0	0	0	0	0	0	0	0	0	0	0	0	0	0	0	0	0	0	0	0	0	0	0	0	0	0	0	0	0	0	0	0	0	0	0	0	0	0	0	0	0	0	0	0	0	0	0	0	0	0	0	0	0	0	0	0	0	0	0	0	0	0	0	0	0	0	0	0	0	0	0	0	0	0	0	0	0	0	0	0	0	0	0	0	0	0	0	0	0	0	0	0	0	0	0	0	0	0	0	0	0	0	0	0	0	0	0	0	0	0	0	0	0	0	0	0	0	0	0	0	0	0	0	0	0	0	0	0	0	0	0	0	0	0	0	0	0	0	0	0	0	0	0	0	0	0	0	0	0	0	0	0	0	0	1	1	2	3	3	3	3	3	3	4	4	4	4	4	4	5	5	5	5	5	5	5	5	5	5	5	5	5	5	5	5	5	6	6	6	6	6	6	6	6	6	6	6	6	6	6	6	6	6	6	6	6	6	6	6	6	6	6	6	6	6	6	6	6	6	6	6	6	6	6	6	6	6	6	6	6	6	6	6	6	6	6	6	6	6	6	6	6	6	6	6	5	5	5	5	5	5	5	5	5	5	5	5	5	5	5	5	5	5	5	5	5	5	5	5	5	5	5	5	5	5	5	5	5	5	5	5	5	5	5	5	5	5	6	6	5	4	4	4	4	4	4	4	4	4	4	4	4	4	4	4	4	4	4	4	4	5	5	5	5	5	5	5	5	5	5	4	4	3	2	1	1	1	1	1	1	1	1	1	1	1	0	1	2	3	3	3	3	3	3	3	3	3	3	3	3	3	3	3	3	3	3	3	3	4	5	4	4	3	3	2	2	2	2	2	2	2	2	2	2	3	3	2	2	2	2	2	2	2	3	3	3	2	2	2	2	2	2	2	2	2	2	2	2	2	3	4	5	5	6	7	9	11	13	14	15	15	15	13	10	7	5	5	5	5	6	6	6	6	5	5	6	6	7	8	9	9	9	10	10	10	10	11	11	11	11	12	12	12	12	12	12	13	13	14	15	16	16	17	18	18	19	19	20	20	21	22	22	23	24	24	25	26	27	27	29	31	34	36	38	40	41	44	47	50	52	55	58	60	63	65	69	72	75	78	80	83	86	89	91	94	97	99	101	103	104	105	103	101	97	94	91	87	84	81	77	74	70	67	63	60	57	53	50	48	46	44	43	42	42	43	44	43	42	41	39	37	34	31	29	26	24	22	22	21	21	24	27	29	32	35	38	40	42	45	47	49	52	54	56	58	59	61	61	62	61	60	58	56	53	51	48	46	45	43	42	39	36	32	30	30	29	29	28	26	24	22	21	19	17	15	13	12	12	11	11	11	11	10	9	9	10	9	9	9	9	8	8	7	7	7	7	7	7	6	6	6	6	6	6	6	6	6	6	6	6	6	6	6	7	10	11	12	13	14	15	15	16	16	16	18	19	19	19	20	20	20	20	20	20	21	21	21	21	20	20	20	20	21	21	21	21	21	21	20	20	20	18	16	14	13	12	12	12	13	13	13	14	14	14	14	14	15	15	15	15	15	15	16	16	16	17	17	18	18	18	18	17	18	20	21	21	21	21	21	21	21	21	22	22	23	24	26	27	28	29	31	32	33	33	34	35	36	37	39	41	43	44	44	44	43	43	43	43	43	43	43	43	43	44	45	46	47	48	49	49	49	49	50	50	50	50	51	51	51	51	51	51	51	51	50	51	52	52	53	55	57	58	60	62	63	64	67	69	71	73	75	77	79	81	82	84	85	85	86	86	87	88	90	91	93	94	95	96	97	98	99	100	102	104	106	108	110	112	113	115	116	118	119	122	124	127	129	132	135	138	140	143	145	148	151	152	151	148	146	144	142	139	136	133	130	126	124	121	118	115	112	109	106	103	101	98	96	93	91	88	86	84	82	80	77	75	73	71	69	66	64	62	61	60	59	57	56	55	53	52	51	51	50	50	49	49	50	50	51	52	53	54	55	56	57	58	59	60	60	60	59	59	58	57	55	55	54	53	52	51	51	52	52	52	52	51	50	49	48	48	47	46	45	44	43	42	41	40	40	39	38	37	36	35	34	33	32	31	31	30	30	29	29	27	26	25	24	22	21	19	17	16	15	15	13	11	11	11	10	10	10	10	11	12	13	14	15	16	15	15	14	13	12	12	12	12	12	12	12	12	13	14	15	16	15	15	14	13	12	9	6	5	5	5	5	5	5	6	7	6	5	3	2	2	2	2	2	2	1	1	1	1	1	1	1	1	2	4
0	0	0	0	0	0	0	0	0	0	0	0	0	0	0	0	0	0	0	0	0	0	0	0	0	0	0	0	0	0	0	0	0	0	0	0	0	0	0	0	0	0	0	0	0	0	0	0	0	0	0	0	0	0	0	0	0	0	0	0	0	0	0	0	0	0	0	0	0	0	0	0	0	0	0	0	0	0	0	0	0	0	0	0	0	0	0	0	0	0	0	0	0	0	0	0	0	0	0	0	0	0	0	0	0	0	0	0	0	0	0	0	0	0	0	0	0	0	0	0	0	0	0	0	0	0	0	0	0	0	0	0	0	0	0	0	0	0	0	0	0	0	0	0	0	0	0	0	0	0	0	0	0	0	0	0	1	1	2	2	3	3	3	3	3	4	4	4	4	4	4	4	5	5	5	5	5	5	5	5	5	5	5	5	5	5	5	5	6	6	6	6	6	6	6	6	6	6	6	6	6	6	6	6	6	6	6	6	6	6	6	6	6	6	6	6	6	6	6	6	6	6	6	6	6	6	6	6	6	6	6	6	6	6	6	6	6	6	6	6	6	6	6	6	6	6	6	6	6	6	6	6	5	5	5	5	5	5	5	5	5	5	5	5	5	5	5	5	5	5	5	5	5	5	5	5	5	5	5	5	5	5	5	5	5	5	5	6	6	6	6	5	4	4	4	4	4	4	4	4	4	4	4	4	4	4	4	4	4	4	4	4	5	5	5	5	5	5	5	5	5	5	5	4	3	2	1	1	1	1	1	1	1	1	1	1	0	0	0	1	2	3	3	3	3	3	3	3	3	3	3	3	3	3	3	3	3	3	3	4	4	4	4	3	3	2	2	2	2	2	2	2	2	2	2	2	2	3	3	2	2	1	1	2	3	3	3	2	2	2	2	2	2	2	2	2	2	2	2	2	2	2	3	4	5	6	6	7	8	9	11	12	12	11	10	9	6	5	5	6	6	6	6	6	6	6	6	6	6	7	8	8	9	9	9	9	10	10	10	10	11	11	11	11	12	12	12	12	12	13	13	14	15	15	16	17	17	18	18	19	19	20	21	22	22	23	24	25	26	27	29	30	32	34	36	38	40	41	44	47	49	52	55	57	59	62	65	68	71	74	77	80	82	85	87	90	92	95	97	99	102	103	103	102	100	97	93	90	87	83	80	77	74	70	67	63	60	57	53	50	48	45	42	40	40	40	40	41	41	40	39	37	35	32	30	28	25	23	22	21	21	21	23	26	29	32	35	38	40	43	45	48	50	52	55	57	59	61	62	63	63	62	60	59	57	54	52	50	48	47	45	42	40	37	35	33	32	32	32	30	28	26	23	21	19	17	15	14	13	13	12	11	11	11	10	9	9	9	9	9	9	9	8	8	7	7	7	7	7	6	6	6	6	5	5	5	5	6	6	6	6	6	6	6	7	9	11	13	13	14	15	16	16	16	16	17	18	19	19	19	19	20	20	20	20	20	20	21	21	20	20	20	20	20	20	20	21	20	20	19	19	18	17	15	13	12	12	12	13	13	13	13	14	14	14	14	15	14	14	15	15	15	15	15	15	16	17	17	18	18	18	18	17	17	19	21	21	21	22	22	22	22	22	22	22	22	23	23	25	26	28	29	30	31	32	33	34	35	36	38	39	41	43	44	45	45	45	45	44	44	44	44	44	44	44	44	45	46	47	48	49	50	50	50	51	51	51	52	52	52	52	52	53	53	53	52	51	51	52	52	53	54	56	58	60	61	62	64	66	69	71	73	75	77	79	80	82	84	86	87	88	89	90	91	92	94	95	97	97	98	99	100	101	103	105	106	108	110	112	114	116	117	119	120	122	124	126	128	131	133	136	139	141	144	147	149	152	152	150	148	146	144	142	139	136	133	130	127	124	122	119	116	113	110	107	104	101	100	98	95	93	90	88	85	83	81	79	77	74	72	70	67	65	63	61	60	58	57	56	54	53	51	51	51	50	50	50	50	50	51	52	53	54	55	56	57	58	59	60	60	60	60	60	60	59	58	56	55	55	54	52	51	50	51	51	52	51	50	49	48	48	48	47	47	46	45	44	42	41	40	40	39	38	37	36	35	35	34	33	32	31	31	31	31	30	29	27	26	25	23	21	19	17	16	16	15	13	11	11	10	10	10	10	10	11	13	14	15	17	18	18	18	17	15	14	13	13	12	12	12	13	13	14	16	18	18	18	17	16	16	15	12	8	6	5	5	5	5	5	5	7	6	5	3	2	2	2	2	2	1	1	1	1	1	1	1	1	1	2	4
0	0	0	0	0	0	0	0	0	0	0	0	0	0	0	0	0	0	0	0	0	0	0	0	0	0	0	0	0	0	0	0	0	0	0	0	0	0	0	0	0	0	0	0	0	0	0	0	0	0	0	0	0	0	0	0	0	0	0	0	0	0	0	0	0	0	0	0	0	0	0	0	0	0	0	0	0	0	0	0	0	0	0	0	0	0	0	0	0	0	0	0	0	0	0	0	0	0	0	0	0	0	0	0	0	0	0	0	0	0	0	0	0	0	0	0	0	0	0	0	0	0	0	0	0	0	0	0	0	0	0	0	0	0	0	0	0	0	0	0	0	0	0	0	0	0	0	0	0	0	0	0	0	0	0	0	0	1	1	2	3	3	3	3	3	3	4	4	4	4	4	4	5	5	5	5	5	5	5	5	5	5	5	5	5	5	5	5	5	6	6	6	6	6	6	6	6	6	6	6	6	6	6	6	6	6	6	6	6	6	6	6	6	6	6	6	6	6	6	6	6	6	6	6	6	6	6	6	6	6	6	6	6	6	6	6	6	6	6	6	6	6	6	6	6	6	6	6	6	6	6	6	6	6	5	5	5	5	5	5	5	5	5	5	5	5	5	5	5	5	5	5	5	5	5	5	5	5	5	5	5	5	5	5	5	5	5	6	6	6	5	4	4	4	4	4	4	4	4	4	4	4	4	4	4	4	4	4	4	4	4	4	5	5	5	5	5	5	5	5	5	5	5	4	4	3	2	1	1	1	1	1	1	1	1	1	1	0	0	1	2	3	3	3	3	3	3	3	3	3	3	3	3	3	3	3	3	3	3	4	4	4	3	3	2	2	2	2	2	2	2	2	2	2	2	2	2	2	3	3	2	2	2	3	3	3	2	2	2	2	2	2	2	2	2	2	2	2	2	2	2	2	3	3	4	5	6	6	6	6	7	7	7	7	7	7	6	6	6	6	6	6	6	6	6	6	6	6	7	7	7	8	8	9	9	9	9	10	10	10	10	11	11	11	12	12	12	12	12	12	13	13	14	15	15	16	17	17	18	19	19	20	21	22	23	24	25	26	27	29	30	31	33	35	37	39	40	42	44	47	49	52	55	57	59	62	65	68	71	74	77	80	82	83	86	88	91	93	96	98	100	101	101	101	99	96	93	89	86	83	80	77	74	70	67	63	60	57	54	51	48	45	42	40	39	38	38	38	38	38	37	35	33	31	29	27	24	23	22	21	20	21	23	26	29	32	35	38	40	43	46	48	51	53	55	58	60	62	63	63	63	62	61	59	58	55	53	51	49	48	46	43	40	39	38	37	36	35	34	32	29	27	25	22	20	17	15	14	13	13	12	12	11	11	10	9	9	9	9	8	8	8	8	7	7	7	7	7	7	6	6	6	5	5	5	5	5	5	6	6	6	6	6	7	9	11	13	13	14	15	15	16	17	17	17	17	18	19	19	19	19	20	20	20	20	20	20	20	20	19	19	19	19	19	19	20	20	19	19	18	17	16	14	12	11	12	12	13	13	13	13	14	14	14	14	14	15	15	14	15	15	15	15	15	15	16	17	18	18	18	17	17	17	18	20	21	22	22	23	23	23	22	22	22	22	23	23	23	24	25	27	28	29	30	31	32	34	35	36	38	39	41	42	44	45	46	46	46	46	46	45	45	45	45	45	45	45	46	47	48	49	50	51	52	52	52	52	53	53	53	54	54	54	55	54	54	53	52	52	53	54	55	56	58	60	62	64	65	67	69	71	73	76	77	79	81	83	85	87	89	90	91	92	93	95	96	98	99	100	101	101	102	104	105	107	109	111	113	114	116	118	120	121	123	125	126	128	130	132	135	137	140	143	145	148	151	152	151	149	147	145	143	141	138	135	132	129	127	124	122	119	116	113	110	106	103	101	100	99	97	94	91	89	86	84	82	80	78	75	73	71	68	66	64	62	61	60	58	56	55	53	52	51	51	51	51	51	51	51	52	53	54	55	56	57	58	59	60	61	61	61	61	61	61	60	59	57	56	55	54	52	50	49	49	50	50	50	49	48	48	48	48	47	47	46	46	44	43	41	40	39	39	38	37	36	35	35	34	33	33	32	32	32	31	31	30	28	27	25	24	22	20	18	16	16	15	12	11	11	10	10	10	11	11	12	14	15	17	19	19	20	20	20	19	17	15	14	13	13	13	14	15	17	18	19	20	19	19	18	18	18	16	12	8	6	5	5	5	5	5	6	6	5	3	2	2	2	2	2	2	1	1	1	1	1	1	1	1	2	4
0	0	0	0	0	0	0	0	0	0	0	0	0	0	0	0	0	0	0	0	0	0	0	0	0	0	0	0	0	0	0	0	0	0	0	0	0	0	0	0	0	0	0	0	0	0	0	0	0	0	0	0	0	0	0	0	0	0	0	0	0	0	0	0	0	0	0	0	0	0	0	0	0	0	0	0	0	0	0	0	0	0	0	0	0	0	0	0	0	0	0	0	0	0	0	0	0	0	0	0	0	0	0	0	0	0	0	0	0	0	0	0	0	0	0	0	0	0	0	0	0	0	0	0	0	0	0	0	0	0	0	0	0	0	0	0	0	0	0	0	0	0	0	0	0	0	0	0	0	0	0	0	0	0	0	0	0	1	1	2	2	3	3	3	3	3	4	4	4	4	4	4	5	5	5	5	5	5	5	5	5	5	5	5	5	5	5	5	6	6	6	6	6	6	6	6	6	6	6	6	6	6	6	6	6	6	6	6	6	6	6	6	6	6	6	6	6	6	6	6	6	6	6	6	6	6	6	6	6	6	6	6	6	6	6	6	6	6	6	6	6	6	6	6	6	6	6	6	6	6	6	6	6	6	6	5	5	5	5	5	5	5	5	5	5	5	5	5	5	5	5	5	5	5	5	5	5	5	5	5	5	5	5	5	5	5	5	6	6	6	5	4	4	4	4	4	4	4	4	4	4	4	4	4	4	4	4	4	4	4	4	5	5	5	5	5	5	5	5	5	5	5	5	5	4	3	2	2	1	1	1	1	1	1	1	1	1	0	0	0	1	2	3	3	3	3	3	3	3	3	3	3	4	3	3	3	3	3	4	4	4	3	3	2	2	2	2	2	2	2	2	2	2	2	2	2	2	2	2	3	3	3	3	3	3	2	2	2	2	2	2	2	2	2	2	2	2	2	2	2	2	2	2	3	3	4	5	5	5	5	6	6	6	6	6	6	6	6	6	6	6	6	7	7	7	7	7	7	7	7	7	8	8	8	8	9	9	9	9	10	10	10	11	11	11	12	12	12	13	13	13	13	14	14	15	16	17	17	18	19	20	21	22	23	24	25	26	27	29	30	31	33	34	36	38	40	42	44	46	48	50	53	55	57	60	63	65	68	71	74	77	80	82	83	85	87	89	92	94	97	99	100	100	100	98	95	92	89	85	83	80	76	73	70	66	63	60	57	54	52	49	46	42	40	39	38	37	37	37	36	34	33	31	29	27	26	24	22	21	21	20	21	23	26	29	32	35	38	41	43	46	49	51	54	56	59	61	62	63	63	64	63	61	60	58	56	54	52	50	48	46	43	42	42	41	40	39	38	36	33	31	28	26	23	20	18	16	14	13	13	12	12	11	11	10	10	9	9	8	8	8	8	7	7	7	7	7	7	6	6	6	5	5	5	5	5	5	5	5	6	6	6	7	9	11	13	14	14	15	15	16	17	17	17	17	17	18	19	19	19	19	19	20	20	20	20	20	20	19	19	18	18	18	18	19	19	18	18	17	16	14	12	11	11	12	12	13	13	13	13	14	14	14	14	14	14	14	14	14	15	15	15	14	14	15	15	16	18	18	18	17	17	17	19	20	22	22	23	23	23	23	22	22	22	22	23	23	23	24	25	26	27	28	29	31	32	33	34	36	37	39	40	41	43	44	45	46	46	47	47	47	46	46	46	46	46	46	47	48	49	50	51	52	52	53	53	53	54	54	55	55	56	56	56	56	55	54	53	53	53	55	56	57	59	61	63	65	67	69	71	73	75	77	79	80	82	84	86	88	90	92	93	94	95	97	99	100	102	103	104	104	105	106	108	110	111	113	115	117	119	121	122	124	125	127	129	131	133	135	136	139	141	144	147	150	152	151	149	147	145	143	141	139	136	133	130	127	125	123	121	118	115	112	109	106	102	100	100	99	97	94	92	89	86	85	83	81	79	76	74	71	69	67	65	64	63	61	60	58	56	53	52	52	52	52	52	52	52	53	54	55	56	57	57	58	59	60	61	61	61	61	61	61	61	60	59	57	56	55	53	51	48	47	47	48	49	49	48	47	47	47	47	47	47	47	46	44	43	41	40	39	38	37	36	36	36	35	35	34	33	33	33	32	32	32	31	30	28	26	24	23	21	19	17	16	14	12	11	10	10	10	10	10	11	13	15	18	20	20	21	21	21	21	21	20	18	17	16	16	16	17	18	19	20	20	20	20	20	20	20	19	18	16	12	8	6	5	5	5	5	6	6	5	3	2	2	2	2	2	2	2	1	1	1	1	1	1	1	2	4
0	0	0	0	0	0	0	0	0	0	0	0	0	0	0	0	0	0	0	0	0	0	0	0	0	0	0	0	0	0	0	0	0	0	0	0	0	0	0	0	0	0	0	0	0	0	0	0	0	0	0	0	0	0	0	0	0	0	0	0	0	0	0	0	0	0	0	0	0	0	0	0	0	0	0	0	0	0	0	0	0	0	0	0	0	0	0	0	0	0	0	0	0	0	0	0	0	0	0	0	0	0	0	0	0	0	0	0	0	0	0	0	0	0	0	0	0	0	0	0	0	0	0	0	0	0	0	0	0	0	0	0	0	0	0	0	0	0	0	0	0	0	0	0	0	0	0	0	0	0	0	0	0	0	0	0	0	0	1	1	2	3	3	3	3	3	3	4	4	4	4	4	5	5	5	5	5	5	5	5	5	5	5	5	5	5	5	6	6	6	6	6	6	6	6	6	6	6	6	6	6	6	6	6	6	6	6	6	6	6	6	6	6	6	6	6	6	6	6	6	6	6	6	6	6	6	6	6	6	6	6	6	6	6	6	6	6	6	6	6	6	6	6	6	6	6	6	6	6	6	6	6	6	6	6	5	5	5	5	5	5	5	5	5	5	5	5	5	5	5	5	5	5	5	5	5	5	5	5	5	5	5	5	5	5	5	5	6	6	5	4	3	4	4	4	4	4	4	4	4	4	4	4	4	4	4	4	4	4	4	5	5	5	5	5	5	5	5	5	5	5	5	5	5	5	4	3	3	2	1	1	1	1	1	1	1	1	0	0	0	0	1	2	3	3	3	3	3	3	3	3	3	4	4	3	3	3	3	4	4	4	3	3	2	2	2	2	2	2	2	2	2	2	2	2	2	2	2	2	3	3	3	3	3	3	2	2	2	2	2	2	2	2	2	2	2	2	2	2	2	2	2	2	2	2	3	4	4	4	5	5	5	5	4	4	4	4	4	5	5	5	5	6	6	6	6	6	7	7	7	7	7	8	8	8	8	8	9	9	9	10	10	10	11	11	12	12	12	13	12	13	14	14	15	16	16	17	18	19	19	20	22	23	24	25	26	27	29	30	31	33	34	35	37	39	41	43	45	48	50	52	54	56	59	61	64	67	69	72	75	77	80	81	83	85	86	88	90	92	95	97	99	100	99	97	94	91	88	85	82	79	76	73	69	66	63	60	57	54	52	49	46	43	40	39	37	36	35	35	34	32	30	29	27	26	24	23	22	21	20	20	20	22	26	29	32	35	38	41	44	46	49	52	54	56	59	61	62	63	63	64	63	62	61	59	57	55	52	50	48	46	44	44	44	44	43	41	40	37	35	32	29	26	24	21	18	16	14	13	12	13	12	12	11	11	10	9	8	8	8	8	7	7	7	7	7	7	7	6	6	6	5	5	5	5	5	5	5	5	6	6	6	8	10	13	14	14	15	16	16	17	17	17	17	18	18	18	19	19	19	19	19	19	19	20	20	19	19	19	18	18	17	17	18	18	18	17	16	15	13	11	10	9	10	11	12	13	13	13	14	14	13	13	12	12	12	13	13	13	14	14	13	13	14	15	15	16	17	18	18	17	18	18	20	21	22	23	23	24	24	23	23	22	22	22	22	23	23	24	25	25	27	28	28	30	31	32	34	35	37	38	39	40	42	43	44	45	46	47	48	48	48	47	47	47	47	46	47	48	49	50	51	52	53	54	54	55	55	56	56	57	57	58	58	57	57	56	55	54	54	55	57	58	60	62	64	66	68	70	72	74	76	78	80	81	83	85	87	89	91	93	95	96	97	99	101	103	104	105	106	107	108	109	111	112	114	115	117	119	121	123	125	126	128	130	131	133	135	137	139	141	143	145	148	151	151	149	147	146	144	142	139	136	133	130	127	125	122	121	119	116	114	111	108	105	102	100	100	99	97	94	91	89	86	84	83	81	79	77	75	72	70	68	66	65	64	62	60	58	56	54	52	52	53	53	53	53	54	54	55	56	57	58	59	60	60	61	61	61	62	62	62	62	61	60	59	58	56	54	52	49	47	46	46	47	48	48	47	47	47	47	47	47	47	46	46	44	43	41	40	38	37	36	36	35	35	35	35	34	34	34	34	33	32	32	32	30	29	27	25	23	22	19	17	16	14	12	11	10	10	10	10	10	12	14	17	20	21	21	21	22	22	22	22	21	21	20	19	19	19	19	20	20	20	20	21	21	21	21	21	20	19	18	16	13	9	6	5	5	6	7	6	5	3	2	2	2	2	2	2	2	2	1	1	1	1	1	1	2	4
0	0	0	0	0	0	0	0	0	0	0	0	0	0	0	0	0	0	0	0	0	0	0	0	0	0	0	0	0	0	0	0	0	0	0	0	0	0	0	0	0	0	0	0	0	0	0	0	0	0	0	0	0	0	0	0	0	0	0	0	0	0	0	0	0	0	0	0	0	0	0	0	0	0	0	0	0	0	0	0	0	0	0	0	0	0	0	0	0	0	0	0	0	0	0	0	0	0	0	0	0	0	0	0	0	0	0	0	0	0	0	0	0	0	0	0	0	0	0	0	0	0	0	0	0	0	0	0	0	0	0	0	0	0	0	0	0	0	0	0	0	0	0	0	0	0	0	0	0	0	0	0	0	0	0	0	0	0	1	1	1	2	3	3	3	3	3	3	4	4	4	4	5	5	5	5	5	5	5	5	5	5	5	5	5	5	5	6	6	6	6	6	6	6	6	6	6	6	6	6	6	6	6	6	6	6	6	6	6	6	6	6	6	6	6	6	6	6	6	6	6	6	6	6	6	6	6	6	6	6	6	6	6	6	6	6	6	6	6	6	6	6	6	6	6	6	6	6	6	6	6	6	6	6	6	5	5	5	5	5	5	5	5	5	5	5	5	5	5	5	5	5	5	5	5	5	5	5	5	5	5	5	5	5	5	5	5	6	6	5	4	3	3	4	4	4	4	4	4	4	4	4	4	4	4	4	4	4	4	5	5	5	5	5	5	5	5	5	5	5	5	5	5	5	5	5	4	3	2	1	1	1	1	1	1	1	1	1	0	0	0	1	1	3	3	3	3	3	3	3	3	3	3	4	3	3	3	3	4	4	4	3	2	2	2	2	2	2	2	2	2	2	2	2	2	2	2	2	2	3	3	3	4	3	2	2	2	2	2	2	2	2	2	2	2	2	2	2	2	2	2	2	2	2	2	2	3	3	4	4	5	4	4	4	4	4	4	4	4	4	4	4	4	5	5	5	5	6	6	6	7	7	7	7	8	8	8	8	9	9	9	10	10	11	11	11	12	12	12	13	13	14	15	16	17	17	18	19	19	20	21	22	24	25	26	27	28	30	31	33	34	35	37	38	40	42	44	47	49	51	54	56	58	61	63	65	68	71	73	75	77	79	81	82	83	85	87	88	90	93	95	97	99	99	96	93	90	87	84	81	78	75	72	69	66	63	60	57	54	52	49	46	43	40	38	36	35	34	33	32	30	28	27	26	25	23	22	21	21	20	20	20	22	26	29	32	35	38	41	44	47	50	52	54	56	59	62	62	62	62	63	63	62	61	59	58	55	53	51	49	47	46	46	46	46	45	43	40	38	35	33	30	27	24	22	19	17	14	13	12	13	13	12	11	11	10	9	8	8	8	8	7	7	7	7	7	7	7	7	6	6	5	5	6	6	5	5	5	5	6	6	7	9	12	14	15	15	16	17	17	18	18	17	18	18	18	18	19	19	19	19	18	18	18	19	18	18	18	18	17	17	17	16	16	16	16	15	14	12	11	9	9	9	10	10	11	12	12	13	13	12	11	11	11	12	13	13	13	13	13	13	13	13	14	15	15	16	17	18	18	18	19	20	21	22	23	24	24	25	25	25	24	23	22	22	22	22	23	24	25	26	27	28	29	29	30	32	33	35	36	37	39	40	41	42	43	44	46	47	48	49	49	49	48	48	47	47	47	48	49	50	51	52	53	54	55	56	56	57	57	58	59	59	59	59	58	57	56	55	55	55	57	59	61	63	65	67	69	71	73	75	77	79	81	83	84	86	88	91	93	95	96	98	99	101	103	105	107	108	109	110	111	112	113	115	116	118	120	122	123	125	127	129	131	132	134	136	138	139	141	143	145	147	150	151	150	147	145	144	142	140	137	134	131	128	125	122	120	118	116	114	111	109	107	104	101	100	99	98	96	94	91	89	86	84	82	81	80	78	75	73	71	69	67	66	64	62	61	59	57	55	53	53	54	54	55	55	55	56	56	57	58	59	60	61	61	61	61	62	62	63	63	62	62	61	60	59	57	54	51	48	46	44	44	46	46	47	46	46	46	47	46	46	46	46	45	44	42	41	39	38	36	35	35	34	34	34	34	34	34	34	34	33	33	32	32	31	30	28	26	24	22	20	18	16	14	12	11	10	10	10	10	11	14	17	19	21	22	22	22	22	22	22	22	22	22	21	21	21	21	21	20	20	19	20	21	21	22	22	22	21	20	19	18	17	13	8	6	6	6	7	6	5	4	2	2	2	2	2	2	2	2	1	1	1	1	1	1	2	4
0	0	0	0	0	0	0	0	0	0	0	0	0	0	0	0	0	0	0	0	0	0	0	0	0	0	0	0	0	0	0	0	0	0	0	0	0	0	0	0	0	0	0	0	0	0	0	0	0	0	0	0	0	0	0	0	0	0	0	0	0	0	0	0	0	0	0	0	0	0	0	0	0	0	0	0	0	0	0	0	0	0	0	0	0	0	0	0	0	0	0	0	0	0	0	0	0	0	0	0	0	0	0	0	0	0	0	0	0	0	0	0	0	0	0	0	0	0	0	0	0	0	0	0	0	0	0	0	0	0	0	0	0	0	0	0	0	0	0	0	0	0	0	0	0	0	0	0	0	0	0	0	0	0	0	0	0	0	0	1	1	2	2	3	3	3	3	3	4	4	4	4	5	5	5	5	5	5	5	5	5	5	5	5	5	5	5	6	6	6	6	6	6	6	6	6	6	6	6	6	6	6	6	6	6	6	6	6	6	6	6	6	6	6	6	6	6	6	6	6	6	6	6	6	6	6	6	6	6	6	6	6	6	6	6	6	6	6	6	6	6	6	6	6	6	6	6	6	6	6	6	6	6	6	5	5	5	5	5	5	5	5	5	5	5	5	5	5	5	5	5	5	5	5	5	5	5	5	5	5	5	5	5	5	5	5	6	6	5	4	4	3	3	3	3	3	4	4	4	4	4	4	4	4	4	4	4	4	5	5	5	5	5	5	5	5	5	5	5	5	5	5	5	5	5	5	4	4	3	2	1	1	1	1	1	1	1	1	0	0	0	0	1	2	3	3	3	3	3	3	3	3	3	3	4	4	4	4	4	4	3	3	2	2	2	2	2	2	2	2	2	2	2	2	2	2	2	2	2	3	3	3	4	4	3	2	2	2	2	2	2	2	2	2	2	2	2	2	2	2	2	2	2	2	2	2	2	3	3	4	5	4	4	4	4	4	4	4	4	4	4	4	4	4	5	5	5	5	6	6	6	6	6	7	7	8	8	8	8	9	9	10	10	10	11	11	12	12	12	13	14	15	16	17	18	18	19	20	20	21	22	23	24	26	27	28	29	31	32	34	35	37	38	40	41	43	46	48	50	53	55	57	60	62	64	67	69	72	74	75	76	78	79	81	82	83	85	87	89	91	93	95	98	97	95	92	89	86	83	80	78	74	71	68	65	62	59	56	54	51	48	45	42	40	37	35	34	32	32	31	29	27	25	24	24	23	22	21	20	20	20	20	23	26	29	32	36	39	42	44	47	50	52	54	56	59	62	62	61	62	62	63	62	61	59	58	56	54	52	50	48	48	48	48	47	46	43	41	38	35	33	30	27	25	23	20	18	15	13	13	13	13	12	12	11	10	9	8	8	8	7	7	7	7	7	7	7	7	7	6	6	5	6	6	6	6	5	5	5	6	7	9	10	13	15	15	16	17	17	18	18	18	18	18	18	18	18	18	18	18	18	18	18	17	17	17	17	17	16	16	15	15	14	14	13	13	12	11	10	9	9	9	10	10	10	10	11	12	12	12	11	11	11	12	14	15	16	15	14	14	14	14	14	15	16	17	17	18	19	20	20	21	22	23	24	25	26	26	27	27	27	26	25	24	23	23	23	23	25	26	28	29	29	30	30	30	31	33	35	36	37	38	39	41	42	44	44	46	47	48	49	50	50	49	48	48	47	47	48	49	50	51	52	53	55	56	57	58	58	59	59	60	60	60	60	59	58	57	56	56	56	58	59	61	63	65	68	70	72	74	76	78	80	82	84	85	87	90	92	94	96	98	100	101	102	104	106	109	110	112	113	114	115	116	118	119	120	122	124	126	127	129	131	133	135	136	138	140	142	144	145	147	150	151	151	149	146	144	142	140	137	134	131	128	125	122	120	117	115	113	111	109	107	105	103	101	99	98	96	95	93	91	88	86	83	82	81	79	77	75	73	71	69	67	66	64	62	61	59	57	55	54	55	55	56	56	56	57	57	58	59	60	60	61	61	62	62	62	62	63	63	63	63	62	61	60	59	57	53	50	47	45	43	43	44	45	45	46	46	46	46	46	46	46	46	45	43	41	40	38	37	35	35	34	33	33	32	32	32	33	34	34	34	33	33	33	32	30	28	26	24	22	20	18	15	13	11	11	10	10	10	11	13	16	19	21	22	22	22	22	23	23	23	23	22	22	22	22	22	22	21	20	19	19	20	20	21	22	22	23	22	21	20	19	18	16	12	8	6	6	6	6	5	3	2	2	2	2	2	2	2	2	1	1	1	1	1	1	2	3
0	0	0	0	0	0	0	0	0	0	0	0	0	0	0	0	0	0	0	0	0	0	0	0	0	0	0	0	0	0	0	0	0	0	0	0	0	0	0	0	0	0	0	0	0	0	0	0	0	0	0	0	0	0	0	0	0	0	0	0	0	0	0	0	0	0	0	0	0	0	0	0	0	0	0	0	0	0	0	0	0	0	0	0	0	0	0	0	0	0	0	0	0	0	0	0	0	0	0	0	0	0	0	0	0	0	0	0	0	0	0	0	0	0	0	0	0	0	0	0	0	0	0	0	0	0	0	0	0	0	0	0	0	0	0	0	0	0	0	0	0	0	0	0	0	0	0	0	0	0	0	0	0	0	0	0	0	0	0	1	1	1	2	3	3	3	3	3	3	4	4	4	5	5	5	5	5	5	5	5	5	5	5	5	5	5	6	6	6	6	6	6	6	6	6	6	6	6	6	6	6	6	6	6	6	6	6	6	6	6	6	6	6	6	6	6	6	6	6	6	6	6	6	6	6	6	6	6	6	6	6	6	6	6	6	6	6	6	6	6	6	6	6	6	6	6	6	6	6	6	6	6	6	6	5	5	5	5	5	5	5	5	5	5	5	5	5	5	5	5	5	5	5	5	5	5	5	5	5	5	5	5	5	5	5	5	6	6	5	4	3	3	3	3	3	3	3	4	4	4	4	5	4	4	4	4	4	5	5	5	5	5	5	5	5	5	5	5	5	5	5	5	5	5	5	5	5	4	4	3	2	1	1	1	1	1	1	1	0	0	0	0	0	1	2	3	3	3	3	3	3	3	3	3	3	4	4	4	4	4	3	2	2	2	2	2	2	2	2	2	2	2	2	2	2	2	2	2	2	3	3	3	3	4	3	3	2	2	2	2	2	2	2	2	2	2	2	2	2	2	2	2	2	2	2	1	1	2	2	3	4	4	4	4	4	4	4	4	4	4	4	4	4	4	5	5	5	5	5	5	5	5	5	6	6	7	7	8	8	9	9	9	10	10	11	11	11	12	12	14	15	17	18	18	19	19	20	21	22	23	23	24	25	27	28	29	31	32	34	35	37	38	39	41	43	45	47	49	52	54	57	59	61	64	66	68	70	72	74	75	76	77	78	79	81	82	84	85	87	89	91	94	96	97	95	92	89	86	82	80	77	74	71	67	64	61	58	55	53	50	47	44	41	39	36	34	32	31	31	30	28	26	24	24	23	22	21	21	20	20	20	21	24	27	30	33	36	39	42	44	47	49	52	54	56	59	61	62	61	61	62	63	62	61	59	57	56	54	52	50	49	48	48	48	47	46	43	41	38	35	33	30	28	26	24	22	19	17	15	13	13	12	12	11	11	10	9	8	8	8	7	7	7	7	7	7	7	7	7	6	6	6	6	6	6	6	6	6	6	7	9	10	11	14	16	16	17	17	18	18	17	17	17	18	18	18	18	18	18	18	17	17	17	17	17	17	17	16	15	14	13	12	11	11	11	10	10	9	9	9	10	10	11	11	11	11	11	11	11	11	12	14	14	15	16	17	17	17	16	15	15	15	15	16	16	17	18	19	20	21	22	23	24	25	26	27	27	28	28	29	29	28	27	26	25	25	24	25	27	28	29	30	30	31	31	32	32	34	36	37	38	39	40	41	44	45	46	46	47	48	50	50	51	50	49	49	48	48	48	49	50	51	52	54	55	57	58	59	59	60	60	61	61	61	61	60	60	59	58	57	57	58	59	61	63	65	68	70	72	74	76	79	81	83	85	86	89	91	94	96	97	99	101	103	104	106	108	110	113	114	115	117	118	119	120	122	123	125	126	128	130	131	133	135	137	139	141	143	144	146	148	150	152	152	150	148	145	143	141	138	135	131	128	125	122	120	117	115	112	110	108	106	104	102	100	99	97	96	94	93	91	90	88	85	83	81	80	79	77	75	73	71	69	67	65	63	62	60	58	57	56	55	56	57	57	58	58	58	58	59	60	60	61	61	62	62	63	63	63	63	63	64	63	62	61	61	59	56	53	50	46	43	41	41	42	43	44	44	45	45	46	46	46	45	44	43	42	41	39	37	36	35	34	33	32	31	31	31	31	32	32	33	33	33	33	33	32	30	28	26	25	23	21	18	15	12	11	11	10	10	11	13	16	18	20	21	22	22	22	23	23	23	23	23	23	23	23	23	23	22	22	20	19	18	19	20	21	21	22	23	22	21	20	19	19	17	14	11	8	6	6	6	5	3	2	2	2	2	2	2	2	1	1	1	1	1	1	1	1	3
0	0	0	0	0	0	0	0	0	0	0	0	0	0	0	0	0	0	0	0	0	0	0	0	0	0	0	0	0	0	0	0	0	0	0	0	0	0	0	0	0	0	0	0	0	0	0	0	0	0	0	0	0	0	0	0	0	0	0	0	0	0	0	0	0	0	0	0	0	0	0	0	0	0	0	0	0	0	0	0	0	0	0	0	0	0	0	0	0	0	0	0	0	0	0	0	0	0	0	0	0	0	0	0	0	0	0	0	0	0	0	0	0	0	0	0	0	0	0	0	0	0	0	0	0	0	0	0	0	0	0	0	0	0	0	0	0	0	0	0	0	0	0	0	0	0	0	0	0	0	0	0	0	0	0	0	0	0	0	0	1	1	2	2	3	3	3	3	3	4	4	4	5	5	5	5	5	5	5	5	5	5	5	5	5	5	6	6	6	6	6	6	6	6	6	6	6	6	6	6	6	6	6	6	6	6	6	6	6	6	6	6	6	6	6	6	6	6	6	6	6	6	6	6	6	6	6	6	6	6	6	6	6	6	6	6	6	6	6	6	6	6	6	6	6	6	6	6	6	6	6	6	6	5	5	5	5	5	5	5	5	5	5	5	5	5	5	5	5	5	5	5	5	5	5	5	5	5	5	5	5	5	5	5	5	5	6	5	4	3	3	3	3	3	3	3	4	4	4	4	5	5	5	5	5	5	5	5	5	5	5	5	5	5	5	5	5	5	5	5	5	5	5	5	5	5	5	5	4	4	3	2	1	1	1	1	1	1	1	0	0	0	0	0	1	2	3	3	3	3	3	3	3	3	3	3	4	4	4	3	3	2	2	2	2	2	2	2	2	2	2	2	2	2	2	2	2	2	3	3	3	2	2	3	4	3	3	2	2	2	2	2	2	2	2	2	2	2	2	2	2	2	2	2	1	1	1	1	2	2	2	3	4	4	4	4	4	4	4	4	4	4	4	4	5	5	5	5	5	5	5	5	5	5	6	6	7	7	8	8	9	9	10	10	11	11	11	12	13	14	16	18	19	20	20	21	22	23	24	24	25	26	27	28	29	30	32	33	35	36	38	39	41	43	45	47	49	51	53	56	58	60	63	65	67	69	70	72	73	74	75	76	76	78	79	81	82	84	86	88	90	92	94	96	95	92	90	86	82	79	76	73	70	67	63	60	58	55	52	49	46	43	40	38	35	33	32	31	30	29	27	25	24	23	23	22	21	21	20	20	20	22	24	27	30	34	37	40	42	45	47	49	51	53	55	57	60	60	60	61	61	62	62	60	59	56	55	53	51	49	48	47	47	47	46	45	43	41	38	35	32	30	28	26	24	22	20	18	16	14	13	12	12	11	10	10	9	8	8	7	7	7	7	7	7	7	7	7	7	6	6	6	7	7	7	7	6	6	7	8	9	10	12	15	17	16	16	17	17	17	17	17	17	17	17	17	17	17	17	17	17	17	17	17	17	16	16	15	13	12	11	10	10	10	10	10	9	9	9	10	10	10	11	11	12	12	12	11	11	13	15	16	16	16	17	17	17	17	17	17	16	16	16	16	17	18	19	19	20	22	24	25	26	27	28	28	29	30	30	31	31	30	29	28	28	27	27	28	29	30	31	31	32	32	33	34	34	36	37	38	39	39	40	42	45	47	47	48	49	49	50	51	52	51	51	50	49	48	48	49	50	52	53	55	56	58	59	60	60	61	62	62	62	62	62	61	61	60	59	58	58	58	59	61	63	65	67	70	72	74	77	79	81	83	85	87	90	93	95	97	99	101	103	104	106	107	109	112	114	116	118	119	120	121	123	124	126	127	129	130	132	134	135	137	139	141	143	145	147	148	150	152	154	152	149	146	144	142	139	136	132	129	126	122	120	117	115	112	110	108	105	103	101	99	98	97	95	94	92	91	90	88	86	85	83	81	80	78	76	74	72	71	68	67	65	63	61	60	58	57	57	57	58	58	59	59	59	59	60	60	61	61	61	62	62	63	64	64	64	63	63	63	63	62	61	60	58	55	52	48	45	42	40	39	40	41	42	42	43	43	44	44	44	44	43	42	41	40	38	36	35	34	34	32	31	30	29	29	30	30	31	31	32	33	33	32	31	30	28	27	25	23	20	18	15	12	11	10	10	10	12	14	17	19	20	21	22	22	22	23	23	23	23	23	23	23	23	22	22	22	21	20	18	18	19	20	20	21	22	22	22	22	21	20	19	18	16	13	10	7	7	6	5	3	2	2	2	2	2	2	1	1	1	1	1	1	1	1	1	3
0	0	0	0	0	0	0	0	0	0	0	0	0	0	0	0	0	0	0	0	0	0	0	0	0	0	0	0	0	0	0	0	0	0	0	0	0	0	0	0	0	0	0	0	0	0	0	0	0	0	0	0	0	0	0	0	0	0	0	0	0	0	0	0	0	0	0	0	0	0	0	0	0	0	0	0	0	0	0	0	0	0	0	0	0	0	0	0	0	0	0	0	0	0	0	0	0	0	0	0	0	0	0	0	0	0	0	0	0	0	0	0	0	0	0	0	0	0	0	0	0	0	0	0	0	0	0	0	0	0	0	0	0	0	0	0	0	0	0	0	0	0	0	0	0	0	0	0	0	0	0	0	0	0	0	0	0	0	0	0	0	1	2	2	3	3	3	3	3	4	4	4	5	5	5	5	5	5	5	5	5	5	5	5	5	6	6	6	6	6	6	6	6	6	6	6	6	6	6	6	6	6	6	6	6	6	6	6	6	6	6	6	6	6	6	6	6	6	6	6	6	6	6	6	6	6	6	6	6	6	6	5	5	5	5	5	5	5	5	5	5	5	5	5	5	5	5	5	5	5	5	5	5	5	5	5	5	5	5	5	5	5	5	5	5	5	5	5	5	5	5	5	5	5	5	5	5	5	5	5	5	5	5	5	5	5	6	5	4	3	3	3	3	3	3	3	4	4	4	4	5	5	5	5	5	5	5	5	5	5	5	5	5	5	5	5	5	5	5	5	5	5	5	5	5	5	5	5	5	4	4	3	2	1	1	1	1	1	1	0	0	0	0	0	1	2	3	3	3	3	3	3	3	3	3	3	3	4	4	3	3	2	2	2	2	2	2	2	2	2	2	2	2	2	2	2	2	3	3	3	2	2	2	2	3	4	4	3	2	2	2	2	2	2	2	2	2	2	2	2	2	2	1	1	1	1	1	1	1	1	2	2	3	4	4	4	4	4	4	4	4	4	4	4	5	5	5	5	5	5	5	5	5	5	5	5	6	7	8	8	9	9	9	10	10	11	11	12	13	15	17	18	20	21	22	23	24	25	26	26	27	27	28	29	31	32	34	35	36	38	39	41	43	45	46	48	50	53	55	57	60	62	64	66	67	69	70	71	72	72	73	74	75	76	77	79	81	83	85	87	89	91	93	95	95	93	90	87	83	79	76	73	70	67	63	60	58	55	52	49	46	43	40	38	36	34	33	32	30	29	27	25	24	23	22	22	21	20	20	20	21	23	26	28	31	34	37	40	42	44	47	49	51	53	54	56	57	58	59	60	61	62	61	59	56	54	52	51	50	48	47	46	45	45	45	44	42	40	37	34	31	29	27	26	24	22	20	19	16	14	12	11	11	11	10	9	9	8	8	7	7	7	7	7	7	7	7	7	6	6	6	6	7	7	7	7	6	7	8	9	10	11	13	16	17	16	16	16	16	16	16	16	16	16	16	16	16	16	16	16	16	17	17	17	17	16	14	13	11	10	9	9	9	10	10	10	10	10	10	10	10	11	11	11	12	13	13	13	14	15	16	17	17	17	17	17	17	17	18	18	18	18	18	18	18	18	19	20	21	23	25	27	28	28	28	29	29	31	32	32	32	31	31	30	30	30	30	31	32	32	33	33	34	34	35	36	36	37	39	40	40	41	42	43	46	48	49	50	50	51	51	52	53	52	51	51	50	49	49	49	51	53	54	56	58	59	60	61	62	62	63	63	63	63	63	62	62	61	60	60	59	59	59	61	63	65	67	70	72	74	76	79	81	82	84	87	89	92	95	97	99	102	104	106	107	109	111	113	116	118	120	121	122	123	125	127	128	130	131	133	135	136	138	139	141	143	145	147	149	151	152	153	153	151	148	145	143	141	138	134	131	127	124	120	118	115	113	110	108	105	103	101	99	97	96	95	94	92	91	89	88	86	85	83	81	80	79	78	76	74	72	70	68	66	65	63	61	60	59	59	59	59	59	60	60	60	60	61	61	61	61	62	62	63	63	64	64	65	64	64	63	63	62	62	61	60	57	54	51	47	44	41	38	37	37	38	39	39	40	41	41	42	42	42	41	41	40	38	36	35	34	34	33	31	29	28	28	28	29	29	29	30	31	31	31	31	30	29	28	27	25	23	20	17	14	12	11	10	10	11	13	15	17	19	20	21	22	22	22	23	23	22	22	22	22	22	21	21	21	20	20	18	17	17	18	19	20	21	21	22	22	22	21	20	19	18	17	14	11	8	7	6	5	3	2	2	2	2	2	2	2	1	1	1	1	1	1	1	1	2
0	0	0	0	0	0	0	0	0	0	0	0	0	0	0	0	0	0	0	0	0	0	0	0	0	0	0	0	0	0	0	0	0	0	0	0	0	0	0	0	0	0	0	0	0	0	0	0	0	0	0	0	0	0	0	0	0	0	0	0	0	0	0	0	0	0	0	0	0	0	0	0	0	0	0	0	0	0	0	0	0	0	0	0	0	0	0	0	0	0	0	0	0	0	0	0	0	0	0	0	0	0	0	0	0	0	0	0	0	0	0	0	0	0	0	0	0	0	0	0	0	0	0	0	0	0	0	0	0	0	0	0	0	0	0	0	0	0	0	0	0	0	0	0	0	0	0	0	0	0	0	0	0	0	0	0	0	0	0	0	0	1	1	2	2	3	3	3	3	4	4	4	5	5	5	5	5	5	5	5	5	5	5	5	6	6	6	6	6	6	6	6	6	6	6	6	6	6	6	6	6	6	6	6	6	6	6	6	6	6	6	6	6	6	6	6	6	6	6	6	6	6	6	6	6	6	6	6	6	5	5	5	5	5	5	5	5	5	5	5	5	5	5	5	5	5	5	5	5	5	5	5	5	5	5	5	5	5	5	5	5	5	5	5	5	5	5	5	5	5	5	5	5	5	5	5	5	5	5	5	5	5	5	5	5	5	5	4	4	3	3	3	3	3	3	3	4	4	4	5	5	5	5	5	5	5	5	5	5	5	5	5	5	5	5	5	5	5	5	5	5	5	5	5	5	5	5	5	5	5	4	3	2	1	1	1	1	1	1	1	0	0	0	0	0	1	2	3	3	3	3	3	3	3	3	3	3	4	4	3	2	2	2	2	2	2	2	2	2	2	2	2	2	2	2	2	3	3	2	2	2	2	2	2	3	3	4	4	3	3	2	2	2	2	2	2	2	2	2	2	2	2	1	1	1	1	1	1	1	1	1	1	2	3	3	4	4	4	4	4	4	4	4	5	5	5	5	5	5	5	5	5	5	5	5	5	5	6	7	8	9	9	9	10	10	11	11	12	14	16	17	19	21	22	24	25	26	27	27	28	29	29	30	31	33	34	35	36	38	39	41	43	45	47	48	50	52	54	56	59	61	63	65	67	68	69	70	71	71	70	71	72	73	74	76	77	79	81	83	85	88	90	92	94	95	93	90	87	83	80	76	73	70	67	64	61	58	55	53	50	47	44	42	40	38	36	35	33	31	29	27	25	24	22	22	21	21	20	18	19	21	24	26	29	32	34	37	40	42	44	46	48	50	52	53	54	55	56	57	59	60	60	58	56	53	51	49	48	48	46	45	44	43	43	43	42	41	39	36	33	30	28	26	25	23	21	20	18	16	14	12	11	11	10	10	9	9	8	8	7	7	7	6	6	7	7	7	7	6	6	6	6	7	7	7	7	6	7	8	9	10	11	13	15	16	16	15	15	15	15	16	16	16	16	16	16	16	16	16	16	16	17	17	16	16	14	12	11	10	9	9	9	10	10	10	10	10	10	10	11	11	11	11	12	12	13	14	14	16	16	17	17	17	17	17	17	17	17	17	18	19	19	19	19	19	19	19	20	22	24	26	27	28	28	28	28	29	30	32	33	33	32	32	32	32	32	33	33	34	34	35	35	36	36	37	38	38	39	40	42	43	44	44	45	47	49	50	51	51	52	52	53	53	53	52	51	50	50	49	50	52	54	55	57	59	60	61	62	63	64	64	65	64	64	64	63	63	62	61	61	60	60	60	61	63	65	67	69	71	74	76	78	80	81	83	86	89	91	94	96	99	102	104	106	108	110	113	115	117	119	122	123	124	126	127	129	131	132	134	135	137	139	140	142	144	146	148	150	152	154	155	154	152	149	147	144	142	139	136	133	129	126	122	119	116	113	111	108	106	103	101	99	98	96	94	93	92	90	89	87	86	84	83	81	80	79	78	77	76	74	72	70	68	66	64	62	61	60	60	60	60	60	61	61	61	61	62	62	62	62	62	63	63	63	64	64	65	65	64	63	62	62	62	61	60	59	56	53	50	47	43	40	38	35	34	35	35	36	37	38	39	39	40	40	39	39	38	37	36	34	33	32	31	30	28	26	26	26	27	28	28	29	30	30	30	29	29	28	27	26	24	22	19	16	14	11	10	10	10	11	13	16	17	18	19	21	22	22	22	22	22	22	22	22	22	21	20	19	19	19	18	16	16	16	17	19	20	20	21	21	22	22	22	21	20	18	16	14	12	9	7	6	5	3	2	2	2	2	2	2	2	1	1	1	1	1	1	1	1	2
0	0	0	0	0	0	0	0	0	0	0	0	0	0	0	0	0	0	0	0	0	0	0	0	0	0	0	0	0	0	0	0	0	0	0	0	0	0	0	0	0	0	0	0	0	0	0	0	0	0	0	0	0	0	0	0	0	0	0	0	0	0	0	0	0	0	0	0	0	0	0	0	0	0	0	0	0	0	0	0	0	0	0	0	0	0	0	0	0	0	0	0	0	0	0	0	0	0	0	0	0	0	0	0	0	0	0	0	0	0	0	0	0	0	0	0	0	0	0	0	0	0	0	0	0	0	0	0	0	0	0	0	0	0	0	0	0	0	0	0	0	0	0	0	0	0	0	0	0	0	0	0	0	0	0	0	0	0	0	0	0	0	1	1	2	3	3	3	3	4	4	4	5	5	5	5	5	5	5	5	5	5	5	5	6	6	6	6	6	6	6	6	6	6	6	6	6	6	6	6	6	6	6	6	6	6	6	6	6	6	6	6	6	6	6	6	6	6	6	6	6	6	6	6	6	6	6	6	5	5	5	5	5	5	5	5	5	5	5	5	5	5	5	5	5	5	5	5	5	5	5	5	5	5	5	5	5	5	5	5	5	5	5	5	5	5	5	5	5	5	5	5	5	5	5	5	5	5	5	5	5	5	5	5	5	5	5	4	3	3	3	3	3	3	3	4	4	4	4	5	5	5	5	5	5	5	5	5	5	5	5	5	5	5	5	5	5	5	5	5	5	5	5	5	5	5	5	5	5	5	5	4	3	2	1	1	1	1	1	1	0	0	0	0	0	1	1	2	3	3	3	3	3	3	3	3	4	4	3	3	2	2	2	2	2	2	2	2	2	2	2	2	2	2	2	3	3	2	2	2	2	2	2	2	3	3	3	4	4	3	3	2	2	2	2	2	2	2	2	2	2	1	1	1	1	1	1	1	1	1	1	1	1	2	3	4	4	4	4	4	4	4	4	5	5	5	5	5	5	5	5	5	5	5	5	5	5	6	6	7	8	9	9	10	10	11	11	13	14	16	18	20	21	23	25	26	27	28	29	30	31	32	32	33	35	36	37	38	40	41	43	45	47	49	50	51	53	56	58	60	62	64	66	67	68	69	70	70	69	68	68	69	70	72	73	75	77	79	81	84	87	89	91	93	93	92	89	87	83	80	77	74	71	68	65	62	59	57	54	52	49	46	44	42	40	38	36	34	32	29	27	26	24	23	22	21	20	19	17	19	22	24	27	29	32	34	37	39	41	43	45	46	49	51	52	52	53	54	56	57	58	58	56	53	50	48	47	46	45	44	43	42	41	41	41	41	40	38	35	32	30	28	25	24	22	20	18	17	15	13	11	10	10	10	9	9	8	8	8	7	7	7	6	6	7	7	7	6	6	5	6	6	7	7	6	6	6	7	9	10	10	11	12	13	14	15	15	14	15	15	15	15	15	15	15	15	15	15	15	16	16	16	16	14	13	11	10	9	9	9	9	10	10	10	10	10	10	10	11	11	11	11	12	12	13	13	14	14	16	16	17	17	17	17	17	17	17	17	17	18	19	20	20	20	20	20	20	21	22	24	26	27	28	28	28	28	29	30	32	33	34	34	34	34	34	34	35	35	36	37	37	37	38	38	39	40	40	41	42	44	46	47	47	47	49	50	52	52	53	53	53	53	54	54	53	52	51	51	50	51	52	54	56	58	60	61	62	63	64	65	66	66	66	66	65	65	64	63	62	62	62	61	61	61	63	65	66	68	70	73	75	77	79	80	82	85	87	90	93	96	98	101	103	106	108	110	113	115	118	120	122	125	126	128	130	132	133	135	137	138	139	141	143	145	146	148	150	152	154	156	155	152	150	148	145	143	140	137	134	131	128	124	120	117	115	112	109	106	104	101	99	98	97	95	93	91	90	88	87	86	84	82	81	80	79	78	77	76	75	73	72	70	67	65	64	63	62	62	62	61	62	62	62	62	63	63	63	63	63	63	63	64	64	64	64	64	64	64	63	62	62	61	61	61	60	58	55	53	49	47	43	40	38	35	32	31	32	33	34	35	36	37	37	37	37	37	37	36	35	33	32	31	30	28	27	25	24	24	25	26	27	27	28	28	28	28	28	27	27	25	23	21	19	16	13	11	10	10	10	11	13	15	17	18	19	20	22	22	22	22	22	22	22	21	21	21	20	19	18	17	16	15	15	15	16	17	19	20	21	21	22	22	23	22	20	18	16	14	12	9	7	6	5	3	2	2	2	2	2	2	2	2	1	1	1	1	1	1	1	2
0	0	0	0	0	0	0	0	0	0	0	0	0	0	0	0	0	0	0	0	0	0	0	0	0	0	0	0	0	0	0	0	0	0	0	0	0	0	0	0	0	0	0	0	0	0	0	0	0	0	0	0	0	0	0	0	0	0	0	0	0	0	0	0	0	0	0	0	0	0	0	0	0	0	0	0	0	0	0	0	0	0	0	0	0	0	0	0	0	0	0	0	0	0	0	0	0	0	0	0	0	0	0	0	0	0	0	0	0	0	0	0	0	0	0	0	0	0	0	0	0	0	0	0	0	0	0	0	0	0	0	0	0	0	0	0	0	0	0	0	0	0	0	0	0	0	0	0	0	0	0	0	0	0	0	0	0	0	0	0	0	0	1	1	2	2	3	3	3	4	4	4	5	5	5	5	5	5	5	5	5	5	5	5	6	6	6	6	6	6	6	6	6	6	6	6	6	6	6	6	6	6	6	6	6	6	6	6	6	6	6	6	6	6	6	6	6	6	6	6	6	6	6	6	6	6	5	5	5	5	5	5	5	5	5	5	5	5	5	5	5	5	5	5	5	5	5	5	5	5	5	5	5	5	5	5	5	5	5	5	5	5	5	5	5	5	5	5	5	5	5	5	5	5	5	5	5	5	5	5	5	5	5	5	5	5	5	4	3	3	3	3	3	3	3	4	4	4	5	5	5	5	5	5	5	5	5	5	5	5	5	5	5	5	5	5	5	5	5	5	5	5	5	5	5	5	5	5	5	5	5	5	4	3	2	1	1	1	1	1	1	1	1	1	1	1	1	2	2	3	3	3	3	3	3	3	4	4	3	3	2	2	2	2	2	2	2	2	2	2	2	2	2	2	2	3	2	2	2	2	1	1	2	2	2	3	3	3	4	4	4	3	2	2	2	2	2	2	2	2	1	1	1	1	1	1	1	1	1	1	1	1	1	1	2	3	4	4	4	4	4	4	4	4	5	5	5	5	5	5	5	5	5	5	5	5	5	5	6	7	7	8	9	10	10	11	12	13	15	17	18	20	22	24	25	27	28	30	31	32	33	34	35	36	37	38	39	40	42	43	45	47	49	51	52	53	54	57	59	61	63	64	66	67	68	69	69	68	67	67	66	67	68	69	71	73	75	78	80	82	86	88	90	91	91	90	88	86	83	80	77	74	71	69	66	63	60	58	56	53	50	48	46	44	42	40	37	35	32	30	28	26	24	23	21	20	19	18	17	19	21	24	26	29	31	33	36	38	40	42	43	45	47	49	50	50	51	52	54	56	56	56	54	51	49	46	44	43	42	41	40	39	39	39	39	39	38	36	34	32	30	27	25	23	21	17	15	15	14	12	11	10	10	10	9	8	8	7	7	7	7	6	6	6	7	7	6	6	6	5	6	6	7	6	6	6	6	7	9	10	10	11	12	12	13	14	14	14	14	14	14	14	14	14	13	13	14	14	14	15	15	14	13	11	10	9	9	9	9	9	9	10	10	10	10	10	10	10	11	11	11	12	12	13	13	14	14	15	16	16	17	17	17	17	17	17	17	17	17	18	19	20	20	20	20	21	22	23	23	24	25	26	27	28	28	29	29	31	32	34	35	36	36	36	36	36	37	37	38	38	39	39	39	40	41	42	43	43	45	47	49	50	50	51	51	52	53	54	54	54	54	54	54	54	54	53	52	51	51	51	53	55	57	59	60	62	63	64	65	66	67	68	68	67	66	66	65	64	64	64	64	63	63	63	63	64	66	68	69	72	74	76	78	80	81	84	87	90	92	95	98	100	103	105	107	109	112	115	117	120	122	125	127	129	132	134	136	137	139	141	142	144	146	147	149	151	153	155	157	156	153	151	148	146	143	141	138	136	133	130	126	123	120	116	114	111	108	105	102	100	98	97	96	94	92	90	88	87	85	84	82	81	80	79	78	77	76	75	74	72	71	69	67	65	64	64	64	63	63	63	63	63	64	64	64	64	64	64	64	65	65	64	64	64	64	64	63	63	62	61	61	60	60	60	58	56	54	52	49	46	44	40	38	35	32	30	29	30	31	32	33	34	35	35	35	35	35	34	34	32	31	30	29	28	27	26	24	22	23	24	25	26	26	27	27	27	27	26	25	24	22	20	18	15	12	11	11	10	10	11	12	15	17	18	19	20	21	22	22	22	22	22	21	21	21	21	20	18	17	16	15	15	15	15	15	17	18	20	21	21	22	22	22	22	20	18	16	14	12	9	7	6	5	3	2	2	2	2	2	2	2	2	1	1	1	1	1	1	1	2
0	0	0	0	0	0	0	0	0	0	0	0	0	0	0	0	0	0	0	0	0	0	0	0	0	0	0	0	0	0	0	0	0	0	0	0	0	0	0	0	0	0	0	0	0	0	0	0	0	0	0	0	0	0	0	0	0	0	0	0	0	0	0	0	0	0	0	0	0	0	0	0	0	0	0	0	0	0	0	0	0	0	0	0	0	0	0	0	0	0	0	0	0	0	0	0	0	0	0	0	0	0	0	0	0	0	0	0	0	0	0	0	0	0	0	0	0	0	0	0	0	0	0	0	0	0	0	0	0	0	0	0	0	0	0	0	0	0	0	0	0	0	0	0	0	0	0	0	0	0	0	0	0	0	0	0	0	0	0	0	0	0	0	1	1	2	3	3	3	4	4	4	5	5	5	5	5	5	5	5	5	5	5	6	6	6	6	6	6	6	6	6	6	6	6	6	6	6	6	6	6	6	6	6	6	6	6	6	6	6	6	6	6	6	6	6	6	6	6	6	6	6	6	6	6	5	5	5	5	5	5	5	5	5	5	5	5	5	5	5	5	5	5	5	5	5	5	5	5	5	5	5	5	5	5	5	5	5	5	5	5	5	5	5	5	5	5	5	5	5	5	5	5	5	5	5	5	5	5	5	5	5	5	5	5	5	4	3	3	3	3	3	3	3	3	4	4	4	5	5	5	5	5	5	5	5	5	5	5	5	5	5	5	5	5	5	5	5	5	5	5	5	5	5	5	5	5	5	5	5	5	5	5	4	3	2	1	1	1	1	1	1	1	1	1	1	1	1	2	3	3	3	3	3	3	4	4	3	3	3	2	2	2	2	2	2	2	2	2	2	2	2	2	2	3	3	2	2	2	1	1	1	1	1	2	2	2	3	3	4	4	4	3	2	2	2	2	2	2	1	1	1	1	1	1	1	1	1	1	1	1	1	1	1	2	3	4	4	4	4	4	4	4	4	4	5	5	5	5	5	5	5	5	5	5	5	5	5	5	6	7	8	9	10	10	11	12	13	15	17	19	21	22	24	26	28	29	30	32	33	34	36	37	38	39	40	41	42	44	45	47	49	51	52	53	54	56	58	60	61	63	65	66	67	67	67	67	66	65	65	64	65	66	67	69	71	74	76	79	81	84	87	89	89	89	87	86	84	82	79	77	74	72	69	67	65	62	60	57	55	52	50	48	45	43	41	38	35	33	31	28	26	25	23	21	20	19	18	17	18	21	23	25	28	30	32	35	37	39	41	42	44	45	46	47	48	49	50	52	54	54	54	52	51	48	44	42	40	39	38	37	36	36	36	36	36	35	34	33	32	30	27	25	23	19	15	14	14	13	11	11	10	10	10	9	8	8	7	7	6	6	6	6	6	7	6	6	6	6	5	5	5	6	6	6	7	7	8	8	9	10	12	12	12	13	13	13	14	14	14	13	13	13	13	13	12	12	12	12	12	11	11	9	9	8	8	9	9	9	9	10	10	10	10	10	10	10	10	11	11	12	12	12	13	14	15	15	16	16	16	17	17	17	17	17	17	17	17	18	18	19	19	20	20	21	22	23	24	24	24	24	25	26	26	27	29	30	31	32	34	36	37	38	38	38	38	38	38	39	39	40	40	41	42	43	45	45	46	47	49	51	53	54	54	54	54	54	55	56	56	56	55	55	55	54	54	53	52	52	52	53	56	58	59	61	62	63	64	65	66	68	69	69	68	68	67	66	66	65	65	65	65	65	65	65	65	65	67	69	71	73	75	77	79	81	84	87	89	92	95	97	100	102	104	106	109	111	114	117	119	121	123	126	128	132	134	137	139	141	143	145	147	149	151	152	154	156	158	158	156	153	150	147	144	142	139	136	134	131	128	125	122	119	116	113	110	107	104	101	99	97	96	95	93	91	89	87	85	83	82	81	80	79	78	77	76	75	74	72	71	71	69	68	67	66	65	65	65	65	65	65	65	65	65	65	65	65	65	66	66	65	65	64	64	63	63	62	61	61	60	60	59	59	58	57	55	53	50	48	46	43	41	38	35	32	29	26	26	28	29	31	32	32	33	33	32	33	33	32	32	30	29	28	27	27	26	24	21	21	22	23	24	25	25	25	25	25	25	24	23	21	19	17	14	12	11	11	10	10	10	12	14	16	18	19	20	21	22	22	22	22	22	21	21	21	20	20	19	17	16	15	15	15	15	15	16	18	20	21	21	22	22	22	21	19	17	16	14	12	9	7	6	5	3	2	2	2	2	2	2	2	2	1	1	1	1	1	1	1	2
0	0	0	0	0	0	0	0	0	0	0	0	0	0	0	0	0	0	0	0	0	0	0	0	0	0	0	0	0	0	0	0	0	0	0	0	0	0	0	0	0	0	0	0	0	0	0	0	0	0	0	0	0	0	0	0	0	0	0	0	0	0	0	0	0	0	0	0	0	0	0	0	0	0	0	0	0	0	0	0	0	0	0	0	0	0	0	0	0	0	0	0	0	0	0	0	0	0	0	0	0	0	0	0	0	0	0	0	0	0	0	0	0	0	0	0	0	0	0	0	0	0	0	0	0	0	0	0	0	0	0	0	0	0	0	0	0	0	0	0	0	0	0	0	0	0	0	0	0	0	0	0	0	0	0	0	0	0	0	0	0	0	0	1	1	2	2	3	3	4	4	4	5	5	5	5	5	5	5	5	5	5	5	6	6	6	6	6	6	6	6	6	6	6	6	6	6	6	6	6	6	6	6	6	6	6	6	6	6	6	6	6	6	6	6	6	6	6	6	6	6	6	6	6	5	5	5	5	5	5	5	5	5	5	5	5	5	5	5	5	5	5	5	5	5	5	5	5	5	5	5	5	5	5	5	5	5	5	5	5	5	5	5	5	5	5	5	5	5	5	5	5	5	5	5	5	5	5	5	5	5	5	5	5	5	5	4	3	3	3	3	3	3	3	4	4	4	5	5	5	5	5	5	5	5	5	5	5	5	5	5	5	5	5	5	5	5	5	5	5	5	5	5	5	5	5	5	5	5	5	5	5	5	4	4	2	1	1	1	1	1	1	1	1	1	1	1	1	1	2	3	3	3	3	3	4	4	3	3	3	2	2	2	2	2	2	2	2	2	2	2	2	2	3	3	3	2	2	1	1	1	1	1	1	1	1	2	2	3	3	4	4	3	3	3	3	2	2	1	1	1	1	1	1	1	1	1	1	1	1	1	1	1	1	1	2	3	4	4	4	4	4	4	4	4	5	5	5	5	5	5	5	5	5	5	5	5	5	6	6	7	8	8	9	10	11	12	13	14	16	18	21	22	24	26	28	29	30	32	33	35	37	38	40	40	41	42	44	46	48	49	50	52	53	55	56	58	59	60	61	63	64	65	66	66	66	65	64	63	62	62	63	64	66	67	70	72	75	77	80	83	85	86	86	86	84	83	82	80	78	76	74	72	70	68	66	63	61	59	56	54	51	49	46	44	41	38	36	33	31	29	27	25	23	21	20	18	17	17	18	19	22	24	26	29	31	33	35	38	39	40	42	43	43	44	45	47	49	50	52	52	52	50	49	46	43	40	38	36	35	34	34	33	33	33	33	33	33	33	32	30	28	26	23	19	14	14	14	12	11	11	11	10	10	9	8	8	7	7	6	6	6	6	7	7	6	6	6	6	6	5	5	5	5	6	6	7	7	8	8	10	11	12	12	12	12	13	14	14	14	12	11	11	11	11	11	11	10	10	9	9	8	8	8	8	9	9	9	9	9	10	10	10	10	10	11	11	11	11	11	12	12	13	13	15	16	16	16	16	16	16	17	17	17	17	17	17	18	18	18	18	18	19	20	21	23	24	24	24	23	23	24	25	26	27	29	30	32	33	35	37	38	38	39	39	39	39	39	40	41	41	42	43	44	46	47	48	49	50	51	53	55	56	57	56	56	56	57	58	58	58	57	56	56	55	54	54	53	53	53	54	56	58	60	61	62	63	64	65	66	68	70	70	69	69	68	68	67	67	67	67	67	67	67	66	66	66	67	68	70	72	75	77	79	81	83	86	89	91	94	96	99	101	103	106	108	111	113	115	118	120	122	124	127	129	132	135	138	140	143	145	148	150	152	154	156	158	159	158	155	152	149	146	143	140	137	134	131	129	126	123	120	118	114	111	108	105	102	100	98	96	95	94	92	91	88	86	84	82	81	80	79	78	77	76	75	74	73	72	71	71	70	70	69	68	67	66	66	66	66	66	66	67	67	67	67	67	67	67	66	66	65	64	64	63	62	61	60	60	60	58	57	56	56	55	53	51	49	47	45	43	40	38	35	32	29	26	24	25	27	29	30	30	30	30	30	30	30	31	31	29	28	27	27	27	26	24	21	20	20	21	22	23	23	23	24	24	23	23	22	20	18	16	14	11	11	11	10	10	10	11	13	15	17	18	20	21	22	22	22	22	22	21	21	21	20	20	19	17	16	14	14	14	14	15	16	17	19	20	21	22	22	22	20	19	17	15	14	12	9	7	6	5	3	2	2	2	2	2	2	2	2	2	1	1	1	1	1	1	3
0	0	0	0	0	0	0	0	0	0	0	0	0	0	0	0	0	0	0	0	0	0	0	0	0	0	0	0	0	0	0	0	0	0	0	0	0	0	0	0	0	0	0	0	0	0	0	0	0	0	0	0	0	0	0	0	0	0	0	0	0	0	0	0	0	0	0	0	0	0	0	0	0	0	0	0	0	0	0	0	0	0	0	0	0	0	0	0	0	0	0	0	0	0	0	0	0	0	0	0	0	0	0	0	0	0	0	0	0	0	0	0	0	0	0	0	0	0	0	0	0	0	0	0	0	0	0	0	0	0	0	0	0	0	0	0	0	0	0	0	0	0	0	0	0	0	0	0	0	0	0	0	0	0	0	0	0	0	0	0	0	0	0	0	1	2	2	3	3	4	4	4	5	5	5	5	5	5	5	5	5	5	6	6	6	6	6	6	6	6	6	6	6	6	6	6	6	6	6	6	6	6	6	6	6	6	6	6	6	6	6	6	6	6	6	6	6	6	6	6	6	6	5	5	5	5	5	5	5	5	5	5	5	5	5	5	5	5	5	5	5	5	5	5	5	5	5	5	5	5	5	5	5	5	5	5	5	5	5	5	5	5	5	5	5	5	5	5	5	5	5	5	5	5	5	5	5	5	5	5	5	5	5	5	5	4	4	3	3	3	3	3	3	3	4	4	4	5	5	5	5	5	5	5	5	5	5	5	5	5	5	5	5	5	5	5	5	5	5	5	5	5	5	5	5	5	5	5	5	5	5	5	5	5	4	3	2	1	1	1	1	1	1	1	1	1	1	1	1	1	2	3	3	3	3	3	3	3	3	3	2	2	2	2	2	2	2	2	2	2	2	2	2	3	3	2	2	1	1	1	1	1	1	1	1	1	1	2	2	3	3	4	4	3	3	3	2	1	1	1	1	1	1	1	1	1	1	1	1	1	1	1	1	1	1	1	2	3	4	4	4	4	4	4	4	4	5	5	5	5	5	5	5	5	5	5	6	6	6	6	7	8	8	9	10	11	11	12	13	15	17	20	22	23	25	27	28	30	32	33	35	37	39	40	41	42	43	45	47	49	50	50	51	53	55	56	57	58	59	60	61	62	63	64	64	64	63	62	61	60	60	61	62	64	66	68	71	74	76	79	81	83	84	84	83	81	80	79	78	76	75	73	71	70	68	66	64	62	60	57	55	52	49	47	44	42	39	37	34	32	29	27	25	23	21	19	18	17	17	17	19	21	23	25	28	30	32	34	35	37	38	39	40	41	42	43	45	47	49	50	50	49	48	46	44	41	38	36	34	32	32	32	31	31	31	31	31	32	32	31	30	29	27	23	17	14	14	13	12	12	11	11	10	10	9	8	8	7	7	7	6	6	6	7	7	6	6	6	6	6	6	6	5	5	5	6	6	7	7	7	8	9	10	10	11	12	12	13	13	13	11	9	8	9	9	10	9	8	8	8	8	8	8	8	9	9	9	9	9	10	10	10	10	11	11	11	11	10	11	11	12	13	14	15	15	16	16	16	16	16	16	16	17	17	17	18	18	18	18	18	18	18	18	20	22	24	25	25	24	24	23	24	25	26	28	29	31	32	33	35	37	38	38	39	39	39	40	41	42	43	44	45	45	46	48	49	51	52	52	53	55	57	58	59	58	58	58	58	59	59	59	58	57	56	56	55	55	55	54	53	54	55	57	59	61	62	63	64	65	67	68	70	71	71	70	70	69	69	69	69	69	69	69	69	69	68	68	68	68	70	72	74	76	79	81	83	85	87	90	92	95	97	100	102	105	107	109	112	114	116	118	120	122	125	127	130	133	136	138	141	143	146	148	150	153	155	157	159	158	155	151	148	145	142	139	136	133	130	127	124	121	119	116	113	110	107	104	101	99	97	95	94	93	91	90	88	86	83	81	80	79	78	77	76	75	75	74	73	73	72	72	71	71	70	70	69	68	68	68	67	68	68	68	68	69	69	69	68	68	67	66	66	65	64	63	62	61	60	60	59	57	55	54	53	52	51	50	48	46	43	41	40	38	35	32	29	25	23	23	25	26	27	28	28	28	28	28	28	29	29	28	28	27	27	27	25	24	22	20	19	19	20	21	21	22	22	22	22	21	21	19	18	15	13	11	11	11	10	10	10	11	12	14	16	18	19	20	21	22	22	22	22	21	21	20	20	20	19	17	16	14	13	13	13	14	16	17	19	20	21	22	22	21	20	18	16	15	13	11	9	7	6	5	3	3	3	2	2	2	2	2	2	2	1	1	1	1	1	1	3
0	0	0	0	0	0	0	0	0	0	0	0	0	0	0	0	0	0	0	0	0	0	0	0	0	0	0	0	0	0	0	0	0	0	0	0	0	0	0	0	0	0	0	0	0	0	0	0	0	0	0	0	0	0	0	0	0	0	0	0	0	0	0	0	0	0	0	0	0	0	0	0	0	0	0	0	0	0	0	0	0	0	0	0	0	0	0	0	0	0	0	0	0	0	0	0	0	0	0	0	0	0	0	0	0	0	0	0	0	0	0	0	0	0	0	0	0	0	0	0	0	0	0	0	0	0	0	0	0	0	0	0	0	0	0	0	0	0	0	0	0	0	0	0	0	0	0	0	0	0	0	0	0	0	0	0	0	0	0	0	0	0	0	0	1	1	2	2	3	4	4	5	5	5	5	5	5	5	5	5	5	5	6	6	6	6	6	6	6	6	6	6	6	6	6	6	6	6	6	6	6	6	6	6	6	6	6	6	6	6	6	6	6	6	6	6	6	6	6	6	6	5	5	5	5	5	5	5	5	5	5	5	5	5	5	5	5	5	5	5	5	5	5	5	5	5	5	5	5	5	5	5	5	5	5	5	5	5	5	5	5	5	5	5	5	5	5	5	5	5	5	5	5	5	5	5	5	5	5	5	5	5	5	5	5	4	4	4	3	3	3	3	3	4	4	4	5	5	5	5	5	5	5	5	5	5	5	5	5	5	5	5	5	5	5	5	5	5	5	5	5	5	5	5	5	5	5	5	5	5	5	5	5	5	5	4	3	2	1	1	1	1	1	1	1	1	1	1	1	1	1	2	3	3	3	3	3	3	3	3	2	2	2	2	2	2	2	2	2	2	2	2	3	3	2	2	1	1	1	1	1	1	1	1	1	1	1	2	2	3	3	3	4	4	3	3	2	1	1	1	1	1	1	1	1	1	1	1	1	1	1	1	1	1	1	1	2	3	4	4	4	4	4	4	4	4	4	5	5	5	5	5	5	5	6	6	6	6	6	7	7	8	8	8	9	10	11	12	13	14	16	19	21	22	24	26	27	29	31	33	35	37	39	41	42	42	44	45	47	49	50	50	51	52	54	55	56	56	57	58	59	60	61	61	62	62	61	60	59	58	58	59	61	63	65	67	70	73	75	78	80	81	82	81	80	78	77	76	75	74	72	71	70	69	68	66	64	62	60	58	55	53	50	47	45	42	40	38	35	32	30	27	25	23	21	20	18	17	17	17	18	20	23	25	27	29	31	32	33	34	35	37	38	39	40	41	43	45	47	48	48	47	46	44	42	40	37	34	32	30	30	30	29	29	29	29	30	30	31	30	29	29	27	23	17	14	14	13	12	12	11	11	10	9	9	8	8	7	7	7	7	7	7	7	7	7	6	6	7	6	6	6	6	6	6	6	6	6	7	7	7	7	7	8	9	10	11	11	11	11	9	7	7	8	8	8	8	8	8	8	8	8	9	9	9	9	9	9	9	10	10	10	11	11	11	11	10	11	11	12	13	14	15	15	16	16	16	16	16	16	16	16	17	17	18	18	18	18	18	18	18	18	19	20	23	24	25	25	25	24	24	25	26	27	28	29	31	32	34	36	37	38	38	39	40	40	40	41	43	45	46	47	48	49	50	51	53	55	55	56	57	58	60	60	60	59	59	60	60	60	60	59	58	57	57	57	56	56	56	55	54	55	56	59	60	62	63	64	65	67	69	70	72	72	72	71	71	71	71	71	71	71	71	71	71	70	70	69	69	70	72	74	76	78	80	82	84	86	89	91	94	96	99	101	103	106	107	109	111	113	116	118	120	122	125	128	131	133	136	139	141	144	146	148	151	153	156	158	157	154	151	148	144	141	138	135	131	128	125	122	119	117	115	112	109	106	102	100	98	96	95	93	92	90	89	87	85	83	81	79	78	78	77	77	76	76	75	75	74	74	73	72	71	71	71	71	70	70	69	69	69	69	70	70	70	70	70	70	69	68	67	66	65	64	63	62	61	60	59	58	56	53	52	51	50	49	48	46	44	42	40	39	37	34	31	28	25	22	22	22	24	25	25	25	26	26	26	27	27	27	27	27	26	26	26	25	23	22	21	19	17	17	18	20	20	20	21	21	20	19	18	17	15	13	11	11	10	10	10	10	10	11	13	15	17	19	20	21	21	22	22	21	21	21	20	20	20	19	17	15	13	12	12	13	13	15	17	19	19	20	21	22	21	19	18	16	14	13	11	8	7	6	5	3	3	3	2	2	2	2	2	2	2	2	1	1	1	1	1	3
