257	259	260	260	259	258	256	254	251	247	243	239	235	232	230	232	236	240	243	247	251	255	258	259	261	261	261	260	259	258	256	256	256	257	257	257	256	255	254	252	251	250	249	249	248	247	247	247	247	247	247	247	247	247	247	247	247	247	247	246	245	244	244	243	243	242	240	239	239	240	242	243	244	245	245	245	246	246	245	244	243	242	241	240	238	237	235	233	232	231	230	230	231	234	238	241	243	246	248	250	252	252	251	250	248	245	242	240	238	237	236	234	232	231	232	233	236	239	242	246	249	252	253	255	256	254	251	249	246	243	241	241	241	241	242	244	246	247	246	243	240	239	240	242	243	244	245	244	241	238	235	232	231	231	230	230	231	234	236	238	240	241	244	247	250	252	254	255	255	256	256	256	256	256	257	257	258	258	258	257	256	254	252	252	254	257	259	260	261	262	264	264	263	262	260	258	256	253	250	247	245	242	240	237	235	234	234	235	236	235	234	232	229	227	224	222	219	216	213	210	208	206	203	201	199	198	199	200	200	200	200	199	198	198	197	196	196	196	195	194	193	191	189	187	185	186	188	190	190	190	189	189	189	188	188	187	185	183	182	180	178	176	174	172	170	168	168	169	170	171	171	171	170	169	169	168	166	164	163	163	162	161	160	159	158	160	162	165	166	167	167	167	168	169	170	171	170	168	165	162	159	156	153	152	153	154	155	155	154	152	149	147	147	150	155	161	166	170	172	173	173	173	173	174	174	175	175	175	175	174	174	174	173	172	170	168	166	163	160	157	155	152	150	149	148	147	146	145	144	144	144	144	145	145	146	147	149	150	151	152	152	152	151	151	150	151	151	152	154	155	156	157	157	156	155	154	153	151	149	147	145	144	142	139	137	135	134	132	131	130	127	125	122	119	117	115	114	113	112	111	110	109	108	107	107	106	106	106	105	105	105	104	104	104	104	104	103	103	103	102	101	100	99	97	95	93	92	91	91	91	91	91	91	90	90	90	89	89	89	89	89	89	88	86	83	80	78	76	76	76	76	76	76	76	76	76	76	77	77	77	78	80	82	85	87	89	91	93	94	96	97	98	99	100	101	100	99	98	97	96	95	95	94	93	92	92	91	89	88	86	83	81	79	79	79	80	82	84	86	87	89	91	93	96	99	102	104	107	108	109	110	111	113	115	118	120	123	126	129	131	132	133	133	134	134	133	132	131	130	129	128	126	125	124	123	122	121	120	120	119	120	121	122	123	124	126	127	128	130	132	134	136	137	137	136	134	132	131	129	128	127	126	125	125	124	123	122	121	120	119	117	116	114	112	111	109	107	105	101	97	96	96	95	95	94	94	93	93	94	95	96	97	97	96	95	93	92	92	92	92	92	92	92	92	92	92	92	92	92	92	92	92	92	92	92	92	93	93	93	93	93	93	93	93	93	93	93	93	93	93	93	93	93	93	93	94	94	94	94	94	94	95	97	99	101	103	105	107	109	110	112	113	114	113	112	111	110	110	108	106	104	101	99	97	97	97	97	98	98	99	99	99	100	100	101	101	101	101	101	101	102	102	103	105	107	109	112	114	116	117	119	120	121	123	124	125	125	123	121	119	117	115	112	108	105	102	100	100	100	102	104	106	108	109	110	111	112	112	112	112	113	114	115	116	118	120	122	124	126	129	131	132	133	133	133	133	132	131	129	129	127	126	125	124	123	122	121	119	118	116	114	112	111	111	111	111	111	112	115	117	118	120	122	123	125	126	126	124	122	120	118	116	114	113	111	109	107	106	107	107	108	109	110	111	111	112	112	112	113	113	113	113	113	113	114	114	115	115	117	119	122	126	129	131	134	136	137	137	136	134	133	132	130	129	129	130	130	130	130	131	131	132	133	135	135	135	133	132	130	129	127	127	128	129	131	132	132	131	128	126	124	123	125	127	129	130	130	131	132	132	132	131	130	130	130	130	131	132	135	139	142	144	147	149	151	152	152	151	151	150	148	145	143	141	139	139	141	144	146	149	151	153	155	157	158	160	161	160	159	156	152	151	150	149	147	145	142	139	136	133	131	130	130	131	133	136	138	139	138	137	137	136	134
254	256	257	257	257	256	254	252	249	246	241	238	234	230	229	232	235	238	242	246	250	254	257	259	261	262	262	261	259	258	257	256	256	256	257	257	256	254	253	252	250	249	249	248	247	246	246	246	246	246	246	246	246	246	246	246	246	246	245	245	244	244	243	243	242	241	240	239	239	241	243	244	245	245	245	246	246	246	245	244	243	242	241	240	238	236	235	233	231	230	230	230	232	235	238	242	244	247	249	251	252	252	251	250	247	244	241	239	238	236	234	233	232	231	231	232	235	237	240	244	248	251	253	255	256	254	252	250	247	243	240	240	240	239	240	242	244	245	244	241	239	237	238	239	240	242	243	244	242	240	236	233	230	230	229	230	231	233	235	237	239	242	244	247	250	251	253	254	254	254	254	254	255	255	256	256	257	258	258	258	257	255	254	254	255	257	259	260	261	262	263	263	262	261	260	258	256	253	250	247	245	242	240	237	235	234	235	236	236	235	234	232	230	228	225	222	219	216	213	211	208	206	204	201	199	197	196	196	197	197	197	195	194	194	194	193	193	193	193	193	192	191	189	187	184	184	186	187	188	187	187	186	186	186	185	185	185	183	182	180	178	176	174	171	168	166	166	168	169	169	169	168	166	165	164	163	163	162	162	161	160	159	157	156	156	158	160	162	163	164	164	164	164	166	168	168	168	166	163	160	157	154	151	150	150	151	152	153	152	151	148	145	145	148	152	157	163	168	171	171	171	171	171	172	173	173	174	174	173	173	173	172	172	171	169	167	164	162	159	156	154	151	149	148	146	144	143	142	142	142	142	142	143	143	143	145	146	148	149	149	150	149	149	148	148	148	149	150	151	153	154	156	156	155	154	152	151	149	147	145	143	141	139	138	136	133	132	130	129	127	125	122	120	117	115	114	112	111	110	109	108	107	106	106	105	105	104	104	103	103	103	103	103	102	102	102	102	101	101	100	99	98	97	95	93	92	91	91	91	91	91	91	90	90	90	90	89	89	90	90	90	89	86	84	81	78	76	76	76	76	76	76	76	76	76	76	77	77	77	77	79	81	84	86	88	90	92	94	95	97	98	100	101	102	103	103	102	101	100	98	98	97	97	96	96	95	94	92	91	89	87	85	82	81	79	79	81	82	84	86	88	91	93	95	98	101	103	106	108	110	112	114	115	118	120	123	125	128	131	132	133	135	136	136	135	134	133	132	131	130	128	127	126	125	125	124	123	122	122	121	121	121	122	123	125	126	127	128	130	132	133	135	137	136	135	133	131	129	128	126	125	125	124	124	123	123	122	121	120	119	117	116	114	112	110	109	107	105	100	97	96	96	95	95	95	94	93	93	93	93	94	94	94	94	93	92	92	92	92	92	92	92	92	92	92	92	92	92	92	92	92	92	92	92	92	92	92	93	93	93	93	93	93	93	93	93	93	93	93	93	93	93	93	93	93	93	94	94	94	94	94	95	97	99	101	103	105	107	109	110	111	112	113	114	113	112	111	110	109	107	104	102	99	97	97	97	98	98	99	99	100	100	101	101	102	102	102	101	101	102	102	102	102	104	106	109	111	113	115	117	118	119	121	122	124	125	124	122	121	119	118	116	113	109	105	102	100	100	101	102	104	105	107	108	109	111	112	113	113	114	114	115	116	117	119	121	123	125	127	129	131	133	133	134	134	134	133	132	132	131	130	128	127	126	124	123	122	120	118	116	114	112	111	111	111	111	111	112	115	117	119	120	122	124	125	127	127	125	123	121	119	118	116	114	112	111	109	108	107	107	107	108	109	110	110	111	111	111	112	112	112	112	112	112	112	113	113	114	117	120	123	127	130	132	135	137	138	138	137	136	135	133	132	131	131	132	132	132	132	133	133	134	136	137	138	137	135	133	132	131	130	129	129	130	132	134	134	132	129	127	126	125	126	129	130	131	132	133	134	134	134	133	133	132	132	133	133	134	135	137	140	143	145	148	150	151	152	152	151	150	148	146	144	142	140	139	141	143	145	147	149	151	154	157	159	161	161	160	158	154	151	149	148	147	146	143	141	139	136	133	133	132	132	132	135	137	139	141	140	139	138	136	134
251	253	254	255	254	254	252	251	248	244	240	236	233	229	228	231	234	237	240	244	248	253	257	259	261	263	262	261	260	259	257	256	256	256	256	256	255	254	252	251	250	249	248	247	247	246	245	245	245	245	245	245	245	245	245	245	245	245	245	244	244	243	243	242	241	240	239	240	241	242	244	245	245	245	246	246	246	246	245	244	243	242	241	240	238	236	234	232	231	230	230	231	233	236	239	242	245	247	250	251	253	252	252	250	247	243	240	238	237	235	233	232	232	232	231	232	233	236	239	242	246	250	252	254	255	254	252	250	247	243	239	237	236	236	238	240	242	243	243	241	238	235	235	236	238	240	241	242	242	241	237	233	230	229	229	229	230	232	235	237	239	242	245	248	250	251	252	253	252	252	252	253	253	254	255	256	257	257	258	258	258	257	255	255	256	258	259	260	261	262	263	263	261	260	259	257	255	252	250	247	245	242	240	237	235	235	236	237	237	236	235	233	231	229	227	224	221	218	215	212	210	207	205	203	200	198	196	195	195	194	193	192	191	190	190	189	189	190	190	191	191	191	189	187	184	183	183	184	185	185	184	184	183	183	183	183	183	182	181	179	177	175	173	171	168	165	164	165	166	166	166	165	162	160	160	160	160	160	160	159	158	156	155	154	154	156	158	159	160	160	160	160	161	162	164	165	165	163	160	158	155	152	150	148	148	149	150	151	150	149	146	143	143	146	149	154	160	165	168	169	169	169	169	170	171	172	172	172	172	172	172	171	171	170	168	166	163	160	158	155	153	151	149	147	145	143	141	140	139	139	140	140	140	140	141	142	144	145	146	147	147	147	147	147	146	147	147	148	149	151	152	154	154	153	152	150	148	146	145	143	141	139	137	135	134	132	130	128	127	125	123	120	118	115	113	112	111	109	108	107	106	105	105	104	103	103	102	102	102	101	101	101	100	100	100	100	100	100	99	98	98	96	95	93	92	91	91	91	91	91	90	90	90	90	90	90	90	90	90	90	89	87	84	81	79	77	76	76	76	76	76	76	76	76	76	76	77	77	77	78	80	82	85	87	89	92	94	95	96	98	100	101	103	104	105	105	104	103	102	101	100	100	100	99	99	98	96	95	94	92	90	88	86	84	82	81	80	81	83	86	88	90	93	95	98	101	103	106	109	111	113	115	117	119	122	124	127	129	131	133	134	136	137	137	136	135	134	133	132	130	129	128	127	126	126	125	125	124	124	124	122	121	122	124	125	126	127	129	130	132	133	135	136	135	133	132	130	128	126	125	124	123	122	122	122	122	121	120	119	118	117	115	114	112	110	109	107	104	99	96	96	96	96	95	95	94	93	92	92	92	93	93	93	92	92	92	92	92	92	92	92	92	92	92	92	92	92	92	92	92	92	92	92	92	92	92	92	93	93	93	93	93	93	93	93	93	93	93	93	93	93	93	93	93	93	93	94	94	94	94	94	95	96	98	100	102	104	106	108	109	110	111	113	114	113	112	111	110	109	107	105	103	100	98	97	98	98	99	100	100	100	101	102	102	103	103	102	102	102	102	102	102	102	103	106	108	110	112	114	116	117	118	120	122	123	124	123	122	120	119	117	116	113	110	106	102	101	100	101	102	103	104	105	106	107	109	110	111	112	113	114	115	116	117	119	121	124	125	127	129	131	132	133	134	134	135	135	134	134	133	132	130	129	127	126	124	123	121	119	117	115	113	112	112	111	111	111	112	115	117	118	120	122	124	125	127	128	126	124	123	121	119	117	115	113	111	110	109	109	108	107	107	107	108	109	109	110	110	111	111	111	111	111	111	111	112	112	114	117	120	124	127	130	133	135	136	136	137	137	137	137	136	135	134	134	134	134	134	134	135	135	136	138	139	139	138	137	135	134	133	133	132	132	133	135	136	136	133	131	129	128	127	128	130	132	133	134	135	136	136	136	135	135	135	135	135	136	136	137	138	140	142	145	148	150	151	152	152	151	150	149	147	145	143	141	141	142	144	145	147	148	150	153	156	159	161	161	161	158	154	151	148	147	145	144	142	140	137	135	135	135	135	133	133	136	138	140	142	142	140	138	136	134
250	250	251	252	252	251	250	248	246	242	238	235	232	228	227	230	233	236	239	243	247	252	256	259	261	263	263	261	260	259	258	256	256	256	256	255	253	252	251	250	249	248	247	247	246	245	245	244	244	245	244	244	244	244	244	244	244	244	244	244	243	243	242	242	241	240	240	241	242	243	245	245	245	246	246	246	246	246	245	244	243	242	241	239	237	236	234	232	231	230	230	231	233	236	239	242	245	248	250	252	252	252	251	249	246	242	240	238	236	234	233	232	231	232	232	232	233	235	238	241	245	249	252	254	255	254	252	250	246	242	238	235	233	233	236	238	241	242	242	239	236	234	233	233	235	237	239	240	241	241	238	234	231	229	228	228	230	232	234	237	240	242	245	248	250	251	251	251	251	251	251	251	251	252	253	255	256	257	258	258	258	257	257	256	257	258	259	260	261	262	262	261	260	259	258	256	254	252	249	247	244	242	239	237	236	236	238	239	238	237	235	234	232	230	228	225	223	221	218	215	212	209	207	205	202	200	197	195	194	192	191	190	188	187	187	186	186	186	187	189	189	189	188	187	184	182	182	182	183	183	182	181	181	180	180	180	180	181	180	179	177	175	173	170	168	164	162	162	163	163	163	162	159	157	157	157	157	157	158	157	155	154	153	151	151	153	155	156	156	157	157	158	158	159	160	161	162	160	158	155	153	151	148	146	146	147	148	148	148	146	144	141	141	144	148	152	156	162	165	166	166	166	167	168	170	170	171	171	171	170	170	170	169	168	166	164	162	159	157	155	152	151	149	147	144	142	139	138	137	137	137	138	138	138	138	140	141	142	143	144	145	145	145	145	145	145	145	146	147	149	151	152	153	152	150	148	146	144	142	140	138	136	135	133	132	130	128	126	124	122	120	118	116	114	112	111	109	108	107	105	104	104	103	102	101	101	100	100	99	99	99	99	98	98	98	98	98	98	98	97	96	95	93	92	91	91	91	91	91	90	90	90	90	90	90	90	90	90	90	89	88	85	82	79	77	76	76	76	76	76	76	76	76	76	76	77	77	77	77	78	81	83	86	88	91	93	95	96	97	99	101	102	104	106	106	107	106	105	104	103	102	102	103	102	101	100	99	98	96	95	93	91	89	87	85	83	81	81	83	85	87	90	93	95	98	101	103	106	109	111	114	116	118	120	123	125	128	130	132	134	135	137	138	138	137	135	134	133	132	131	129	128	127	127	126	126	126	126	126	125	124	123	123	124	125	126	128	129	130	132	133	135	135	134	132	130	129	127	125	123	122	121	121	121	120	120	120	119	119	118	116	115	113	111	110	108	106	103	98	96	96	96	96	95	94	94	93	92	92	92	92	92	92	92	92	92	92	93	93	93	93	92	92	92	92	92	92	92	92	92	92	92	92	92	92	92	92	93	93	93	93	93	93	93	93	93	93	93	93	93	93	93	93	93	93	93	93	94	94	94	94	94	96	97	99	101	103	105	106	108	110	111	112	113	113	113	112	111	109	108	105	103	100	98	97	98	99	99	100	100	101	102	103	103	104	104	103	102	102	102	102	102	102	103	105	107	109	111	113	115	116	118	120	122	123	123	122	121	120	118	117	116	113	110	106	103	101	101	101	101	102	103	104	105	106	107	108	109	110	111	113	115	116	118	120	122	124	125	126	128	129	131	133	134	135	135	136	136	136	135	134	132	130	129	127	125	123	121	119	117	115	113	112	112	112	112	112	112	114	117	118	120	122	124	126	128	128	128	126	125	123	121	118	116	114	113	112	112	111	110	109	108	107	107	108	108	109	110	110	110	110	110	110	110	110	110	112	114	117	120	123	127	130	132	133	134	134	134	135	136	137	137	137	136	136	136	136	136	136	136	137	138	139	140	140	140	139	138	137	136	136	135	135	136	137	138	138	135	133	131	130	130	131	132	134	135	136	137	138	138	138	138	138	137	137	138	138	138	139	140	141	143	146	149	151	152	152	152	152	151	150	148	146	144	142	142	143	145	146	147	149	150	153	156	158	160	161	161	158	155	152	149	147	146	144	141	139	137	136	137	139	138	136	135	136	139	141	142	142	141	139	136	134
249	248	248	249	249	248	247	245	243	240	236	233	230	227	227	230	233	235	238	241	246	251	255	258	261	262	262	261	260	259	258	257	256	255	254	253	251	250	250	249	248	247	246	246	245	245	244	244	244	244	244	244	244	244	244	244	243	243	243	243	243	242	242	241	241	240	241	242	243	244	245	246	246	246	246	247	247	246	245	244	243	242	241	239	237	235	233	231	230	230	230	231	234	236	239	242	245	248	250	251	252	251	250	248	245	241	239	237	236	234	232	231	231	232	232	231	232	235	238	241	245	249	252	254	255	254	252	249	245	241	238	234	231	231	234	236	239	240	240	238	235	232	231	231	233	235	237	238	239	239	238	235	232	230	228	228	229	231	234	237	240	242	245	247	249	250	250	250	250	249	249	249	249	250	252	254	255	256	257	258	258	258	258	258	258	259	260	261	262	262	262	260	259	257	256	255	253	251	249	246	244	241	239	237	236	237	239	240	239	238	236	234	233	231	229	226	224	222	220	217	214	212	209	207	204	202	199	197	194	192	192	190	189	187	187	186	184	182	183	184	185	186	187	186	184	182	180	180	180	180	180	179	178	178	178	178	178	178	178	178	176	174	172	170	167	164	160	159	160	160	160	159	156	155	154	155	155	155	155	155	154	152	151	149	149	151	152	153	154	155	156	156	156	155	156	158	159	159	156	154	151	149	147	145	144	144	145	145	145	144	141	139	140	143	146	150	154	159	162	163	163	163	164	166	167	168	168	168	168	168	167	167	166	165	164	163	161	158	156	154	153	151	149	147	144	141	138	136	135	135	135	135	135	136	136	137	138	140	141	142	143	143	143	143	143	143	143	144	145	147	149	151	151	151	149	147	145	143	140	138	136	134	132	131	130	128	126	124	122	120	118	116	114	112	111	109	107	106	105	104	103	102	101	100	99	99	98	97	97	97	96	96	96	96	96	96	96	96	96	95	94	93	92	91	91	91	91	91	91	90	90	90	90	90	90	90	90	90	90	88	85	82	79	77	76	76	76	76	76	76	76	76	76	76	77	77	77	77	77	79	82	84	87	89	92	94	95	97	98	100	101	103	105	106	107	108	108	108	106	105	105	105	105	105	104	102	101	99	98	97	95	93	91	89	87	85	82	80	82	85	87	90	93	95	98	101	103	106	109	112	114	117	119	121	124	126	129	131	133	134	136	138	139	138	137	136	135	134	133	131	130	128	128	127	127	127	127	127	127	127	125	124	123	124	125	127	128	129	130	132	133	134	135	133	131	129	128	126	124	122	121	120	119	119	119	118	118	118	117	117	115	114	112	111	109	108	105	101	97	96	96	96	96	95	94	94	93	92	92	92	92	92	92	92	92	92	92	93	93	93	93	93	93	92	92	92	92	92	92	92	92	92	92	92	92	92	92	92	92	93	93	93	93	93	93	93	93	93	93	93	93	93	93	93	93	93	93	94	94	94	94	94	95	96	98	100	101	103	105	107	109	110	111	112	113	113	112	111	110	108	106	103	101	98	97	98	99	100	100	101	102	103	104	105	105	105	104	103	102	102	102	102	102	103	104	107	109	111	113	114	116	118	119	122	123	122	121	120	119	118	116	115	113	110	106	103	101	101	101	101	102	102	102	103	104	105	106	107	108	109	111	113	116	118	120	121	122	123	124	125	126	129	131	133	134	135	136	136	137	136	135	134	132	130	128	126	124	122	120	118	115	113	112	112	112	112	112	112	114	117	119	121	122	124	126	128	129	129	128	127	125	122	120	117	115	114	114	114	113	113	111	110	108	107	107	107	108	109	109	109	109	109	109	109	109	110	112	114	117	120	123	126	128	130	131	132	132	132	133	134	134	135	136	136	136	136	136	136	136	136	137	138	139	139	140	140	140	140	139	139	139	138	138	139	139	140	139	138	135	134	134	134	134	135	136	138	139	139	140	141	140	140	140	140	140	140	140	140	141	142	143	144	147	150	151	152	153	153	152	151	150	149	148	146	144	143	144	146	148	149	150	151	153	156	158	160	162	161	159	156	153	151	150	148	146	143	140	138	139	140	142	141	138	136	137	139	141	143	144	142	139	137	134
247	246	245	246	246	245	244	242	240	237	234	231	228	225	226	229	232	235	238	241	245	250	254	258	260	261	262	261	260	259	258	256	255	253	252	251	250	249	248	248	247	246	245	245	244	244	243	243	243	243	243	243	243	243	243	243	243	243	243	243	242	242	242	241	241	241	242	243	244	245	246	246	246	246	247	247	247	246	245	244	243	242	240	239	237	234	232	231	230	230	230	231	234	236	239	242	245	248	250	251	251	251	249	247	243	240	238	237	235	233	232	231	232	232	231	231	233	235	239	242	246	250	252	254	255	253	251	249	245	241	237	234	231	231	232	234	236	238	239	237	234	231	230	230	231	233	234	235	236	236	236	235	233	231	229	227	228	231	233	237	240	242	244	246	248	249	249	249	248	246	246	246	247	249	251	253	255	256	257	257	258	258	259	259	260	260	261	262	262	262	261	259	258	256	254	253	252	250	248	246	243	240	238	236	237	238	240	241	240	238	237	234	232	230	228	226	224	222	220	218	216	213	211	208	206	204	202	199	197	195	194	193	191	190	189	187	186	183	181	180	180	182	183	184	184	182	180	178	178	178	177	176	176	175	175	175	175	175	176	176	175	174	172	169	166	163	159	157	157	157	157	156	154	153	152	152	153	153	153	153	152	151	150	148	147	148	151	152	153	154	154	154	153	152	153	154	157	157	155	152	150	147	145	143	142	142	142	143	143	141	139	137	139	142	145	148	152	157	159	160	160	160	161	163	164	165	165	165	165	164	164	163	163	162	162	162	161	158	156	155	153	151	149	147	144	141	138	135	133	132	133	133	133	133	134	134	136	137	139	140	141	141	141	141	141	141	141	142	143	145	147	149	149	149	149	146	144	142	139	137	134	132	130	129	128	126	124	122	120	118	116	114	112	111	109	107	106	104	103	102	101	100	98	97	97	96	96	95	95	94	94	94	94	94	94	94	94	95	95	94	93	92	91	91	91	91	91	91	91	90	90	90	90	90	90	90	90	90	89	86	83	80	78	76	76	76	76	76	76	76	76	76	76	76	77	77	77	77	78	80	82	85	88	90	93	95	96	97	99	100	102	103	105	107	108	109	110	110	109	108	108	108	108	107	106	104	103	101	100	99	97	95	94	91	89	87	84	81	81	84	87	90	93	96	98	101	104	106	109	112	115	117	120	122	124	127	129	131	133	135	137	139	140	139	138	137	136	134	132	131	130	129	128	128	127	127	127	127	128	127	126	125	124	124	125	127	128	129	130	131	132	134	134	132	130	128	126	125	123	121	119	118	118	117	117	117	117	116	116	115	114	113	111	110	109	107	103	99	97	96	96	96	96	96	95	94	93	92	92	92	92	92	92	92	92	92	92	93	93	93	93	93	93	93	93	93	92	92	92	92	92	92	92	92	92	92	92	92	92	93	93	93	93	93	93	93	93	93	93	93	93	93	93	93	93	93	93	94	94	94	94	94	94	95	96	98	100	102	104	106	108	109	110	112	113	113	112	111	110	108	106	104	101	99	97	98	99	100	101	102	103	104	105	106	106	106	105	104	103	102	102	102	102	103	104	106	108	110	112	114	116	118	119	121	122	121	120	119	118	117	116	114	112	109	106	103	102	101	101	102	102	102	102	102	103	103	104	105	106	108	110	112	115	117	118	120	120	121	122	123	124	127	129	131	133	134	135	136	137	137	136	135	133	131	129	127	125	123	121	118	116	113	112	112	112	112	112	112	114	117	119	121	123	125	127	129	130	130	129	128	126	123	121	119	117	116	116	116	115	115	114	112	111	109	108	107	107	108	108	108	108	108	108	109	109	110	112	114	116	119	121	123	126	127	128	129	130	130	130	131	132	133	133	134	134	134	134	134	134	134	135	136	137	138	138	139	139	140	140	140	139	139	139	140	140	140	140	139	138	138	138	137	137	138	139	140	141	142	143	143	143	143	142	142	142	142	142	142	143	144	145	146	148	150	151	152	152	152	152	152	151	150	149	147	145	145	146	148	149	151	152	153	155	156	159	161	163	162	160	157	155	154	152	151	148	144	141	139	141	143	144	143	140	138	138	140	142	144	144	142	140	137	135
246	244	243	243	242	242	241	239	237	234	231	227	224	222	225	228	231	234	237	240	244	249	253	257	259	261	261	260	259	258	257	255	253	252	250	249	249	248	247	247	246	245	244	244	243	243	242	242	242	242	243	243	243	243	243	243	242	242	242	242	242	242	241	241	241	242	243	244	245	246	246	246	246	247	247	247	247	246	244	243	242	241	240	238	236	234	232	230	229	229	230	231	233	236	239	242	245	247	249	250	250	250	248	245	242	239	238	236	234	232	231	232	232	232	232	232	234	237	240	243	247	250	252	254	254	253	250	248	244	241	237	233	231	231	231	232	234	236	237	236	234	232	230	229	229	231	232	233	233	233	234	233	233	231	229	227	228	231	233	236	239	242	243	245	246	247	247	246	245	243	242	243	245	247	250	252	253	255	256	257	258	259	260	260	260	261	261	262	262	261	260	259	257	255	253	252	251	249	247	244	242	239	237	237	238	240	242	242	240	239	237	234	232	230	228	226	224	222	220	218	216	214	212	210	208	206	204	202	201	199	198	196	194	192	191	189	188	185	183	180	178	178	180	181	182	181	179	177	176	175	175	174	173	173	172	172	173	173	173	174	173	173	171	168	165	161	158	155	154	154	153	153	152	150	149	149	150	151	151	151	150	149	148	145	144	146	149	151	152	152	152	152	151	149	150	152	155	156	154	151	149	147	144	142	140	139	140	140	140	139	137	136	138	141	144	147	151	154	156	157	157	158	159	160	161	162	162	162	161	161	161	160	160	160	160	160	160	158	156	155	153	151	149	147	144	140	137	134	131	130	130	131	131	131	131	132	133	135	137	138	138	139	139	139	139	139	139	140	141	142	144	146	147	148	148	146	143	141	138	136	133	131	129	127	125	123	121	120	118	116	114	112	110	109	107	106	104	103	101	100	99	98	96	95	94	94	94	93	92	92	92	91	91	91	91	92	92	93	93	92	92	91	91	91	91	91	91	91	91	91	90	90	90	90	90	91	90	89	86	83	80	78	77	76	76	76	76	76	76	76	76	76	76	77	77	77	77	77	79	81	83	86	88	91	94	95	96	98	99	100	102	104	106	108	109	111	112	112	112	111	111	111	110	109	108	106	105	103	102	100	98	97	95	93	91	88	85	82	81	83	87	90	93	95	98	101	104	106	109	112	115	118	120	122	125	127	129	131	133	135	137	139	140	140	139	138	136	134	132	130	129	129	128	128	128	128	128	128	128	128	128	126	125	125	126	127	128	129	130	131	132	133	133	131	129	127	125	123	121	120	118	117	116	116	115	115	115	115	114	114	113	112	111	109	108	105	101	97	96	96	96	96	96	96	95	94	92	92	92	92	92	92	92	92	92	92	93	93	93	93	93	93	93	93	93	93	93	93	93	92	92	92	92	92	92	92	92	93	94	95	95	95	94	94	93	93	93	93	93	93	93	93	93	93	93	93	93	94	94	94	94	94	94	94	95	97	99	101	102	104	106	108	109	111	112	113	113	111	110	109	107	104	101	99	97	98	99	100	101	103	104	105	106	107	108	108	107	105	104	103	102	102	102	103	104	106	108	111	113	115	116	118	119	120	120	119	118	117	116	115	114	113	111	108	106	103	102	102	102	102	102	102	102	102	102	103	103	103	104	106	108	111	113	115	117	117	118	118	119	121	123	125	128	129	131	133	135	136	137	137	137	136	134	132	130	128	126	123	121	119	116	114	112	112	112	112	112	112	114	117	119	121	123	125	127	129	130	130	130	129	127	125	122	120	119	118	117	117	117	116	115	114	112	111	110	108	107	107	107	108	108	108	108	108	109	110	112	114	116	118	119	121	122	124	125	125	126	126	127	128	129	130	131	131	131	131	131	131	132	132	133	134	134	135	136	136	137	137	138	138	138	138	138	139	139	140	140	140	139	139	140	140	140	140	141	142	143	144	144	145	145	145	145	145	144	144	144	144	145	145	146	147	148	149	150	151	151	152	153	152	152	151	150	149	148	147	148	149	150	152	154	155	156	158	160	162	163	163	161	159	158	156	154	152	149	145	142	142	143	145	146	145	142	140	139	140	142	144	144	142	140	137	135
245	243	241	240	240	239	238	236	234	231	228	224	221	220	223	227	230	233	236	239	243	248	252	257	259	260	260	259	258	257	255	253	252	250	249	248	248	247	247	246	245	245	244	243	242	242	241	241	241	242	242	242	242	242	242	242	242	242	242	241	241	241	241	241	241	242	243	245	245	246	246	246	247	247	247	247	247	245	244	243	242	241	240	238	236	234	232	230	229	229	229	231	233	236	238	241	244	246	248	249	249	248	246	243	241	239	237	235	233	232	231	232	232	232	231	232	235	238	241	244	247	250	252	253	254	252	250	247	244	240	237	233	231	231	231	231	232	234	236	236	234	232	230	228	228	229	230	230	231	231	231	231	231	230	228	226	228	231	233	236	239	241	243	244	245	245	245	243	242	241	241	241	243	246	248	250	252	254	255	256	257	259	260	261	261	261	262	263	262	261	260	258	256	254	252	250	249	248	246	243	240	238	237	238	239	242	243	242	240	238	236	234	231	230	228	226	224	222	220	219	217	215	213	211	209	207	206	204	203	202	201	199	196	194	193	191	190	187	185	182	179	176	176	178	180	180	179	177	175	174	172	171	171	170	170	170	170	171	171	171	172	171	169	167	163	160	157	154	152	151	151	150	149	147	146	146	147	148	148	148	147	146	145	143	142	143	146	149	150	150	150	150	148	147	147	149	152	154	153	151	149	146	144	141	138	137	137	138	138	137	135	134	136	140	143	146	149	152	153	154	154	155	156	157	158	159	159	158	158	158	158	157	157	158	158	159	159	158	156	154	153	151	149	146	143	140	137	134	132	130	129	129	130	129	129	130	131	133	135	136	136	136	137	137	137	137	137	138	139	140	141	142	144	146	147	145	142	140	138	136	133	131	129	127	124	122	119	118	116	115	113	110	108	107	105	104	102	101	99	98	97	95	94	93	92	92	91	91	90	90	89	89	89	89	89	89	90	91	92	92	92	91	91	92	92	92	92	92	91	91	91	90	90	91	91	90	88	86	83	80	78	77	76	76	76	76	76	76	76	76	76	76	77	77	77	77	77	77	79	81	84	86	89	92	94	95	96	97	99	100	102	104	106	108	110	112	113	114	114	114	114	113	112	111	110	109	107	105	103	102	100	98	97	95	92	89	86	83	81	83	86	89	92	95	98	101	103	106	109	112	115	118	120	122	125	127	129	131	133	135	137	140	140	140	138	137	135	133	131	130	129	128	128	127	127	127	127	127	128	128	129	128	127	126	126	127	128	129	129	130	132	133	132	130	128	126	124	122	120	118	117	116	115	114	113	113	113	113	112	112	112	111	110	108	107	104	99	97	96	96	96	96	96	96	95	93	92	92	92	92	92	92	92	93	93	93	93	93	93	93	93	93	93	93	93	93	93	93	93	93	93	92	92	92	92	92	94	96	97	98	98	97	96	95	94	93	93	93	93	93	93	93	93	93	93	93	93	94	94	94	94	94	94	94	94	96	97	99	101	103	105	107	108	110	111	112	112	111	110	109	107	104	102	99	97	98	99	100	102	103	105	106	107	108	109	109	108	106	105	104	103	102	102	103	105	107	109	111	113	115	117	118	119	119	118	118	117	116	115	114	112	111	109	107	105	103	102	102	102	102	102	102	103	103	103	103	103	103	103	104	107	109	111	113	114	115	116	116	117	119	122	124	126	128	130	132	134	136	137	138	137	136	135	133	130	128	126	124	122	119	116	114	112	112	112	112	112	113	115	117	119	121	123	125	127	129	130	130	130	130	128	126	124	122	121	119	118	118	118	117	116	115	114	112	111	109	108	108	107	107	107	108	108	108	109	110	112	113	115	116	117	118	119	120	120	120	121	121	122	124	125	127	128	128	128	129	129	129	129	130	131	132	132	132	133	133	134	135	135	136	135	136	136	137	137	138	138	138	137	137	139	139	140	141	141	142	143	144	144	145	145	145	145	145	145	145	145	145	145	146	146	147	147	148	149	149	150	151	152	153	152	152	151	150	149	149	149	150	151	154	155	157	158	160	161	163	165	165	163	161	160	158	155	153	149	145	143	144	146	148	148	146	144	141	140	141	142	144	144	143	140	137	135
243	241	239	238	237	236	235	233	231	229	225	222	219	220	223	226	229	232	235	238	242	246	251	256	258	259	259	258	257	255	254	252	251	249	248	248	247	246	246	245	244	244	243	242	241	241	240	240	241	241	241	242	242	242	242	242	242	242	242	241	241	241	241	241	242	243	244	245	246	246	247	247	247	247	247	247	246	245	244	243	242	241	239	237	235	233	231	230	229	229	229	231	233	235	238	241	243	245	246	247	247	246	244	242	240	238	236	234	232	231	231	232	232	232	231	232	235	239	242	245	248	250	252	253	253	252	250	247	244	241	237	234	231	231	231	231	231	233	234	235	233	231	229	227	227	227	228	228	229	229	229	229	228	228	226	226	228	231	233	235	237	239	241	242	243	243	242	241	240	239	239	240	242	244	246	248	250	253	255	256	257	259	261	261	262	262	263	263	262	261	259	258	256	253	251	249	248	246	244	241	239	237	238	239	241	243	243	242	240	237	235	233	231	229	228	226	224	222	221	220	218	216	214	212	210	209	207	205	204	204	203	200	198	196	194	193	191	189	186	183	180	177	175	175	177	178	178	178	177	175	173	171	169	168	168	168	168	168	169	169	169	169	167	165	162	158	155	153	151	149	148	147	145	144	143	142	143	144	144	144	144	143	142	140	139	141	143	146	147	148	148	147	146	144	144	147	150	152	152	151	148	146	143	140	137	135	135	136	136	134	133	132	134	138	141	144	148	150	151	151	151	152	153	154	155	156	156	155	155	155	155	155	155	156	157	157	157	157	156	154	152	151	149	146	143	141	138	135	133	130	128	128	128	127	127	128	130	131	133	133	134	134	135	135	135	135	135	136	136	137	138	139	141	143	145	145	143	140	138	136	134	132	131	128	126	123	120	118	116	114	112	110	108	106	105	103	101	99	98	96	95	93	92	90	89	89	89	88	88	87	87	87	87	87	87	88	88	89	91	91	92	92	92	92	92	92	92	92	92	91	91	91	91	90	90	88	86	83	80	78	77	77	77	77	76	76	76	76	76	76	76	76	77	77	77	77	77	78	80	82	84	87	90	93	94	95	96	97	98	100	102	104	106	108	110	112	114	115	115	116	116	115	115	114	112	111	110	107	105	103	102	100	98	96	94	91	88	84	81	82	85	88	91	94	97	100	103	106	109	112	115	118	120	122	124	127	129	131	133	135	137	139	140	139	137	135	134	132	130	129	128	127	127	127	127	126	126	126	127	128	129	128	128	127	127	127	128	128	129	130	131	132	131	129	127	125	123	121	119	117	116	114	113	112	112	111	111	111	111	110	110	109	108	107	105	102	98	96	96	96	96	96	96	96	94	93	92	92	92	92	92	93	93	93	93	93	93	93	93	93	93	93	93	93	93	93	93	93	93	93	93	93	93	93	93	93	95	98	100	101	100	99	98	97	95	94	93	93	93	93	93	93	93	93	94	93	93	93	94	94	94	94	94	94	94	94	96	97	99	101	103	105	107	109	110	111	111	111	110	109	107	105	102	99	97	98	99	101	102	104	105	107	108	110	110	110	109	108	107	106	104	103	103	104	106	108	110	112	114	116	117	118	118	118	117	116	115	114	113	112	110	109	107	105	104	102	102	102	102	102	102	103	103	103	103	103	103	103	103	103	105	107	109	111	112	113	114	115	116	117	120	123	125	127	129	131	134	136	137	137	137	136	135	133	131	129	127	124	122	119	117	114	113	112	112	112	113	113	115	117	119	121	123	125	127	129	130	130	130	130	129	128	126	124	122	121	120	119	118	118	117	116	114	113	111	110	109	109	109	108	108	108	108	108	108	109	111	112	114	114	115	115	116	116	116	116	117	117	118	119	121	122	124	124	125	126	126	126	127	128	128	129	129	129	129	130	132	133	133	133	133	133	134	135	135	135	135	135	135	135	136	137	138	139	139	140	141	142	142	143	143	143	143	143	143	143	143	143	144	144	145	145	146	147	147	148	149	150	151	152	153	153	152	151	151	151	152	152	153	155	157	159	160	161	163	164	166	166	164	162	161	158	155	152	149	146	145	147	149	150	149	148	145	143	141	141	143	144	144	143	140	138	135
241	239	237	236	235	234	232	230	229	226	223	220	218	220	223	226	229	232	235	238	241	245	250	255	258	258	258	257	256	254	252	251	250	249	248	247	246	245	245	244	243	243	242	241	240	240	240	240	240	241	241	241	241	241	242	242	242	242	242	242	242	242	241	242	242	243	244	245	246	247	247	247	247	248	248	247	246	245	244	243	242	240	239	237	235	233	231	229	228	228	229	230	233	235	238	240	242	244	245	245	245	244	242	241	238	236	235	233	232	231	232	232	232	231	232	233	236	239	242	245	248	250	251	252	253	252	250	248	245	241	238	234	232	231	231	231	231	231	232	233	231	230	228	226	225	225	226	226	227	227	226	226	226	225	225	225	227	230	232	234	236	238	239	240	240	240	240	239	238	237	238	239	242	244	247	248	250	253	255	256	258	260	261	262	262	263	264	263	262	261	260	258	255	252	250	248	246	244	242	240	238	238	239	240	241	242	242	240	239	237	235	233	231	229	227	226	224	222	221	220	218	216	214	213	211	210	208	206	205	204	203	201	200	198	196	194	192	190	187	183	180	178	175	173	174	175	176	178	178	177	175	172	170	169	167	166	166	166	167	167	166	166	165	163	160	157	154	152	149	147	145	144	142	141	139	139	139	140	139	140	140	140	139	137	137	138	141	143	144	145	145	144	143	142	142	144	147	149	151	150	148	145	142	139	135	133	133	133	133	132	131	130	132	136	139	142	146	148	148	148	149	150	151	152	152	152	153	152	152	152	152	153	154	154	155	156	156	155	154	153	152	150	148	146	144	141	138	136	133	131	128	127	126	126	126	127	129	130	131	131	132	132	133	133	133	133	133	133	133	133	135	137	138	140	142	144	143	141	139	137	135	133	132	130	127	124	122	120	117	115	113	111	109	108	106	104	102	101	99	97	95	93	91	89	88	87	87	87	86	85	85	85	85	86	86	86	87	88	90	91	92	92	92	92	92	92	92	92	92	91	91	91	90	89	87	85	82	80	78	77	77	77	77	77	77	76	76	76	76	76	76	77	77	77	77	77	77	78	80	82	85	87	90	93	94	95	96	97	98	100	101	104	106	108	110	112	114	115	116	117	117	117	116	115	115	114	112	110	107	105	103	101	99	97	95	92	89	85	82	82	85	88	91	93	96	99	102	105	108	111	114	117	120	122	124	126	128	130	133	134	137	139	139	137	135	134	132	131	129	128	128	127	126	126	126	125	125	125	126	127	128	128	128	127	127	128	128	129	129	130	131	132	131	128	126	124	122	120	118	116	115	113	112	111	110	110	109	109	109	109	108	108	107	106	104	100	97	96	96	96	96	96	96	95	94	92	92	92	92	93	93	93	93	93	93	93	93	93	93	93	93	93	93	93	93	93	93	93	93	93	93	93	93	93	93	94	96	99	101	102	102	101	100	99	97	95	94	93	93	94	94	94	95	95	95	95	94	94	94	94	94	94	94	94	94	94	95	96	98	100	102	104	106	108	109	110	110	110	109	109	107	105	102	100	98	98	99	101	102	104	106	108	109	111	111	112	111	110	109	108	106	105	105	106	107	109	111	113	115	116	118	118	118	117	116	115	114	112	111	109	108	107	105	104	103	102	102	103	103	103	103	103	103	103	103	103	103	103	103	103	103	105	107	109	110	111	112	114	115	117	119	122	124	125	128	131	134	136	137	137	137	136	135	133	131	129	127	125	122	120	117	114	113	113	113	113	113	114	116	118	119	121	123	125	127	129	130	130	130	130	130	129	128	126	124	123	121	120	119	118	117	116	114	113	111	110	109	110	110	110	110	110	109	109	108	108	109	111	112	113	113	114	114	114	114	114	114	114	115	116	117	118	119	121	122	123	123	123	124	125	125	126	126	126	126	127	129	130	131	131	131	131	132	132	133	133	133	133	133	133	134	135	136	137	137	138	138	139	139	140	140	140	140	140	140	140	140	140	141	142	143	144	145	145	146	147	148	149	150	151	152	153	153	153	152	153	153	154	155	156	158	160	162	163	164	166	168	167	165	163	161	158	155	152	149	147	147	149	151	151	150	149	147	145	143	143	143	144	145	144	141	138	136
238	237	236	234	233	231	229	227	226	224	221	218	217	219	223	226	229	232	235	238	241	245	249	254	256	257	257	256	254	253	251	250	249	248	247	246	245	245	244	243	243	242	241	240	240	240	239	240	240	241	241	241	242	242	242	242	242	242	242	242	242	242	241	242	242	243	245	246	246	247	247	247	247	248	248	248	246	245	244	243	242	240	238	236	235	233	231	229	228	228	229	230	233	235	237	240	241	243	244	244	243	242	241	239	237	235	233	232	231	231	231	231	231	231	232	234	237	240	243	245	248	250	251	252	252	252	250	247	245	242	239	235	232	231	231	231	230	230	231	231	230	228	226	224	223	224	224	225	225	225	225	225	226	226	226	226	226	228	230	232	234	235	237	238	238	237	237	236	235	236	238	241	244	247	249	250	252	254	255	257	258	260	261	261	263	264	264	263	262	261	260	258	255	251	249	247	245	243	242	241	240	240	241	241	242	242	240	239	238	236	235	233	231	229	228	225	224	222	221	219	218	216	214	213	211	209	207	206	204	204	202	201	199	197	195	194	192	190	187	184	181	178	176	173	172	173	174	176	178	178	176	174	172	170	168	166	164	164	164	164	164	163	162	160	158	156	153	151	148	145	142	141	139	138	137	136	136	135	135	135	136	136	136	135	135	136	138	140	141	142	142	141	140	139	140	142	145	147	148	148	147	144	141	138	134	131	131	131	131	130	129	129	131	134	137	141	144	146	146	146	146	147	149	150	150	150	151	150	149	149	151	152	153	153	154	154	154	154	153	152	150	149	147	146	144	142	139	137	134	132	129	127	125	124	125	126	127	128	129	129	130	130	131	131	131	131	131	130	130	131	132	134	136	138	140	141	142	142	140	138	136	134	132	130	128	126	124	121	119	117	115	114	112	110	109	107	105	103	102	101	98	96	93	91	89	88	87	86	85	85	84	84	84	84	85	85	86	87	88	90	91	92	92	92	93	93	92	92	92	91	91	90	88	86	84	82	80	78	77	77	77	77	77	77	77	77	76	76	76	76	77	77	77	77	77	77	77	79	81	82	84	87	89	92	94	95	95	96	97	99	101	103	105	107	109	112	113	114	115	117	118	118	118	117	116	115	114	111	109	107	104	102	100	98	95	93	89	86	83	82	84	87	90	92	95	97	101	104	107	110	113	117	119	121	123	125	127	130	132	134	136	138	138	136	134	133	131	130	128	127	127	126	125	125	124	124	124	124	125	126	126	127	127	127	128	128	128	129	129	130	131	131	130	127	125	123	121	119	117	115	114	112	111	110	109	108	107	107	107	107	106	106	106	104	102	100	97	96	96	96	96	96	96	95	93	92	92	93	93	93	93	93	93	93	93	93	93	93	93	93	93	93	93	93	93	93	93	93	93	93	93	93	93	93	93	94	97	99	101	103	104	104	102	101	99	98	96	95	95	96	96	97	97	97	97	97	96	95	95	94	94	94	94	95	95	94	94	95	96	98	100	102	105	107	108	109	110	110	109	109	107	105	103	100	98	98	99	101	103	105	107	108	110	112	112	113	113	112	111	110	108	107	107	108	109	111	112	114	116	117	118	118	117	116	115	114	112	110	109	107	106	105	103	103	102	103	104	104	105	105	105	105	104	104	103	103	103	103	103	103	103	103	105	106	108	109	111	112	114	116	118	120	122	124	127	130	132	135	137	137	137	136	135	133	131	129	127	125	122	120	117	115	114	113	113	113	113	115	116	118	120	122	124	126	128	129	130	130	131	130	130	130	129	128	126	124	122	121	119	117	116	115	114	112	111	109	110	111	112	113	113	113	113	111	110	109	109	109	110	111	111	112	113	113	113	113	114	114	114	114	115	115	116	117	119	120	120	121	121	121	121	121	122	122	123	124	125	127	128	128	128	129	129	130	130	130	130	130	130	130	131	132	134	135	135	135	136	136	136	136	137	137	137	137	137	137	137	138	139	140	141	142	143	143	144	145	146	147	149	150	151	153	154	154	154	154	155	156	157	158	160	162	163	165	166	168	168	167	164	162	160	157	154	151	149	148	149	151	152	152	151	150	148	146	144	144	145	145	146	145	142	139	137
237	236	234	232	231	229	227	225	224	222	220	217	216	219	223	226	228	232	235	237	241	244	249	253	255	256	256	255	253	252	250	249	248	247	246	245	244	244	243	242	242	241	240	240	240	239	239	239	240	241	241	241	242	242	242	243	243	243	243	243	242	242	241	242	243	244	245	246	247	247	247	247	247	248	248	248	247	246	244	243	242	240	238	236	234	232	231	229	228	227	228	230	232	234	237	239	240	241	242	242	241	241	239	237	235	233	232	231	231	231	231	231	231	231	233	236	238	241	243	245	248	249	251	252	252	251	249	247	244	242	239	235	232	231	230	229	228	228	228	229	228	226	224	223	223	224	225	225	226	227	227	228	228	229	229	228	228	227	228	230	232	233	234	235	235	234	233	234	235	237	240	243	246	249	251	252	253	255	256	257	258	259	259	260	262	263	263	263	262	260	259	257	254	251	249	248	247	246	245	244	243	242	243	243	242	241	239	238	236	235	234	232	231	229	227	225	223	221	220	218	217	215	214	212	210	207	205	204	202	202	201	199	197	195	194	193	191	189	187	184	182	179	176	173	171	171	172	174	176	177	176	174	173	171	169	166	163	162	161	161	160	160	158	157	155	153	151	149	145	143	141	141	140	139	137	134	132	131	131	131	133	133	133	133	133	134	136	137	139	139	139	138	137	137	137	139	142	143	144	145	145	144	140	137	134	130	129	129	129	129	128	128	130	133	136	140	142	144	144	144	144	145	147	149	150	150	149	148	147	148	150	151	151	152	153	153	152	152	151	150	149	147	146	145	144	142	140	138	135	132	130	127	125	123	123	124	125	126	126	127	128	128	129	129	129	129	129	128	129	129	130	131	134	136	137	139	141	142	140	139	137	135	133	131	129	128	126	123	121	119	117	116	114	113	111	109	107	106	105	103	101	98	95	93	91	90	88	87	86	85	85	84	84	84	84	84	85	86	87	89	91	92	93	93	93	93	92	92	92	91	90	88	86	83	81	79	78	77	77	77	77	77	77	77	77	77	77	76	76	76	77	77	77	77	77	77	77	79	81	82	84	86	89	91	93	94	95	96	97	99	101	103	105	107	109	111	113	114	115	116	118	119	119	118	117	116	114	112	110	108	105	103	101	98	96	93	90	87	83	82	84	87	89	91	93	96	99	103	106	109	112	115	118	119	121	124	126	129	131	134	136	138	137	136	134	132	130	128	127	126	125	125	124	123	122	122	122	123	124	125	126	126	126	127	127	128	128	129	129	130	130	130	128	126	124	122	120	118	116	114	113	111	110	109	108	107	106	105	105	105	105	104	104	103	101	99	97	96	95	95	96	96	96	94	92	92	92	93	93	93	93	93	93	93	93	93	93	93	93	93	93	93	93	93	93	93	93	93	93	93	93	93	93	93	94	95	97	99	100	102	104	105	104	103	101	100	99	98	98	98	99	99	100	100	100	99	98	98	96	95	95	95	95	95	95	95	94	94	95	97	99	101	103	106	108	109	109	109	109	109	108	106	103	100	98	98	100	101	103	105	107	109	111	112	114	114	114	114	113	112	110	110	109	110	111	112	114	115	116	117	118	117	117	116	114	112	110	109	107	105	104	103	102	102	103	105	106	107	108	108	108	108	107	106	105	104	104	103	103	103	103	103	103	104	106	108	109	111	113	115	117	119	121	123	126	129	131	133	135	136	136	136	134	132	130	128	126	124	122	119	117	115	114	113	113	113	114	115	117	118	120	122	124	126	128	129	130	130	131	131	130	130	130	129	128	126	124	121	119	118	116	115	114	112	110	109	110	112	113	114	115	116	116	115	113	111	110	109	109	109	110	110	111	112	112	113	113	113	114	114	114	114	115	115	116	117	118	118	118	118	118	118	118	118	119	120	121	122	123	124	124	125	126	127	127	127	127	127	127	128	129	130	132	133	133	133	133	133	133	133	134	134	134	134	134	134	134	135	137	138	139	140	141	142	142	143	144	145	147	148	150	152	153	154	155	156	157	158	159	160	161	163	165	166	168	168	168	166	163	161	159	157	154	151	150	150	151	152	154	153	152	151	149	147	145	145	146	147	147	146	143	140	138
235	234	232	230	229	227	226	224	222	221	218	215	215	219	222	225	228	231	234	237	241	244	248	252	254	255	255	254	253	251	250	248	247	247	245	244	244	243	242	242	241	240	240	239	239	238	238	239	240	241	241	242	242	243	243	243	243	243	243	243	242	242	241	242	243	244	245	246	247	247	247	247	248	248	248	248	247	246	245	243	241	239	238	236	234	232	231	229	228	227	228	230	232	234	236	237	239	240	240	240	239	239	237	235	233	232	231	231	231	231	231	231	231	231	234	237	239	242	243	245	247	249	250	251	251	250	248	246	243	241	238	236	233	230	228	227	225	225	226	226	225	224	223	224	226	227	228	228	229	230	231	231	232	232	232	232	231	230	229	229	230	231	231	232	232	232	232	234	236	238	241	244	248	250	252	253	255	256	257	257	258	257	258	259	260	262	262	262	261	260	259	257	254	251	251	250	249	248	247	246	245	244	243	242	241	239	238	236	235	233	232	231	230	229	226	224	222	220	219	217	216	214	213	211	208	206	203	202	200	199	198	197	195	194	192	191	190	188	186	184	182	179	176	173	170	169	170	172	173	174	174	173	172	171	169	166	162	161	160	159	158	156	155	154	152	150	149	147	145	144	144	144	143	142	139	136	132	130	129	129	129	130	131	131	131	132	133	135	136	136	136	135	135	134	135	136	138	140	141	142	143	143	140	136	133	130	128	127	127	127	127	128	130	132	135	138	141	142	142	141	141	142	144	146	148	148	147	146	145	146	148	150	150	151	151	151	151	150	150	148	147	146	145	143	142	141	139	138	136	133	130	127	125	123	122	122	123	124	124	125	126	126	127	127	127	127	127	126	127	127	128	130	132	134	136	137	140	141	140	139	138	135	133	132	131	129	128	125	123	121	119	118	117	115	113	111	109	108	106	105	102	99	97	95	93	92	90	88	87	87	86	85	85	84	84	83	84	85	86	88	90	92	93	93	93	93	92	92	91	90	88	85	82	80	78	77	77	77	77	77	77	77	77	77	77	77	77	76	76	77	77	77	77	77	77	77	77	79	81	82	84	85	88	89	91	93	94	95	97	99	101	103	105	106	108	110	112	113	115	116	118	119	119	118	117	116	114	112	110	108	106	103	101	98	96	93	90	87	83	81	83	86	88	90	92	95	98	101	105	108	111	114	116	118	120	122	125	128	131	133	136	137	137	135	133	131	129	127	125	125	124	123	122	121	121	120	121	121	123	124	125	126	126	126	127	127	128	128	128	129	130	129	127	125	123	121	118	117	115	114	112	111	109	108	106	105	104	103	103	103	103	102	101	101	100	99	97	95	94	94	95	96	95	93	92	92	93	93	93	93	93	93	93	93	93	93	93	93	93	93	93	93	93	93	93	93	93	93	93	93	93	93	93	93	94	95	96	98	100	102	104	106	106	105	103	102	101	100	100	101	102	102	102	102	102	101	101	100	98	97	96	95	95	95	95	95	95	94	95	96	98	100	102	105	107	108	109	109	109	109	108	106	103	100	98	98	99	101	103	105	107	109	111	113	114	115	115	115	115	114	113	112	112	112	113	114	115	116	117	117	118	117	116	115	113	111	109	107	105	104	103	102	103	104	105	107	108	110	110	111	111	111	110	109	108	107	105	104	104	103	103	103	103	103	105	107	108	110	112	114	116	118	120	122	125	127	130	132	134	135	135	135	134	132	130	127	125	123	121	119	117	115	114	114	113	113	114	116	117	119	121	122	124	126	128	129	130	130	130	131	131	130	130	130	129	127	125	123	121	118	117	115	113	112	110	109	111	113	114	116	117	118	118	117	115	113	112	111	110	109	109	110	110	110	111	111	112	112	113	113	114	114	114	115	115	115	116	116	116	116	115	115	116	116	116	117	117	118	118	119	120	120	121	122	123	123	124	124	124	125	126	128	129	130	131	131	130	130	130	130	131	131	131	131	131	131	132	133	134	136	137	138	139	140	141	141	142	143	144	146	148	150	152	154	156	157	159	160	161	162	163	164	166	167	168	168	167	165	162	160	159	157	154	152	151	152	153	154	155	155	153	152	150	148	147	147	148	149	149	147	145	142	139
234	232	230	228	227	225	224	223	221	219	216	213	215	219	222	225	228	231	234	237	240	243	247	250	253	254	254	253	252	250	249	248	247	246	245	244	243	242	242	241	240	240	239	239	238	238	238	239	240	241	241	242	242	243	243	243	244	244	243	243	242	242	241	242	243	244	245	246	247	247	247	247	248	248	248	248	247	246	245	243	241	239	237	235	234	232	231	229	227	227	228	229	231	233	234	236	237	238	238	238	237	236	235	233	232	231	231	231	231	231	231	231	231	231	234	237	240	242	243	245	247	248	249	250	249	247	245	244	242	240	238	235	233	230	226	224	223	223	224	223	223	223	224	226	228	229	230	231	232	233	234	235	235	235	235	235	234	233	232	231	231	230	230	230	230	231	232	235	238	240	242	246	249	251	253	254	256	257	257	256	256	255	256	257	259	261	261	262	261	260	259	257	255	254	253	252	251	250	249	248	246	244	242	241	239	238	236	235	233	232	231	230	229	227	226	223	221	220	218	216	215	213	212	209	207	204	202	200	198	197	196	195	194	192	191	190	188	186	184	182	181	178	176	173	170	169	169	170	171	172	172	172	171	170	167	164	162	162	162	161	159	158	157	156	153	151	150	149	149	148	148	148	147	145	141	137	133	130	129	127	127	127	128	129	130	130	131	132	133	133	133	132	132	132	133	133	135	136	137	138	139	141	139	136	133	130	128	126	125	125	126	127	129	132	135	137	139	139	139	139	139	140	141	143	145	146	145	144	143	143	145	148	149	149	149	149	149	148	147	146	145	144	143	142	141	139	138	136	135	132	130	127	125	122	121	120	121	122	122	123	124	124	125	125	125	125	125	125	125	125	127	128	130	132	134	137	139	140	139	138	137	136	134	133	132	131	129	127	125	123	122	120	119	117	115	113	111	110	108	106	103	101	99	97	95	94	92	90	89	88	87	87	86	85	85	84	84	85	86	87	89	92	93	93	93	93	92	92	90	88	85	82	80	78	77	77	77	77	77	77	77	77	77	77	77	77	77	77	77	77	77	77	77	77	77	77	78	79	80	82	83	85	86	88	90	91	93	94	96	98	100	102	104	106	108	109	111	113	115	116	117	119	119	118	117	116	114	112	110	108	105	103	101	98	96	93	90	87	84	82	83	85	87	89	92	94	97	101	104	107	110	112	114	116	118	121	124	127	130	133	135	137	136	134	133	131	128	125	124	123	123	122	121	120	119	119	119	120	121	123	124	125	126	126	126	126	127	127	128	128	129	128	126	124	122	119	117	116	114	113	111	110	108	107	105	103	101	101	101	100	100	100	99	99	98	97	96	94	93	94	96	96	94	93	92	93	93	93	93	93	93	93	93	93	93	93	93	93	93	93	93	93	93	93	93	93	93	93	93	93	93	93	93	93	94	94	96	97	99	101	103	105	106	106	106	104	104	103	103	104	104	105	105	104	104	104	103	102	100	99	98	97	96	95	95	95	95	95	95	95	97	99	102	104	106	108	109	109	109	109	108	106	103	100	98	98	99	101	103	105	107	109	111	113	115	115	115	115	115	115	114	114	114	114	115	115	116	117	117	117	117	116	115	113	111	109	107	105	103	103	102	103	104	106	108	109	111	112	113	113	114	113	113	112	111	109	108	106	105	104	104	104	103	103	104	105	107	109	111	113	115	117	119	122	124	126	128	130	132	134	134	134	133	131	129	127	124	122	120	118	116	115	114	114	113	113	114	116	117	119	121	122	124	126	128	129	130	130	130	130	131	131	131	130	130	128	126	124	122	119	117	115	113	111	110	110	112	114	115	117	118	120	119	118	117	115	113	112	112	111	111	111	111	110	111	111	111	112	112	112	113	113	114	114	114	115	115	115	115	115	115	115	115	116	116	116	116	116	116	117	117	118	118	119	119	120	120	121	121	122	123	125	126	127	128	128	127	127	127	127	127	127	127	128	128	128	129	131	133	134	135	136	137	138	139	139	140	140	142	144	146	149	151	153	156	158	159	161	162	163	164	165	166	166	166	166	165	164	161	159	158	156	154	152	153	154	155	156	157	156	155	153	151	150	149	150	150	151	150	149	146	143	140
232	230	228	226	225	223	222	221	219	216	213	212	214	218	221	224	227	230	233	236	239	242	245	248	250	252	253	252	251	249	248	247	246	245	244	243	242	242	241	241	240	239	238	238	237	237	238	239	240	241	241	242	243	243	243	244	244	244	243	243	242	242	241	242	243	244	245	246	247	247	247	247	248	248	248	248	247	247	245	243	240	239	237	235	234	232	230	229	227	226	227	229	230	232	233	235	236	237	236	236	235	234	233	232	231	231	231	231	231	231	231	231	231	232	234	237	240	242	243	245	246	248	248	248	246	244	243	241	240	239	237	235	233	230	226	222	221	221	221	221	221	224	227	229	231	232	233	234	235	235	237	238	239	239	238	238	237	236	235	234	233	232	231	231	231	233	235	237	240	242	244	247	250	252	253	255	256	257	256	255	254	253	254	256	258	260	261	261	261	260	259	258	257	256	255	253	252	251	250	248	245	243	240	239	237	236	234	233	232	230	229	228	227	226	224	223	220	219	217	215	214	212	210	208	206	203	201	198	196	194	193	192	191	190	189	187	186	184	183	181	179	177	175	173	171	168	168	169	170	170	171	170	170	168	165	162	162	164	165	165	164	163	163	162	159	157	155	154	153	152	151	151	150	147	143	139	135	132	129	128	125	125	125	126	127	128	129	130	130	130	130	130	130	130	130	131	132	133	134	135	136	138	138	136	133	130	128	126	124	124	125	126	129	131	134	136	137	137	137	137	137	137	138	140	142	144	143	142	141	141	143	145	146	146	146	146	146	146	145	144	143	143	142	140	139	137	136	134	132	131	128	126	123	121	120	119	119	119	120	121	121	122	123	123	123	123	123	123	123	124	125	127	129	131	133	136	137	138	137	136	136	135	134	133	132	131	130	129	127	126	124	122	120	119	117	115	113	111	109	107	105	103	101	99	97	96	94	93	92	90	89	88	87	87	86	86	86	86	86	88	90	92	93	93	93	93	92	91	88	85	81	79	78	77	77	78	78	77	77	77	77	77	77	77	77	77	77	77	77	77	77	77	77	77	77	77	78	79	80	81	82	84	85	87	89	90	92	94	96	97	99	101	103	105	107	109	111	113	115	116	117	119	119	118	116	115	113	111	109	106	104	102	100	98	96	93	90	87	84	82	82	84	87	89	91	94	96	100	103	106	109	111	113	115	117	119	123	126	129	132	135	136	136	134	132	130	127	124	122	122	121	120	119	118	117	117	117	118	119	121	123	124	125	126	126	126	126	126	127	128	128	127	125	123	120	118	117	115	113	112	110	109	107	105	104	102	100	99	98	97	98	98	98	97	96	95	94	93	94	95	96	96	94	93	93	93	93	93	93	93	93	93	93	93	93	93	93	93	94	94	94	93	93	93	93	93	93	93	93	93	93	93	93	93	93	94	95	97	99	100	102	104	106	107	107	107	106	106	106	106	107	107	107	107	106	106	105	104	102	101	100	99	98	96	95	95	95	95	95	95	96	99	101	103	106	108	109	109	109	109	108	107	103	100	98	98	99	101	103	105	107	109	111	113	115	115	115	115	115	116	116	115	115	115	116	116	116	117	117	116	116	115	114	112	109	107	105	103	103	103	103	103	105	108	110	111	113	114	115	116	116	116	116	115	113	112	110	108	106	105	104	104	104	104	104	105	106	108	110	112	114	116	119	121	123	125	127	129	131	133	133	133	132	130	128	126	124	122	120	118	116	115	114	114	114	113	114	115	117	119	120	122	124	126	128	129	130	130	130	130	130	131	131	131	130	129	127	125	122	119	116	114	112	110	109	110	113	115	116	118	120	121	122	120	119	117	115	114	114	114	114	113	113	112	111	111	111	112	112	112	113	113	113	114	114	115	115	115	115	115	115	115	115	115	116	116	116	116	116	116	117	117	117	117	118	118	118	119	119	120	120	121	122	123	123	124	123	123	123	124	124	124	124	125	125	126	128	130	131	132	134	135	135	136	136	137	138	138	140	142	145	148	151	153	155	158	159	161	162	162	163	163	164	164	164	164	164	163	161	159	157	154	153	154	155	156	157	159	159	158	157	155	154	152	152	152	152	152	151	150	147	144	141
231	229	226	224	223	221	220	218	216	213	211	210	213	217	220	223	226	229	232	235	238	240	243	246	248	250	251	251	249	248	247	246	245	244	243	243	242	241	241	240	239	238	238	237	237	237	238	239	240	241	242	242	243	243	244	244	244	244	243	243	242	242	241	242	243	244	245	246	247	247	247	248	248	248	248	248	247	246	244	242	240	238	237	235	233	232	230	228	227	226	227	228	229	231	232	233	234	235	234	234	233	232	231	231	231	231	231	231	231	231	231	231	231	232	235	238	240	242	244	245	246	246	245	244	243	241	240	239	238	237	235	234	232	229	225	221	220	220	220	220	222	226	229	232	233	235	236	237	238	238	240	241	242	242	242	241	240	239	238	237	236	235	234	234	234	236	238	240	242	244	246	249	251	253	255	256	257	256	254	253	251	250	251	254	257	259	260	260	260	260	260	259	258	257	256	254	253	251	250	247	244	241	239	237	236	234	233	231	230	228	227	226	225	224	223	222	220	218	216	214	212	211	209	206	204	202	199	197	194	192	191	190	190	188	187	185	184	182	181	179	177	176	174	173	170	168	167	167	168	169	169	168	167	165	163	162	164	166	168	168	168	168	168	167	164	162	160	158	157	155	154	153	151	148	145	141	137	133	131	129	126	124	122	122	123	125	126	127	127	127	127	127	127	128	128	128	129	130	131	132	133	135	136	136	133	131	128	126	124	123	124	126	128	131	133	135	135	135	134	134	134	134	136	138	140	142	142	141	140	139	140	142	143	143	143	143	144	143	142	142	141	141	140	139	137	135	133	131	130	129	127	124	122	121	119	118	117	117	118	119	119	120	121	121	121	121	121	121	121	122	123	125	128	130	132	134	135	135	135	134	134	133	132	132	131	130	129	129	128	127	126	124	122	120	118	117	115	113	111	109	107	105	103	101	99	98	97	96	94	93	92	90	89	88	87	87	87	87	88	89	91	93	94	94	93	93	92	89	85	81	79	78	77	78	78	78	77	77	77	77	77	77	77	77	77	77	77	77	77	77	77	77	77	77	77	77	78	79	80	81	82	83	84	86	88	90	91	93	95	97	99	101	103	105	107	109	111	113	115	116	117	119	119	118	116	115	113	110	107	105	103	101	99	97	95	93	90	87	84	82	82	84	87	89	91	94	96	99	102	104	107	109	112	114	116	118	122	125	129	132	134	136	135	133	132	129	125	122	121	120	119	119	118	117	115	115	115	116	117	119	121	122	123	125	125	125	125	126	126	127	127	126	124	122	120	118	116	114	113	111	110	108	106	104	103	101	99	97	96	96	96	96	96	95	94	94	93	93	94	96	96	95	93	93	93	93	93	93	93	93	93	93	93	93	93	93	93	94	94	94	94	94	93	93	93	94	94	94	93	93	93	93	93	93	93	94	94	96	98	100	102	104	106	107	108	108	108	108	108	108	108	108	108	108	108	108	107	106	104	103	102	100	99	98	97	95	95	95	95	95	96	98	101	103	106	108	109	109	109	109	108	107	104	100	97	97	99	100	102	105	107	109	111	113	115	115	115	115	116	116	117	117	117	117	117	116	116	116	116	115	115	114	112	109	107	105	103	103	103	103	103	104	107	109	112	114	115	116	117	118	118	118	118	117	116	114	112	111	108	106	105	105	105	104	104	104	105	107	109	112	114	116	118	120	121	123	125	127	130	131	132	132	131	130	127	125	123	121	119	117	116	115	115	114	114	113	114	115	117	118	120	122	124	126	128	129	130	130	130	130	130	130	131	131	130	130	128	125	122	119	116	114	112	110	110	111	113	115	117	119	121	123	124	123	121	120	118	117	116	116	116	116	115	114	112	112	112	113	113	114	114	114	114	114	114	115	115	115	115	115	115	115	115	115	115	115	115	115	116	116	116	116	117	117	117	117	118	118	118	119	119	119	120	120	120	121	121	121	121	121	122	122	122	122	123	124	126	128	130	131	132	133	134	134	134	135	135	137	139	142	145	148	150	153	155	157	159	160	161	161	161	161	162	162	163	163	162	162	160	158	155	154	155	156	157	158	160	161	161	160	159	158	156	155	154	154	154	153	151	149	147	144	142
230	228	225	223	221	219	217	215	213	210	209	209	212	216	219	222	225	227	230	233	236	239	241	244	246	248	249	249	248	247	246	245	245	244	243	242	241	240	239	239	238	238	237	236	237	238	239	240	241	242	242	243	243	244	244	245	244	244	243	243	242	242	241	242	243	244	245	246	246	247	247	247	248	248	248	247	247	246	244	242	240	238	236	235	233	231	230	228	227	226	226	227	229	230	231	232	233	233	233	232	231	231	231	231	231	231	231	231	231	231	231	231	231	233	236	239	241	243	244	244	244	243	242	241	240	239	238	237	237	235	234	232	230	227	224	221	220	220	220	221	225	228	231	234	236	238	239	240	240	241	242	243	243	244	244	244	243	242	241	240	238	237	237	236	237	238	240	242	244	246	248	251	253	255	257	258	257	255	253	251	249	249	250	253	255	258	259	259	260	260	259	259	258	258	256	254	252	250	248	245	242	240	237	235	234	232	230	229	227	226	224	223	223	222	222	221	219	217	215	213	211	209	207	205	203	200	198	195	193	190	189	189	188	187	185	183	182	180	179	177	175	174	173	172	170	167	166	166	166	167	166	166	164	163	162	164	167	169	170	171	171	171	171	170	169	166	164	162	161	158	156	154	152	149	146	142	138	135	133	131	128	125	122	119	119	121	123	124	124	124	124	125	125	125	125	126	127	128	128	129	131	132	134	135	133	131	129	126	124	123	123	125	128	130	132	133	133	133	132	132	132	132	133	135	138	140	140	139	138	138	138	139	139	140	140	140	141	140	140	139	139	139	139	138	136	134	132	130	128	127	125	123	121	120	119	117	116	115	116	116	117	119	119	120	119	119	119	119	119	120	122	124	126	129	131	133	133	133	132	132	131	131	131	130	129	128	128	127	126	126	126	125	124	122	120	118	116	115	113	111	110	108	106	104	102	101	99	98	97	96	95	93	92	90	89	88	88	88	89	91	92	94	94	94	93	92	91	87	82	78	78	78	78	78	78	78	78	77	77	77	77	77	77	77	77	77	77	77	77	77	77	77	77	77	77	77	77	78	79	81	82	83	84	85	87	89	91	93	95	97	99	101	103	105	107	109	111	113	115	116	118	119	119	117	116	114	112	109	106	104	102	100	98	97	95	92	90	87	84	82	83	85	87	90	92	94	97	100	102	104	106	109	111	113	115	118	121	125	128	131	134	135	134	133	131	128	124	121	119	118	118	117	116	115	113	112	112	113	114	117	119	121	122	123	124	124	125	125	126	126	126	125	123	121	119	117	115	114	112	111	109	107	105	103	102	101	99	98	96	96	95	95	94	94	94	93	93	94	95	96	96	94	93	93	93	93	93	93	93	93	93	93	93	93	93	94	94	94	94	94	94	94	94	93	94	94	94	94	94	94	94	93	93	93	93	94	94	95	97	99	101	103	105	107	108	109	109	110	110	110	110	110	110	109	109	109	108	107	106	105	103	102	101	99	98	96	95	95	95	95	95	97	100	103	105	108	109	109	109	109	108	107	104	100	97	97	98	100	102	104	106	109	111	113	115	116	116	116	117	117	118	118	118	118	118	117	116	115	114	113	112	111	109	107	105	103	103	103	103	103	104	106	109	111	113	115	116	118	119	120	120	120	119	118	117	116	115	113	111	109	107	105	105	105	105	104	105	106	109	111	113	115	117	118	120	122	124	126	128	130	131	131	131	129	127	125	123	121	119	117	116	115	115	114	114	114	114	114	116	118	120	122	124	126	128	129	130	130	130	130	130	130	130	130	130	130	128	126	122	119	117	114	112	110	110	112	114	116	118	120	122	124	126	126	124	123	122	120	119	119	119	118	117	115	114	113	113	114	115	116	117	116	116	115	115	114	115	115	115	115	115	115	115	115	115	115	115	115	116	116	116	116	116	116	117	117	117	117	118	118	119	119	120	120	120	120	120	120	120	121	121	121	121	121	121	122	124	126	128	129	131	132	132	132	132	132	134	136	139	142	144	147	150	152	154	156	158	159	159	158	159	159	160	161	161	161	161	160	158	156	155	156	157	159	160	161	162	163	163	162	161	160	159	157	156	156	155	152	150	148	146	143	141
229	227	224	222	219	217	215	213	210	208	207	208	212	215	218	220	223	225	228	231	234	236	239	241	243	245	247	247	246	245	245	244	244	243	242	241	240	239	238	237	237	236	236	236	237	238	239	240	241	242	243	244	244	245	245	245	244	244	243	243	242	242	241	241	242	244	245	246	246	247	247	248	248	248	247	247	246	245	243	241	240	238	236	234	233	231	229	228	227	226	226	227	228	229	230	231	232	232	231	231	231	231	231	231	231	231	231	231	231	231	231	231	232	235	238	240	242	243	243	242	241	241	240	239	239	238	237	236	235	234	233	231	229	226	223	220	220	220	221	224	227	231	233	235	237	240	241	242	242	243	244	245	245	246	247	247	246	244	243	242	240	239	239	239	239	240	242	244	246	248	250	252	255	257	259	259	257	254	251	249	248	247	248	251	254	257	258	259	259	259	259	259	258	257	255	252	250	249	246	243	240	237	235	233	232	230	228	226	224	223	222	221	220	220	220	219	218	216	214	212	210	208	206	204	201	199	196	194	191	189	189	188	187	185	184	182	180	178	177	175	173	172	171	170	168	166	165	164	164	164	164	163	162	162	164	166	169	171	172	173	174	174	173	173	171	169	168	166	164	162	159	156	153	150	147	143	140	138	135	133	130	128	124	121	118	118	120	121	122	122	122	122	122	123	123	124	125	126	126	127	129	130	132	133	132	130	129	127	125	123	122	124	127	129	131	132	131	131	130	130	129	130	131	133	135	138	139	138	137	136	135	136	136	137	137	138	138	138	137	137	137	137	138	137	136	134	132	130	128	127	125	123	121	120	118	117	115	114	114	114	116	117	118	118	118	117	117	117	117	118	120	122	125	127	129	131	131	131	130	130	129	129	128	128	127	126	125	124	124	124	125	125	125	123	121	119	118	117	115	114	113	111	109	107	105	104	102	101	100	98	97	96	95	93	92	90	90	90	91	92	94	94	94	94	93	92	90	85	81	78	78	78	78	77	77	78	78	77	77	77	77	77	77	77	77	77	77	77	77	77	77	77	77	77	77	77	77	78	79	80	81	82	83	85	86	88	90	92	94	97	99	101	104	106	108	110	112	114	115	116	118	119	119	117	116	114	112	109	106	103	101	99	98	96	94	92	90	87	84	82	84	86	89	91	93	96	99	102	104	105	107	109	112	114	116	118	121	125	128	131	134	135	134	132	130	127	123	120	118	116	115	115	114	113	111	110	109	110	112	114	117	119	120	121	122	123	124	124	125	125	125	124	122	120	118	116	115	113	112	110	108	106	104	102	101	101	100	98	96	95	94	94	94	94	94	93	94	95	96	97	95	93	93	93	93	93	93	93	93	93	93	93	93	94	94	94	94	94	94	94	94	94	94	94	94	94	94	94	94	94	94	94	94	93	93	94	94	94	96	98	100	102	104	106	108	109	110	111	111	111	111	111	111	110	110	110	109	108	107	106	105	103	102	101	99	97	96	95	95	95	95	97	100	102	105	107	109	109	109	109	109	107	104	100	97	97	98	99	102	104	106	108	111	113	115	116	117	118	118	118	119	119	119	119	118	117	116	114	113	111	110	108	107	105	103	103	103	103	103	103	105	108	111	113	115	116	117	119	120	121	122	122	121	120	119	118	116	115	113	111	108	106	105	105	105	105	105	106	108	110	112	114	115	117	119	121	123	125	126	127	129	130	131	130	127	124	123	121	119	118	116	115	115	115	114	114	114	114	115	117	119	122	124	126	128	129	130	130	130	130	129	129	129	130	130	129	128	126	123	120	117	115	113	110	111	113	115	117	119	122	124	126	127	128	127	126	125	123	122	122	121	120	118	116	114	113	114	115	116	118	119	119	118	117	115	115	115	115	115	116	116	116	116	117	117	117	118	118	118	118	119	119	118	118	118	118	118	118	118	119	120	120	120	120	120	120	120	120	120	120	120	120	121	121	121	121	122	123	125	127	129	130	130	130	130	131	132	135	138	141	144	147	150	152	154	155	156	157	156	156	156	157	158	158	158	158	158	157	156	155	157	159	160	161	162	163	165	166	165	164	163	162	161	160	158	157	154	151	149	146	144	142	140
229	226	223	221	218	215	213	211	208	206	205	208	211	214	216	218	220	223	226	229	232	234	237	239	241	243	244	245	244	244	243	243	242	242	241	240	239	238	237	236	235	235	235	237	238	239	240	241	242	243	243	244	245	245	246	245	244	243	243	242	242	241	241	241	242	243	244	246	246	247	247	248	248	248	247	246	245	244	243	241	239	237	236	234	232	230	229	227	226	225	225	226	227	228	229	230	230	230	230	230	230	231	231	231	231	231	231	231	231	231	231	232	234	237	240	241	242	242	242	240	239	239	238	238	237	236	235	234	233	232	231	229	227	224	221	220	219	220	223	226	229	232	234	236	239	241	242	243	244	245	246	246	247	248	249	249	248	246	244	243	241	241	241	241	240	241	242	245	247	249	252	254	257	259	259	259	256	253	250	248	247	246	247	250	253	255	258	259	259	259	258	258	258	256	254	251	249	247	244	241	238	235	233	231	229	227	225	223	222	220	219	218	218	218	218	218	217	215	213	211	209	207	205	203	201	198	195	192	190	189	188	187	186	184	182	181	179	177	175	173	172	170	170	168	167	167	166	165	164	163	163	162	161	163	165	168	170	172	174	175	176	176	176	175	173	172	171	169	167	164	161	157	153	151	148	145	143	140	138	135	133	130	127	124	120	117	118	118	119	119	119	119	120	120	121	122	123	124	125	126	127	129	130	131	131	130	128	126	124	122	121	122	125	127	129	130	129	129	128	128	128	128	129	131	134	136	137	137	135	134	133	133	134	134	135	135	135	135	135	134	135	135	136	136	136	134	132	131	130	128	126	124	122	120	118	117	115	114	113	113	114	115	116	117	117	116	116	116	116	116	118	120	123	125	127	129	129	128	128	127	127	126	126	125	125	124	123	122	121	122	122	123	124	124	122	120	119	118	117	116	115	114	112	110	108	107	105	104	103	101	100	99	97	96	95	94	93	92	93	93	94	95	94	94	93	92	90	87	83	82	81	81	80	79	78	77	77	77	77	77	77	77	77	77	77	77	77	77	77	77	77	77	77	77	77	77	77	78	79	80	81	82	83	84	86	88	90	92	94	96	99	101	104	106	108	111	113	114	115	117	118	119	119	117	115	114	111	109	106	103	101	99	98	96	94	92	89	87	84	83	85	88	90	92	95	98	102	104	106	107	109	111	114	115	117	119	123	126	129	131	134	135	133	132	129	126	123	120	117	114	113	113	112	111	110	109	108	108	109	111	115	117	119	120	121	122	122	123	124	124	124	123	121	119	118	116	114	113	111	109	107	105	101	99	99	100	99	98	96	94	94	94	94	94	94	93	94	96	97	96	94	93	92	93	93	93	93	93	93	93	93	93	94	94	94	94	94	94	94	94	94	94	94	94	94	95	95	95	95	95	94	94	94	94	94	94	94	94	95	97	99	100	102	105	107	108	109	110	111	111	111	112	112	111	111	110	110	109	108	107	106	105	103	102	100	99	97	96	95	95	95	96	99	102	105	107	108	109	109	109	109	108	104	100	97	97	98	99	102	104	106	109	111	113	115	116	117	118	119	119	120	120	120	119	118	117	115	113	111	109	107	106	105	103	102	102	103	103	103	104	106	109	112	114	115	116	117	119	120	122	123	124	123	122	120	119	118	116	115	113	110	107	106	105	105	105	105	105	106	108	111	112	114	116	118	120	121	123	124	125	127	129	131	130	128	125	123	121	119	118	116	115	115	115	115	114	114	114	115	117	119	121	123	126	128	129	130	130	130	129	129	128	128	128	128	128	127	126	123	120	118	116	114	110	111	113	115	117	120	122	125	127	129	129	129	129	128	126	125	124	123	121	119	117	115	114	114	115	117	119	121	121	120	119	118	117	117	117	118	118	119	119	120	120	120	120	121	122	122	123	123	122	122	121	121	120	119	119	119	119	120	120	120	120	120	120	120	120	120	120	120	120	120	120	121	121	122	122	123	124	125	127	128	128	128	130	132	135	138	141	144	146	149	151	153	154	155	155	154	153	154	154	155	155	155	156	156	155	156	157	159	161	162	163	165	166	167	168	168	166	165	164	163	162	159	157	154	151	148	146	143	141	139
229	226	223	220	217	214	212	209	206	204	204	207	210	212	214	217	219	221	224	227	230	232	235	237	239	240	241	242	242	242	242	241	241	241	240	238	237	236	235	234	233	233	235	238	239	240	241	242	243	243	244	245	246	246	246	245	244	243	243	242	241	241	240	240	241	243	244	245	246	247	247	248	248	247	246	245	244	243	242	241	239	237	235	233	231	229	228	227	226	225	225	226	226	227	228	229	229	229	229	229	230	231	231	231	231	231	231	231	231	231	232	233	236	238	240	241	241	241	240	239	238	237	237	236	235	235	233	232	232	231	229	228	225	223	220	219	220	222	225	228	231	233	235	237	239	241	243	244	245	247	248	248	249	250	250	250	249	247	245	244	242	241	241	241	241	241	243	245	248	250	253	256	258	260	260	258	256	253	250	248	246	245	245	249	251	254	256	258	258	258	258	258	257	255	252	249	246	244	241	238	235	232	230	228	227	225	223	221	219	218	217	216	216	216	215	215	215	214	213	211	209	207	205	203	200	198	195	192	190	189	187	186	184	182	181	179	178	176	174	172	170	170	169	169	169	169	169	168	166	165	164	163	162	163	166	169	171	173	175	177	178	179	178	177	176	175	173	172	170	166	162	158	154	152	150	148	145	143	140	138	135	132	130	127	124	120	117	116	116	116	116	117	118	118	119	120	121	122	123	124	126	127	128	130	130	129	127	125	123	120	119	121	123	125	127	127	127	127	127	126	126	127	128	130	133	135	136	135	134	132	131	131	132	133	133	134	133	133	132	132	133	134	134	135	135	134	133	132	130	129	127	125	123	121	119	117	116	114	112	111	112	114	115	115	115	114	115	115	115	115	116	118	121	123	125	127	127	126	125	125	124	124	123	123	122	122	121	120	119	120	120	121	122	123	122	122	120	119	118	118	117	116	114	113	111	110	109	107	105	104	103	101	100	99	98	97	96	96	95	95	95	95	95	95	94	93	92	90	88	87	86	85	83	81	79	78	77	77	77	77	77	77	77	77	77	77	77	77	77	77	77	77	77	77	77	77	77	78	79	79	80	81	82	83	85	88	90	92	94	96	99	101	104	106	109	111	113	115	116	117	118	119	119	117	116	114	112	109	106	103	101	99	98	96	94	92	89	87	84	83	85	88	91	93	96	100	104	106	108	109	111	113	115	117	119	122	125	128	131	133	135	135	133	131	129	126	123	120	116	113	111	110	110	109	109	108	108	107	108	109	112	115	118	119	120	121	121	122	123	124	123	122	120	119	117	115	114	112	110	109	106	102	99	97	97	98	97	97	95	94	94	94	94	94	94	93	95	96	97	96	94	92	92	93	93	93	93	93	93	93	93	94	94	94	94	94	94	94	94	94	94	94	94	94	95	95	95	95	95	95	95	95	94	94	94	94	94	94	94	95	96	98	101	103	105	107	108	109	110	110	111	111	112	112	112	111	110	110	109	108	107	106	105	103	102	100	98	96	95	95	95	95	98	101	104	107	108	109	109	109	109	108	104	100	97	97	98	99	102	105	107	109	112	114	115	117	117	118	119	120	120	120	119	118	117	116	114	112	110	108	106	104	103	102	102	102	103	103	103	104	107	110	112	114	115	116	118	119	121	123	124	125	125	123	122	121	119	118	116	114	112	109	106	106	106	106	105	105	106	107	109	111	113	115	117	119	120	121	122	123	126	128	130	130	128	126	123	122	120	118	117	116	115	115	115	115	115	115	115	116	119	121	123	126	128	129	130	130	130	129	128	127	127	126	126	126	125	124	123	121	119	117	115	111	111	113	115	118	120	123	126	128	129	130	130	130	129	128	127	126	124	122	120	118	116	114	114	116	118	120	122	124	123	122	121	121	121	121	121	122	123	124	124	124	123	124	125	126	127	127	127	126	126	125	124	122	121	120	120	120	121	121	120	120	120	120	120	120	120	120	120	120	120	120	121	121	121	122	122	123	123	123	124	126	128	130	132	135	137	140	143	146	149	151	152	153	153	153	152	152	152	152	152	152	153	154	155	156	158	159	161	163	165	166	167	168	170	170	170	169	167	166	165	162	159	156	153	151	148	145	143	141	139
229	226	223	220	217	214	211	208	204	202	202	205	208	211	213	215	217	219	222	225	228	230	232	234	236	237	238	239	239	239	239	239	239	238	237	236	235	234	233	232	232	233	237	240	241	242	242	243	243	244	245	246	246	246	245	244	244	243	242	242	241	240	239	239	240	242	243	244	246	247	248	248	248	247	246	245	243	242	241	240	238	236	235	233	231	229	227	226	225	225	224	225	226	226	227	228	228	228	228	228	229	230	231	231	231	231	231	231	231	232	233	235	237	240	241	241	240	239	238	237	236	236	235	235	234	233	232	231	230	229	228	226	224	221	219	219	220	223	226	229	231	233	235	237	239	241	242	244	245	246	248	249	250	251	252	251	250	248	247	245	243	241	241	241	241	241	243	246	249	251	254	257	259	261	261	259	256	253	250	247	246	244	244	247	250	252	255	257	258	258	257	257	257	255	251	248	244	241	238	234	231	229	227	226	224	222	220	218	217	216	215	214	214	213	213	213	213	213	212	211	209	207	205	203	201	198	196	193	191	189	187	185	183	181	179	177	176	174	173	171	170	170	170	171	172	173	173	171	169	168	166	165	163	164	167	170	172	174	176	178	180	181	181	180	178	176	175	173	171	168	164	159	156	153	152	150	148	145	143	140	137	135	132	130	127	123	120	117	115	114	113	114	115	116	117	118	119	120	121	123	124	125	127	128	128	127	125	123	121	119	118	119	122	124	125	125	125	125	125	124	124	126	128	130	132	134	135	134	133	131	130	130	131	131	132	132	132	131	130	130	131	132	133	134	134	134	133	132	131	129	127	125	123	121	120	118	116	114	112	110	110	111	112	112	112	112	112	113	114	114	115	116	119	121	124	125	125	124	123	123	122	121	121	120	120	119	118	117	117	117	118	119	120	121	122	122	121	120	119	118	117	116	116	115	114	113	111	109	107	106	105	104	103	102	101	101	101	100	98	95	95	95	95	95	95	94	93	92	91	91	90	88	86	84	81	78	77	78	77	77	77	77	77	77	77	77	77	77	77	77	77	77	77	77	77	77	77	77	78	79	80	81	82	83	85	87	89	91	93	95	98	101	103	106	108	111	113	114	115	117	118	119	119	117	116	114	112	110	107	104	102	100	98	96	94	92	89	87	84	83	86	89	92	95	98	102	105	108	110	111	113	115	117	119	121	124	127	130	132	134	135	135	133	131	128	125	122	120	116	112	109	109	108	108	107	107	107	107	107	107	109	112	116	118	119	120	121	121	122	123	122	121	119	118	116	115	113	111	110	108	104	100	97	97	97	97	97	96	95	94	94	94	94	94	94	94	96	97	97	95	93	92	92	93	93	93	93	93	93	93	93	94	94	94	94	94	94	94	94	94	94	94	94	94	95	95	95	95	95	95	95	95	95	95	94	94	94	94	94	94	94	96	99	101	104	106	107	108	109	109	110	111	111	112	112	112	111	110	110	109	108	107	106	104	103	101	99	97	96	95	95	95	97	100	103	106	108	109	109	109	109	108	104	99	97	97	98	100	102	105	108	110	113	115	116	117	118	119	120	120	120	119	118	117	116	115	113	111	109	106	104	103	103	102	102	102	103	103	103	104	107	109	112	114	115	117	118	120	122	123	125	127	126	125	123	122	120	118	117	115	113	110	107	106	106	106	106	105	105	106	108	110	112	114	115	117	118	119	121	122	125	127	130	130	129	127	124	122	121	119	117	116	115	115	115	115	115	115	116	116	118	121	123	126	128	130	130	130	130	129	128	127	126	125	124	123	123	122	122	121	119	118	115	111	111	113	116	118	121	123	126	128	130	130	130	130	130	129	129	127	125	123	121	119	117	115	114	115	118	120	123	125	126	126	126	125	125	125	125	126	127	128	128	127	127	127	128	129	130	130	130	130	129	128	126	124	122	121	121	121	121	121	121	120	120	120	120	120	120	120	120	120	120	120	120	121	121	121	122	122	122	122	123	126	129	131	133	134	137	140	143	145	148	149	151	151	151	151	151	151	150	150	150	150	152	154	156	158	159	161	163	165	167	168	170	171	172	172	172	171	170	168	166	162	159	156	153	150	148	146	144	142	140
229	226	223	220	217	214	211	207	203	200	200	203	206	209	211	213	215	218	220	223	226	228	230	232	233	234	235	236	236	237	236	236	236	235	234	234	233	232	230	230	231	235	239	241	242	243	243	244	245	245	246	247	246	246	245	244	243	243	242	241	240	239	238	238	240	241	242	244	245	247	248	248	247	246	245	244	243	242	241	239	238	236	234	232	230	228	227	226	225	224	224	224	225	226	226	227	227	227	227	227	228	229	230	231	231	231	231	231	232	233	234	236	238	240	241	240	239	238	236	235	234	234	233	233	232	231	230	229	228	227	226	224	222	220	219	219	221	224	227	230	232	233	235	237	238	239	241	242	243	245	246	248	250	251	252	252	251	249	248	246	244	242	241	241	241	241	243	246	249	252	254	257	260	262	262	259	256	253	249	247	245	243	242	244	247	250	252	255	257	257	257	257	256	254	251	248	244	240	236	232	229	227	225	223	221	220	218	216	215	213	212	212	211	211	211	211	211	211	210	209	208	206	205	203	201	199	197	194	192	190	187	184	182	179	177	176	174	174	174	173	172	172	173	174	176	176	176	174	172	170	168	166	164	164	167	170	172	175	177	179	181	183	183	181	179	177	175	174	172	169	165	161	158	156	154	152	150	147	144	141	139	137	134	132	129	126	123	120	118	116	114	113	113	113	115	116	117	118	120	121	122	123	124	126	127	126	123	121	119	117	117	118	120	122	123	123	123	123	123	122	123	125	128	130	132	133	134	133	132	131	130	129	130	130	131	131	130	129	128	129	130	131	132	132	132	133	132	131	130	129	127	126	124	122	120	118	116	114	112	110	108	108	109	110	110	110	110	111	111	112	113	115	117	120	122	123	123	122	121	120	120	119	118	118	117	117	116	115	115	115	116	117	119	119	120	120	120	120	119	118	117	116	116	115	114	114	113	111	109	108	108	108	107	107	106	105	105	102	97	95	95	95	96	96	96	96	95	94	94	93	92	90	88	84	80	78	77	78	78	77	77	77	77	77	77	77	77	77	77	77	77	77	77	77	77	77	77	77	78	79	79	80	81	82	84	86	88	90	92	95	97	100	102	105	107	110	112	114	115	116	117	119	119	118	116	115	113	110	108	105	103	100	98	96	94	92	89	87	84	83	86	89	92	95	99	102	106	109	111	112	114	116	118	120	123	125	128	131	132	134	136	135	133	131	128	125	122	120	116	111	109	108	107	107	106	106	105	105	106	106	107	110	114	117	119	119	120	121	122	122	121	120	119	117	116	114	112	111	109	106	102	98	97	97	97	97	96	95	94	94	94	94	94	94	94	95	97	97	96	94	94	93	92	92	92	93	93	93	93	93	93	94	94	94	94	94	94	94	94	94	94	94	94	94	95	95	95	95	95	95	95	95	95	95	95	94	94	94	93	93	93	94	97	100	102	104	106	107	108	109	109	110	111	111	112	112	112	111	111	110	109	108	107	106	104	102	100	98	97	96	96	95	96	99	102	105	108	109	109	109	109	107	104	99	97	97	98	100	103	106	108	111	113	115	116	117	118	119	120	120	119	118	117	116	115	113	111	109	107	105	104	103	103	103	103	103	103	103	103	104	106	109	111	113	115	117	119	120	122	124	126	127	127	126	124	122	121	119	117	116	114	111	108	106	106	106	106	106	105	105	107	109	111	112	114	115	116	118	120	122	124	127	129	130	130	128	125	123	122	120	118	117	116	116	115	115	115	116	116	117	118	121	123	126	129	130	130	130	130	129	128	127	125	123	122	121	121	120	120	120	119	117	115	111	111	113	116	118	121	123	126	128	130	130	130	130	130	130	129	128	126	124	122	120	117	115	114	115	117	120	123	126	128	129	129	129	128	128	128	129	130	131	130	130	129	129	130	131	131	132	132	132	131	130	128	126	124	122	122	122	122	122	121	121	120	120	120	120	120	120	120	120	120	120	120	120	121	121	121	122	122	122	124	127	130	131	133	135	137	139	142	145	146	148	149	149	150	149	149	149	148	148	148	149	152	155	157	159	161	162	165	167	169	170	171	173	174	174	174	173	172	170	166	162	158	155	153	151	149	147	145	144	142
229	226	224	221	218	214	211	207	202	199	199	200	203	206	209	212	214	216	219	221	224	226	228	229	230	232	232	233	233	233	233	233	233	233	232	231	230	229	228	229	232	236	240	242	243	244	245	245	246	247	247	247	246	245	244	244	243	242	242	241	240	238	237	237	239	240	241	243	244	246	247	248	247	246	244	243	242	241	240	239	237	236	234	232	230	228	227	226	225	224	223	224	224	225	225	226	226	226	226	226	227	228	229	230	231	231	231	232	233	234	236	237	239	240	240	239	237	236	235	234	233	232	231	231	231	230	229	227	226	226	224	223	221	219	219	220	222	225	228	231	232	233	234	235	236	237	239	240	241	243	244	246	248	250	250	250	249	249	248	247	245	243	242	242	242	243	245	248	250	252	255	258	261	262	262	259	256	252	249	247	244	242	240	242	245	247	250	253	255	256	255	255	254	253	251	248	244	240	235	231	228	225	223	221	219	218	216	214	212	211	210	210	209	209	208	208	208	208	208	207	206	205	204	202	201	199	197	195	192	189	186	183	180	178	176	175	175	176	176	176	176	176	176	178	179	179	178	176	174	171	169	167	165	165	168	170	173	176	178	180	183	184	183	181	179	177	176	174	172	170	167	163	160	158	156	153	151	149	146	143	141	138	136	134	131	128	125	123	120	118	116	114	113	112	113	114	115	117	118	119	120	121	122	124	125	124	122	120	118	116	116	117	118	120	121	121	121	121	120	120	122	124	127	130	131	132	133	132	132	131	129	128	128	129	130	129	129	128	127	127	128	130	130	131	131	131	131	131	130	129	127	125	123	122	120	118	116	114	112	110	108	106	106	107	108	108	108	109	109	110	111	114	116	119	120	121	120	120	119	118	117	116	116	115	115	115	114	113	113	113	114	116	117	118	119	119	119	119	118	118	117	116	115	115	114	114	113	112	111	111	111	111	111	111	111	109	105	100	96	95	96	96	97	97	97	97	96	95	94	93	92	90	87	84	80	78	77	78	78	78	77	77	77	77	77	77	77	77	77	77	77	77	77	77	77	77	77	77	77	78	79	80	81	82	83	85	87	89	91	94	96	98	101	103	105	108	111	113	114	115	117	118	119	118	117	115	114	111	109	106	104	101	99	97	94	92	90	88	85	84	86	89	92	95	99	102	105	108	110	112	113	115	118	120	123	125	128	131	133	135	136	135	133	131	128	125	122	120	115	111	108	107	106	106	105	105	105	105	105	105	106	107	111	115	118	119	119	120	121	121	121	119	118	117	115	113	112	110	108	104	101	97	97	97	97	97	96	95	94	94	94	94	94	94	95	96	97	97	95	94	95	96	94	93	92	92	93	93	93	93	93	94	94	94	94	94	94	94	94	94	95	95	94	94	95	95	95	95	95	95	95	95	95	95	95	94	94	94	94	94	93	94	95	97	100	102	104	106	107	108	109	109	110	111	111	112	113	112	111	111	110	109	108	107	105	103	101	100	98	96	96	95	96	97	101	104	107	108	109	109	108	107	103	99	97	97	98	100	103	106	109	111	114	116	117	118	119	120	120	120	119	117	116	115	114	112	109	107	106	105	105	105	105	105	104	104	103	103	103	104	106	108	111	113	115	117	118	120	122	123	125	127	127	126	124	123	121	119	117	116	114	111	108	106	106	106	106	106	105	105	106	108	109	111	113	114	116	117	119	121	124	126	129	130	130	129	127	125	123	121	119	117	116	116	116	116	116	116	116	117	119	121	124	126	129	130	130	130	130	130	129	127	126	123	121	119	119	118	118	118	118	116	114	111	111	113	115	117	120	123	125	128	129	130	130	130	130	130	130	129	127	125	123	121	118	116	114	115	117	120	122	125	128	130	130	130	130	130	130	131	132	132	132	131	131	131	132	132	133	133	134	133	132	131	130	128	126	123	122	122	122	122	122	121	120	121	121	121	121	121	121	121	121	121	121	120	121	121	121	122	122	122	124	127	130	132	133	135	137	139	141	143	144	146	147	147	147	147	147	146	146	146	147	150	152	155	157	159	161	164	166	168	169	171	172	173	174	175	175	174	173	170	166	161	158	156	154	152	150	149	147	146	144
229	227	224	221	218	215	211	207	203	199	198	199	200	203	207	210	212	215	217	219	221	223	225	226	228	229	229	230	230	230	231	231	230	230	229	228	227	226	226	229	233	237	241	242	244	245	246	246	247	248	247	247	246	245	244	243	242	242	241	240	239	237	236	236	238	239	241	242	244	246	247	247	246	245	243	242	241	240	239	238	236	235	233	231	230	228	227	226	224	223	222	223	223	224	224	224	225	225	225	225	226	227	228	229	230	231	232	233	234	236	237	239	239	239	238	237	235	234	233	232	231	230	230	229	229	228	227	226	225	224	223	221	220	219	220	221	224	226	229	231	232	233	233	233	234	235	236	238	239	241	243	245	247	247	247	247	247	246	246	246	245	244	244	244	244	245	246	249	251	253	256	259	261	262	262	259	256	252	249	246	244	241	239	240	243	246	249	252	254	254	253	253	252	252	251	248	244	240	235	231	228	225	222	219	218	216	214	212	210	209	208	207	207	206	206	205	205	205	205	205	204	203	202	201	199	197	196	194	191	188	185	182	179	177	175	175	176	178	179	179	179	179	180	181	182	182	180	177	175	173	171	168	166	166	168	171	174	177	179	182	184	185	183	181	179	177	175	173	172	170	168	165	162	159	157	154	152	150	147	144	142	140	137	135	132	130	127	124	122	120	118	116	114	112	111	112	114	115	116	117	118	119	120	122	124	123	120	118	117	115	115	116	117	119	119	119	119	119	118	119	120	123	126	129	131	132	132	132	131	131	129	127	127	127	128	128	127	126	125	125	126	128	128	129	129	130	130	130	129	128	126	124	123	121	119	118	116	114	112	110	108	106	105	105	105	106	106	106	107	108	110	113	116	118	119	119	118	118	117	116	115	114	113	113	113	112	111	111	111	111	112	114	116	117	117	118	118	117	117	116	115	115	114	114	113	113	113	113	113	113	113	113	113	114	113	109	104	98	96	96	96	97	98	98	98	97	96	95	94	93	91	89	86	82	78	77	78	78	78	78	78	78	77	77	77	77	77	77	77	77	77	77	77	77	77	77	77	77	77	78	78	79	80	81	82	83	86	88	90	92	94	96	99	101	103	106	108	111	113	115	116	118	119	118	117	116	114	113	110	108	105	102	99	97	95	93	90	89	86	85	87	90	92	95	98	101	104	107	108	110	112	114	116	119	121	124	128	131	133	135	136	135	133	131	129	126	123	120	116	112	109	107	107	106	106	105	105	104	104	104	105	106	109	113	117	118	119	119	120	121	120	119	117	116	114	113	111	109	106	103	100	98	97	97	97	96	95	94	94	94	94	94	94	95	95	97	97	96	94	95	98	99	98	96	94	93	92	92	93	93	93	94	94	94	94	94	94	94	95	95	95	95	94	95	95	96	96	96	96	95	95	95	95	95	94	94	94	94	94	94	93	93	94	95	98	100	102	104	106	107	108	109	109	110	111	112	112	113	112	111	110	110	109	108	106	105	103	101	99	97	96	96	95	96	99	102	105	107	108	109	108	106	103	99	97	97	98	101	104	106	109	112	114	116	117	118	119	120	120	120	118	117	116	114	112	110	108	106	106	107	108	108	108	107	106	105	103	103	103	104	106	108	111	113	115	116	118	119	121	123	125	127	128	127	125	123	121	119	117	116	113	111	108	107	106	106	106	106	105	105	106	107	108	110	111	113	115	116	118	120	123	125	128	130	131	130	128	126	124	123	120	118	117	116	116	116	116	116	116	117	119	122	124	126	129	130	130	131	131	130	129	128	126	123	120	118	117	116	117	117	116	115	113	110	111	113	114	116	119	122	125	127	129	130	130	130	130	130	130	130	128	126	124	121	119	116	115	115	116	119	122	125	128	130	131	131	132	132	132	133	133	134	134	133	133	134	134	135	135	135	135	134	132	131	131	129	127	124	123	123	123	123	122	121	121	121	121	122	122	123	123	122	122	121	121	121	121	121	121	122	122	122	124	127	130	132	133	135	137	139	140	141	142	143	144	144	144	144	144	144	143	144	146	149	151	154	156	159	162	164	165	167	168	170	172	173	174	175	175	175	174	171	167	162	159	157	155	153	152	150	149	148	146
230	227	224	221	218	215	212	208	203	199	197	197	198	200	204	207	210	213	215	217	219	221	223	224	225	226	226	227	227	227	228	228	227	227	226	225	224	224	226	230	234	238	241	243	244	246	247	248	248	248	247	246	245	244	244	243	242	241	240	239	238	236	235	236	237	239	240	242	244	246	246	245	244	243	242	241	240	239	238	237	236	234	233	231	229	228	226	225	223	222	221	221	222	223	223	223	223	224	224	224	225	226	228	230	231	232	233	234	235	237	238	239	239	237	236	235	234	232	231	230	229	228	228	227	227	226	225	224	223	222	221	220	219	219	220	223	225	227	230	232	232	232	232	231	231	232	234	235	237	239	242	244	245	245	245	244	244	244	244	244	244	244	244	245	245	246	248	250	252	254	257	260	261	262	261	259	255	251	248	245	243	240	238	239	242	245	249	251	252	252	251	251	250	251	250	248	244	240	236	232	228	225	222	219	217	215	212	210	207	206	206	205	205	204	203	203	203	203	203	203	202	201	200	199	198	196	194	192	190	187	184	181	178	176	176	177	178	180	181	182	182	182	183	184	185	184	181	179	176	174	172	169	166	166	168	171	174	177	180	183	186	186	183	181	178	176	174	173	171	170	168	166	162	160	157	155	153	150	148	145	143	140	138	135	133	130	128	125	123	121	119	117	115	112	111	111	112	113	114	115	116	117	118	120	122	121	119	118	116	114	114	115	116	117	117	117	117	117	116	117	119	122	125	128	130	131	132	131	131	130	129	127	126	126	126	125	125	124	124	124	124	125	126	127	127	128	129	129	128	127	125	123	122	120	119	117	116	114	112	110	108	106	104	103	103	103	104	104	105	107	109	112	114	116	117	117	116	116	115	114	113	112	111	111	111	110	109	108	108	108	110	112	114	115	116	116	116	116	115	114	114	113	113	112	112	112	113	113	114	114	114	115	115	115	113	109	103	97	96	96	98	99	100	99	98	97	96	95	93	92	90	88	84	80	78	77	78	78	78	78	78	78	78	78	78	78	77	77	78	78	78	78	78	78	78	78	78	78	77	77	78	79	79	80	81	82	84	86	88	90	92	94	96	98	101	103	106	109	112	114	115	117	118	119	118	116	115	114	112	109	106	103	100	98	96	93	91	90	88	86	87	89	92	94	97	100	103	105	106	108	110	112	114	117	120	124	128	131	133	135	136	135	133	132	129	126	123	120	117	113	111	109	108	108	107	107	106	105	104	103	104	105	107	111	115	118	118	119	119	120	119	118	117	115	114	112	110	107	104	102	100	98	97	97	96	95	95	94	94	94	94	94	95	95	96	97	97	95	95	97	100	101	100	99	98	96	93	92	93	93	93	94	94	94	95	95	95	95	95	95	95	95	94	95	96	96	96	96	96	96	96	96	95	94	94	94	94	94	94	94	94	94	93	94	96	98	100	102	105	106	107	108	108	109	110	111	112	113	113	112	111	110	109	109	107	106	104	102	100	98	96	96	96	96	97	100	103	106	107	108	107	105	102	99	97	97	98	101	104	107	109	112	115	116	117	118	119	121	120	119	118	117	115	113	111	109	107	107	108	109	110	110	110	110	108	106	104	103	103	103	105	108	110	113	115	116	117	119	120	122	124	126	128	127	125	123	121	119	117	116	113	111	108	107	106	106	106	105	106	106	107	108	109	110	111	112	114	116	118	120	122	125	128	130	131	131	129	128	126	124	121	119	117	116	116	116	116	116	117	118	120	122	124	127	129	130	131	131	131	131	130	128	126	123	120	117	115	115	115	115	115	113	111	110	111	112	114	115	118	120	123	126	128	130	130	130	130	131	130	130	129	127	125	122	120	117	115	114	115	118	121	124	127	129	130	131	132	132	133	134	135	135	136	136	136	136	136	137	137	137	136	135	133	131	131	130	127	124	124	124	124	124	123	122	121	121	122	123	124	125	124	124	123	122	121	121	121	121	121	122	122	123	124	126	129	131	133	134	136	137	138	139	140	141	141	142	142	142	142	141	142	143	145	148	150	152	155	158	161	162	163	165	167	169	171	172	173	174	175	176	175	172	169	165	161	158	156	155	153	152	151	149	147
230	227	224	221	218	215	212	208	204	200	197	195	196	198	200	203	207	210	213	215	217	218	220	221	222	223	223	224	224	224	225	225	225	224	223	222	222	224	227	231	234	238	241	244	245	247	248	249	248	247	246	246	245	244	243	242	242	241	239	238	236	235	234	235	236	238	240	242	244	245	245	244	243	242	241	240	239	238	237	236	235	233	232	231	229	227	226	224	223	221	220	221	221	222	223	222	222	222	222	223	225	227	229	231	232	233	234	235	237	238	238	238	237	236	235	233	232	230	229	228	227	227	226	225	225	224	223	222	221	220	219	219	219	220	222	224	227	229	231	232	232	232	230	229	229	230	231	233	236	239	241	243	243	243	243	242	242	241	241	241	242	242	242	243	245	247	248	250	252	254	257	260	262	262	261	258	254	250	247	244	242	239	236	237	241	245	248	250	251	251	249	248	248	248	248	247	245	241	237	233	229	226	222	219	217	214	211	208	205	203	203	203	203	202	202	201	201	201	201	201	200	199	198	197	196	195	193	191	189	186	182	179	177	177	178	179	180	181	182	184	185	185	186	187	187	185	182	180	178	175	173	170	167	167	169	172	175	178	181	184	187	186	183	181	178	176	174	172	171	170	168	165	162	160	158	156	153	151	148	146	143	141	138	135	133	130	128	126	124	121	119	117	115	113	111	110	111	112	113	113	114	115	117	119	120	120	118	117	115	114	113	114	115	115	115	115	115	115	115	116	118	121	124	126	129	130	131	131	131	130	128	126	125	124	124	123	123	122	122	122	122	123	124	125	125	126	127	127	126	126	124	123	121	120	118	117	116	114	112	110	108	106	104	103	102	101	102	102	103	105	107	110	112	114	115	115	114	114	113	112	111	110	110	109	109	108	107	106	106	106	108	109	111	113	114	114	114	114	113	112	112	111	111	110	110	111	112	113	115	115	116	116	116	115	112	108	101	97	96	97	99	101	101	99	97	96	95	94	92	91	89	85	81	78	77	78	78	78	78	78	78	78	78	78	78	78	78	78	78	78	78	78	78	78	78	78	78	78	77	77	78	78	79	79	80	81	83	85	87	88	90	92	94	96	98	101	104	107	110	112	114	116	118	118	118	117	116	115	113	111	108	105	102	99	97	95	92	91	89	88	88	89	91	93	96	98	100	102	104	105	108	110	113	116	119	123	127	131	133	135	136	135	133	132	130	128	125	122	119	117	115	114	113	112	111	110	108	107	105	104	103	104	106	109	113	116	118	118	119	119	118	117	116	115	113	111	109	106	103	100	99	98	97	96	95	95	95	94	94	94	94	95	95	96	97	97	96	95	96	99	101	101	101	101	101	100	96	93	92	93	93	93	94	94	95	95	95	95	95	95	95	95	95	95	96	96	96	96	96	96	96	96	96	94	94	94	94	94	94	94	94	94	94	94	94	96	98	100	103	105	106	107	108	109	109	110	111	112	113	113	112	111	110	109	108	107	105	103	101	99	97	96	96	95	96	99	101	103	105	106	106	103	101	99	97	97	99	101	104	107	110	113	115	116	117	119	120	121	120	119	117	116	115	112	110	109	109	110	111	112	112	113	113	112	111	109	106	104	103	103	105	107	110	112	114	115	116	118	120	122	124	126	128	127	125	123	121	119	117	115	113	110	108	106	106	106	106	106	107	109	110	111	111	111	111	112	113	115	117	119	122	124	127	130	130	130	130	129	127	125	122	120	118	117	116	116	116	117	117	118	120	122	125	127	129	130	131	131	131	131	130	128	126	123	120	117	115	114	114	114	113	112	111	110	111	112	113	114	116	119	121	124	127	129	130	130	131	131	130	130	129	128	126	123	121	118	116	115	115	116	119	122	124	127	129	131	131	132	133	134	135	136	137	138	138	139	139	139	139	139	137	135	133	132	130	129	127	125	126	126	126	125	124	122	122	122	123	124	125	126	126	125	125	123	122	121	121	121	121	122	122	123	123	125	128	130	132	133	134	135	136	136	137	138	139	139	139	139	139	139	140	142	144	146	148	150	152	155	158	159	161	163	165	167	169	171	172	173	174	175	175	174	172	168	164	161	159	157	155	153	152	150	148
230	227	224	221	218	215	212	209	205	201	197	195	195	197	198	200	203	207	210	213	214	216	217	218	219	220	220	221	221	221	222	222	222	221	220	220	221	224	228	231	235	238	241	244	246	248	249	249	248	246	246	245	244	243	242	242	241	239	238	236	235	233	233	234	235	237	239	241	243	244	243	242	241	240	240	239	238	237	236	235	234	233	231	230	228	227	225	223	222	220	220	220	221	222	222	222	221	221	221	223	226	229	231	232	234	234	235	236	237	237	237	236	235	234	233	232	230	229	227	226	226	225	224	224	223	222	222	221	220	219	218	219	220	222	224	227	229	230	231	232	231	230	228	226	226	228	230	232	235	238	240	241	241	241	240	240	239	239	239	239	239	240	240	241	242	244	247	249	251	253	256	259	261	262	260	256	252	248	246	243	240	238	235	235	239	243	247	250	250	250	248	246	245	245	245	245	244	242	238	234	231	227	223	220	217	214	211	208	204	202	201	201	200	200	200	200	199	199	199	198	198	197	197	196	194	193	192	189	187	184	181	178	178	179	180	181	182	183	184	186	187	188	189	190	189	186	184	181	179	176	174	171	168	167	169	172	175	178	182	185	187	186	183	180	178	175	173	171	170	168	166	164	162	160	157	155	153	151	148	146	143	140	138	135	133	130	128	126	123	121	119	117	115	113	111	110	110	111	112	112	113	114	116	117	118	118	117	116	115	113	112	112	113	114	114	114	114	114	114	115	117	120	123	125	127	129	130	130	130	129	127	125	123	122	122	121	121	121	120	120	120	121	122	123	123	124	124	124	124	124	124	122	121	120	118	117	116	114	112	110	108	106	104	102	101	100	100	100	101	103	105	107	109	111	112	112	112	111	111	110	109	108	108	107	107	106	105	104	103	104	105	107	108	110	111	112	112	112	111	110	110	109	109	109	109	110	112	113	115	117	117	117	117	116	112	106	100	96	96	98	101	102	100	98	96	95	94	93	92	90	87	83	79	78	78	78	78	78	78	78	78	78	78	78	78	78	78	78	78	78	78	78	78	78	78	78	78	78	78	78	78	78	78	79	79	80	81	83	85	87	88	90	92	94	96	99	102	105	108	111	113	115	116	118	118	117	116	115	115	113	111	107	103	100	98	96	94	92	90	89	89	90	91	93	94	96	98	100	101	104	106	109	113	116	119	124	128	131	133	135	136	135	134	133	131	129	127	125	123	121	119	118	117	116	115	114	112	109	107	105	103	103	105	107	111	115	117	118	118	118	118	117	116	114	113	111	108	105	102	100	98	97	96	96	95	95	95	94	94	94	95	95	95	96	97	97	96	95	96	99	101	101	102	102	102	101	99	95	92	93	93	93	94	94	95	95	95	95	95	95	95	96	96	96	97	97	97	97	96	96	96	96	96	95	95	95	95	94	94	94	94	94	94	94	94	95	96	98	101	103	105	106	107	108	109	110	110	111	112	113	112	112	110	110	109	108	106	104	102	100	98	96	96	96	96	97	99	101	103	105	105	102	100	98	97	97	99	102	105	107	110	113	115	117	118	119	120	121	120	118	117	116	114	111	110	110	111	112	113	114	114	115	115	114	113	111	108	105	103	103	105	107	109	111	113	114	116	117	119	121	124	126	128	127	125	123	121	119	117	115	113	110	108	106	106	106	107	108	110	112	113	113	114	113	113	113	113	115	116	119	122	124	127	129	130	130	130	129	127	125	123	121	119	117	117	117	117	117	117	118	120	122	125	127	129	130	130	130	130	130	129	127	124	122	119	117	114	113	112	112	111	112	112	112	112	112	112	113	115	117	120	122	125	127	129	130	130	131	131	130	130	129	127	124	122	119	117	115	115	115	117	118	121	124	127	129	130	131	131	132	133	135	136	137	139	140	140	141	141	140	138	136	134	132	131	129	128	127	128	128	127	126	124	123	122	123	124	126	127	128	128	127	127	126	124	122	122	122	122	122	122	123	123	124	126	129	131	132	132	133	133	134	135	136	136	136	137	137	137	137	138	140	142	144	146	148	150	153	155	157	159	162	163	165	167	169	171	172	174	175	175	175	173	171	167	164	162	160	157	154	152	150	148
